ply
format ascii 1.0
comment Created by Open3D
element vertex 500
property double x
property double y
property double z
property double nx
property double ny
property double nz
end_header
0.44483 0.275374 0.10171 0.962701 0.265834 -0.0503948
-0.166673 -0.0458225 -0.163797 -0.956389 -0.279329 0.0854167
0.138695 -0.0689915 0.246035 0.208663 -0.934698 -0.287748
0.245012 0.325007 -0.315897 -0.171109 0.542337 -0.822552
0.169925 -0.0205155 0.303752 0.00494013 0.16618 0.986083
-0.212663 0.264006 -0.188817 -0.240401 0.952291 -0.188012
-0.0475829 -0.125799 -0.273811 0.0205214 -0.249745 -0.968094
0.426837 0.313659 -0.214484 0.953781 0.298522 -0.0344505
0.0878093 0.378118 -0.0249356 -0.243617 0.951307 -0.188853
-0.0539465 -0.0614331 0.30601 -0.0189233 0.170575 0.985163
0.440479 0.269635 -0.154407 0.946516 0.318744 -0.0500989
0.197003 0.381936 0.170297 0.199381 -0.748511 -0.632439
0.0994953 -0.0141502 0.302748 -0.103178 0.100484 0.989574
0.335129 -0.0949879 -0.197322 0.268938 -0.922994 0.275233
0.375254 -0.00508156 -0.286473 -0.00963321 -0.121322 -0.992567
0.069684 0.273036 -0.310603 -0.197711 0.544377 -0.815208
-0.066884 -0.304821 -0.160968 0.295405 -0.941898 0.15989
-0.117312 0.189023 0.260499 -0.0395732 0.26103 0.964519
-0.165855 -0.0985332 0.0567491 -0.974048 -0.216242 -0.0668592
0.0511016 0.32859 -0.234603 -0.273063 0.950629 -0.147448
0.244287 0.0941657 0.285069 -0.018372 0.189387 0.981731
-0.410971 -0.0301533 0.020821 -0.20497 0.840952 0.500787
-0.116955 -0.0952076 0.31266 0.0178928 0.126271 0.991834
0.457322 -0.224665 -0.0442079 -0.291017 0.943343 -0.159415
0.223808 0.153356 -0.321376 0.0309826 -0.223477 -0.974217
-0.177447 -0.0116622 -0.26962 -0.959018 -0.280084 0.0428602
-0.196441 0.230617 0.167209 -0.248768 0.958819 0.137043
0.390567 0.135643 0.278911 -0.00747184 0.174062 0.984706
0.381522 0.263448 0.25599 0.000867074 0.155901 0.987772
-0.115029 -0.206014 0.0470148 -0.964156 -0.263318 0.0326773
0.451277 0.221781 -0.260856 0.968482 0.248029 -0.0229126
-0.229592 0.143798 0.0142584 -0.265621 0.95555 0.127942
0.253831 0.362979 0.177497 -0.168978 0.486249 -0.857326
0.452907 0.230491 -0.134861 0.95609 0.290354 -0.039823
0.0408139 0.296199 0.150929 -0.202672 0.859778 0.468728
-0.281731 -0.0289052 -0.0343524 -0.0492328 -0.0203094 -0.998581
0.270227 -0.198567 -0.0996821 0.250453 -0.948686 0.193051
0.114039 0.178437 0.266062 -0.0187147 0.178108 0.983833
0.453764 0.242411 -0.0297637 0.960226 0.274591 -0.0506617
0.455443 0.2002 -0.251819 0.951897 0.299877 -0.0629777
0.474169 -0.0946837 0.217612 -0.055424 0.204654 0.977264
-0.086341 -0.312463 -0.193795 0.245291 -0.940884 -0.233601
0.444942 -0.138644 0.0938785 -0.938158 -0.342749 0.0488197
0.523276 -0.0514489 0.270433 0.160249 -0.726259 0.668482
-0.0201516 -0.277 -0.225085 0.163427 -0.698806 -0.696392
-0.0618118 0.235542 -0.271549 0.24027 -0.793989 0.558437
-0.184582 0.0233302 -0.173095 -0.973842 -0.227194 -0.00373462
0.380693 -0.175785 -0.145653 0.239634 -0.941318 0.237688
0.121519 0.213252 -0.333178 0.0138602 -0.176882 -0.984134
-0.235435 0.239186 0.105067 -0.965072 -0.260972 0.0230188
0.234656 -0.198949 -0.0560179 0.266439 -0.947991 0.174138
0.426648 0.326107 -0.106635 0.985169 0.170883 -0.0155293
0.0528803 -0.0934925 0.314115 -0.0217133 0.179517 0.983515
0.0422161 -0.0681948 0.308825 -0.00268037 0.155198 0.98788
-0.0704339 0.0800479 0.28029 -0.0444245 0.201953 0.978387
-0.0273016 0.093057 0.280705 0.00472851 0.140071 0.99013
0.279852 -0.0846457 -0.276867 0.0553685 -0.189398 -0.980338
0.16185 0.26303 -0.337752 -0.203419 0.571637 -0.794891
-0.0705869 -0.0737322 -0.284547 0.0224671 -0.179085 -0.983577
0.170083 0.0338543 -0.301302 0.037775 -0.1984 -0.979393
-0.0735128 -0.171249 0.22947 -0.184422 0.69338 0.696572
-0.146839 0.204399 -0.330487 -0.0516575 0.167638 -0.984494
-0.168631 -0.0864802 0.0798487 -0.953898 -0.291261 0.0724262
0.0734242 0.284088 -0.305413 -0.13047 0.519914 -0.844196
0.483339 -0.0932895 -0.176722 -0.191085 0.59442 -0.781122
0.332067 0.217425 -0.329493 0.0694535 -0.255561 -0.964295
0.123378 -0.237106 -0.190863 0.219759 -0.822844 -0.524056
-0.204403 0.0278663 -0.0796252 -0.974796 -0.222884 -0.00973145
0.499893 0.069311 -0.0790759 0.976684 0.214658 0.00327639
0.517316 -0.00943033 -0.114259 0.964033 0.263997 -0.0307732
0.00724905 -0.247988 -0.247702 0.0527337 -0.49262 -0.868645
0.0978661 -0.207337 -0.242648 0.193298 -0.785186 -0.588319
0.266312 0.367178 0.133071 -0.125317 0.568506 0.813079
0.537222 -0.0611424 0.104216 0.945256 0.317888 -0.0737486
0.448286 -0.205645 0.0707802 -0.306654 0.937164 -0.166394
0.000664468 0.3343 0.167061 0.259534 -0.948597 -0.181123
-0.163492 -0.114271 0.00125053 -0.96307 -0.267392 0.0315927
0.083571 0.348586 -0.17784 -0.257278 0.949151 -0.18144
0.206855 0.43924 0.123309 -0.2773 0.953374 -0.11909
0.329902 -0.132275 0.160016 0.28465 -0.94913 0.134635
0.0297501 -0.0980406 0.245488 0.253088 -0.956831 -0.142903
0.308315 -0.131157 0.214201 0.206101 -0.956237 0.207684
-0.174843 0.0668941 -0.312402 -0.0143332 -0.130222 -0.991381
0.28103 0.31814 -0.338639 -0.967178 -0.253913 -0.00972972
-0.217344 0.0906646 -0.0253184 -0.957276 -0.289094 -0.00688852
0.237333 -0.0868081 0.222167 -0.193869 0.819179 0.539779
0.0105706 0.210628 0.257482 -0.106811 0.227511 0.9679
-0.203524 0.252925 0.193423 -0.029282 -0.0439486 -0.998605
0.497299 -0.0732481 -0.274003 -0.0134694 -0.160354 -0.986968
0.221179 0.152255 -0.321078 0.00509905 -0.253172 -0.967408
-0.0043066 0.208434 -0.241762 -0.229317 0.711394 -0.664329
-0.0809585 -0.289272 -0.0563659 0.257134 -0.949003 0.182413
0.070836 -0.108174 -0.274208 0.00788344 -0.150306 -0.988608
0.0393779 -0.270096 -0.128644 0.285198 -0.94814 0.140329
0.442173 -0.181665 -0.0779394 0.00220048 0.124363 0.992234
0.0176974 0.384668 0.104116 -0.287235 0.944542 -0.159175
-0.0281403 -0.252693 -0.247138 0.0444344 -0.405028 -0.913224
0.241212 0.231732 -0.332607 0.0213598 -0.184625 -0.982577
-0.0951502 0.226242 -0.308702 -0.173734 0.545494 -0.81991
0.298873 -0.18387 -0.0636781 0.269868 -0.949438 0.160432
-0.0292305 -0.274313 -0.0423253 0.244233 -0.936796 0.250525
0.353705 -0.137143 0.118211 0.283422 -0.946284 0.155623
-0.0978094 0.335813 0.0175235 -0.292168 0.949978 -0.110358
0.440282 0.197872 -0.322176 0.047711 -0.213118 -0.975861
-0.199879 -0.0352388 -0.0196837 0.252248 -0.807007 -0.533958
0.0129323 0.187161 0.264103 -0.0172728 0.087842 0.995985
-0.0326063 0.0917436 -0.313807 0.0153529 -0.16738 -0.985773
-0.0949884 0.041231 0.28667 -0.0161028 0.177201 0.984043
0.100456 0.257095 -0.238867 -0.0613371 0.0175705 -0.997962
0.281257 0.44145 0.0301708 -0.276985 0.9469 -0.163279
-0.468021 -0.106192 -0.0137325 0.213165 -0.730107 -0.649233
0.516458 0.0138576 0.0451569 0.951592 0.304263 -0.0435425
0.0278666 -0.258486 -0.0637681 0.259488 -0.948575 0.181304
0.109563 0.0822927 -0.308895 0.0874603 -0.243928 -0.965842
0.258417 0.360875 0.137535 -0.128363 0.678988 0.72284
-0.239495 0.249164 -0.010482 -0.961355 -0.273312 0.0331294
0.335098 0.10048 0.283744 0.00309615 0.142494 0.989791
-0.0284349 -0.214076 -0.205145 0.038177 -0.0205616 0.999059
0.484989 -0.178053 -0.15035 -0.0280711 -0.270049 -0.962437
-0.0671411 0.282785 0.14271 -0.0694098 0.361474 0.929795
0.0247602 -0.268475 -0.106075 0.277106 -0.95063 0.139692
0.280543 0.448703 0.197807 -0.215985 0.802428 0.556292
0.068907 -0.214936 0.120773 0.271946 -0.948132 0.164597
-0.221124 0.172029 -0.0722894 -0.961151 -0.269813 0.0582271
0.392654 0.40724 -0.30381 -0.184997 0.860247 -0.475133
0.515383 -0.00524286 -0.143269 0.95588 0.28686 -0.0632783
0.421823 0.361743 0.0284507 0.957304 0.281008 -0.0678561
0.421734 0.220574 0.26287 -0.00645396 0.137483 0.990483
0.224483 0.115576 0.280381 -0.0489856 0.244859 0.96832
-0.117475 -0.0773668 -0.284415 0.0452875 -0.187843 -0.981154
-0.166472 -0.0497033 -0.186346 -0.965331 -0.260741 0.0122357
0.506732 0.0763377 0.275765 0.975237 0.217647 -0.0392894
0.158455 0.42603 0.122033 -0.231664 0.943944 -0.235163
-0.23791 0.311131 0.0907706 -0.259196 0.949038 -0.179288
-0.215598 0.0772032 0.0276148 -0.983158 -0.182369 0.0119327
0.152372 -0.205714 0.0462311 0.276364 -0.946273 0.1679
0.520294 -0.229981 -0.07709 0.277482 -0.946752 0.16329
0.410831 0.357974 -0.338509 0.970229 0.240271 0.0304179
-0.218818 0.18769 0.207452 -0.958103 -0.279165 0.0640786
-0.05146 -0.244212 -0.164914 -0.26872 0.803115 -0.531785
-0.0758112 0.184633 -0.250024 -0.22096 0.926508 -0.304565
0.142815 -0.193236 -0.247956 0.253029 -0.875163 -0.412392
0.393495 0.406068 0.129144 -0.0491518 0.38174 0.922962
-0.169687 0.302941 -0.0512014 -0.266538 0.948694 -0.170107
0.350859 0.205709 0.2657 -0.034341 0.136047 0.990107
0.179072 -0.105541 0.226898 -0.218804 0.875263 0.431322
0.387131 -0.161633 -0.0786412 0.278025 -0.95115 0.134225
0.0445191 0.363007 0.197388 -0.193658 0.812437 0.549947
0.0923143 0.209092 0.260933 -0.0620214 0.217197 0.974155
0.513845 0.0392308 0.178844 0.975448 0.220042 -0.00910154
0.21875 -0.0464544 0.248922 0.228785 -0.807127 -0.544246
0.528711 -0.206283 0.0302493 0.272666 -0.949357 0.156122
-0.0139967 -0.0668153 -0.284538 0.0188434 -0.206397 -0.978287
-0.0354511 0.312105 -0.19667 -0.203682 0.958343 -0.20023
0.241801 -0.177025 -0.233118 0.201784 -0.781484 -0.590395
-0.243973 0.257211 -0.037804 -0.953064 -0.301152 0.0312636
0.232091 0.319014 0.243322 0.0136843 0.12025 0.992649
0.0211263 -0.27959 -0.196495 0.253118 -0.955642 -0.150598
0.0757442 -0.109268 0.21495 0.0508707 -0.0656831 0.996543
0.323805 -0.19351 -0.144847 0.25821 -0.949707 0.177157
0.522134 -0.0435221 -0.240563 0.967601 0.251683 -0.0200854
-0.220879 0.0193985 -0.0214183 -0.226949 0.775183 -0.589564
0.49465 0.0693687 -0.184011 0.973551 0.228366 0.00693086
-0.110746 -0.237692 -0.154689 0.0324829 -0.187193 -0.981786
0.172525 0.214063 0.260742 -0.0179217 0.187056 0.982186
0.467438 -0.0969259 -0.215615 -0.125404 0.515178 0.847859
0.148332 0.260892 -0.242771 -0.0953533 0.304498 -0.947728
0.084448 0.0449512 0.290466 -0.0733992 0.202424 0.976544
-0.226962 0.158333 -0.328334 0.0101222 -0.123062 -0.992347
0.505706 -0.216265 0.0113114 0.228972 -0.950731 0.209005
-0.17347 0.265151 -0.252074 -0.255274 0.943274 -0.212295
0.0505808 -0.100686 0.260219 0.0891835 -0.523759 -0.847185
0.116001 -0.119704 0.226649 -0.19938 0.796154 0.571302
-0.209241 0.107135 -0.296548 -0.952275 -0.302165 0.043216
0.00292406 0.350439 0.201039 -0.184072 0.802263 0.567883
0.312366 0.341953 -0.343298 -0.144338 0.340884 -0.928959
-0.034508 -0.224927 0.22123 0.283643 -0.94637 0.154697
-0.0110374 0.257261 -0.306651 -0.201933 0.54874 -0.811238
0.278831 0.172918 0.271344 -0.0713249 0.193441 0.978516
0.499102 0.0815196 0.117688 0.953808 0.29886 -0.0305566
-0.0863423 0.196609 -0.330983 -0.224791 0.603378 -0.765117
-0.183241 0.0502745 0.178619 -0.971875 -0.23398 -0.0266858
0.492516 -0.239696 -0.089562 0.255511 -0.949243 0.183447
0.310767 -0.127138 0.23474 0.256422 -0.948915 0.18387
0.334368 0.471277 0.101627 -0.241162 0.949723 -0.199668
0.119101 0.269338 -0.325115 -0.23617 0.551679 -0.799921
0.434846 -0.214771 0.0797724 -0.972255 -0.233863 0.00532094
-0.206002 0.134848 0.0913028 -0.982834 -0.184406 -0.00563373
-0.236184 0.24604 -0.254893 -0.297154 0.947053 -0.121617
0.340604 0.402929 0.229687 -0.00139912 0.173651 0.984806
0.232865 -0.169281 0.111233 0.309044 -0.936799 0.16401
0.0266371 0.375564 0.173599 -0.19268 0.824649 0.531816
0.142816 -0.235402 -0.189993 0.19699 -0.806944 -0.556809
0.521721 -0.0438741 0.28188 0.191126 -0.650293 0.735249
0.266031 0.421716 0.212123 -0.956845 -0.265936 0.11716
-0.180062 0.22055 0.252015 0.0291672 0.130005 0.991084
-0.115547 0.340188 0.186683 0.95521 0.289493 -0.0613861
0.339884 -0.179173 -0.198568 0.204487 -0.820271 -0.534173
0.455359 0.240863 -0.00586876 0.964187 0.263436 -0.0307373
0.225365 -0.150024 0.236868 0.273519 -0.949409 0.154306
-0.156954 -0.141257 -0.0157706 -0.96338 -0.266435 0.0301981
-0.221746 0.123342 0.0791193 -0.201058 0.775258 0.598791
0.540498 -0.109023 -0.154336 0.972696 0.231898 -0.00931287
0.387502 -0.0844728 0.254911 0.136063 -0.534488 0.834152
0.125395 0.243949 -0.276576 -0.221718 0.816621 0.532889
0.412969 0.348326 -0.329666 0.974489 0.224421 -0.00272491
0.484136 0.0419682 0.298226 -0.0111783 0.160318 0.987002
-0.116828 -0.176249 0.267271 -0.197784 0.602427 -0.773281
0.262995 0.443302 0.0637621 -0.281364 0.947144 -0.154119
0.404382 0.427428 0.0914522 0.935464 0.349071 -0.0552787
0.294926 -0.108247 0.25971 0.194304 -0.559228 0.805922
-0.49749 -0.0866407 -0.00840391 -0.978327 -0.20363 0.0375551
-0.0412499 -0.262459 0.0157423 0.259146 -0.948182 0.183829
-0.0484616 0.271214 0.159305 -0.290889 0.91408 0.282561
-0.0334258 0.280248 -0.287206 -0.100143 0.548775 -0.829951
-0.146386 0.279716 -0.201775 -0.241381 0.946645 -0.21354
0.41181 0.384952 -0.0750643 0.967646 0.251367 -0.0218209
0.393395 0.478495 0.180951 0.969826 0.242472 -0.0253893
0.515364 0.0267002 0.130701 0.942499 0.323928 -0.0822612
0.195998 0.192369 0.261867 -0.0163528 0.140559 0.989937
0.446699 0.0312315 0.299462 -0.0789188 0.224334 0.971311
-0.0174517 0.014209 -0.300922 0.00674313 -0.203745 -0.979001
0.35912 0.485613 0.149804 -0.267949 0.963433 0.00102293
-0.170931 0.0246914 0.260683 -0.952596 -0.300711 0.0461979
-0.198751 0.0734882 -0.135323 -0.97871 -0.20502 -0.0096817
0.234278 0.376077 -0.259879 -0.264776 0.948526 -0.17376
0.376548 -0.131041 -0.184992 -0.263892 0.924603 -0.274718
0.166415 0.259418 -0.246125 -0.208873 0.527047 -0.823768
0.432831 0.303826 -0.125644 0.982147 0.187008 0.0203981
-0.205407 0.126465 0.078297 -0.967243 -0.253848 -0.00126754
0.0835657 0.369667 -0.0671447 -0.262338 0.948321 -0.178512
-0.0773185 -0.301947 -0.121629 0.258473 -0.948992 0.180569
-0.0758794 0.177939 -0.330153 0.0223062 -0.185413 -0.982408
0.538714 -0.0740462 0.0168289 0.963688 0.264838 -0.0341589
-0.210154 0.155542 0.15721 -0.966992 -0.219689 0.129085
0.455087 -0.0887769 0.227392 0.270411 -0.952765 0.138264
0.499299 0.0861146 0.142123 0.958679 0.283085 -0.0282357
0.224697 -0.117951 0.27042 0.108743 -0.52814 0.842166
-0.152989 -0.0443224 0.247912 -0.959322 -0.281571 0.0204881
-0.128748 0.335448 0.069654 -0.26613 0.950412 -0.160908
-0.10226 -0.00973369 0.297843 0.00187172 0.138023 0.990427
0.282046 0.284539 -0.255583 -0.277578 0.818777 -0.502549
0.00895374 0.227112 -0.237961 -0.0653219 0.116555 -0.991034
0.0857647 0.14613 -0.320813 0.0197367 -0.166931 -0.985771
0.5351 -0.0853575 -0.175251 0.962817 0.267838 -0.0353027
-0.204487 0.144222 0.23006 -0.963663 -0.264325 0.038546
0.453777 0.231172 -0.138898 0.972158 0.233712 -0.0169606
0.181932 -0.225623 -0.113754 0.288863 -0.945285 0.15164
0.514569 -0.0440159 -0.190046 0.244785 -0.912902 -0.326635
0.27915 0.383442 0.1771 0.0207398 -0.0497652 -0.998546
0.305101 0.265307 0.252182 -0.0288042 0.186194 0.982091
-0.0432405 0.322886 -0.135706 -0.338106 0.937023 -0.0875885
0.398509 0.0882514 0.289006 -0.00946669 0.15362 0.988085
-0.096569 -0.295146 -0.151873 -0.971539 -0.236492 0.0135514
0.234676 0.390608 0.14056 0.240648 -0.718631 0.652425
0.107431 -0.225063 0.0192999 0.263905 -0.948476 0.17535
0.446217 0.263547 0.0665043 0.939735 0.334409 -0.0711909
0.455093 0.23181 0.027588 0.962811 0.268268 -0.032038
-0.0373108 0.243121 -0.270775 0.405348 -0.851875 0.331666
-0.216238 0.164595 0.0422909 -0.949632 -0.308745 0.0536286
0.147182 0.294802 -0.314181 -0.156583 0.533957 -0.830886
0.225351 0.352791 -0.290967 -0.154 0.528151 -0.835069
0.447799 0.218152 -0.328214 0.048619 -0.198319 -0.978931
-0.223695 0.219839 0.245216 -0.970104 -0.240055 0.035679
-0.209291 0.113732 -0.12627 -0.953207 -0.300075 0.0367744
-0.171779 0.0150408 0.195045 -0.956621 -0.285553 0.0577528
-0.109377 0.298959 0.154389 0.219613 -0.757845 0.614363
0.415249 -0.0789313 -0.273244 0.0295502 -0.200518 -0.979244
0.376616 -0.160072 -0.211751 0.154767 -0.850912 -0.501992
0.243752 0.272628 -0.340913 -0.0213817 -0.137531 -0.990267
0.069524 0.199228 0.262321 0.016565 0.144752 0.989329
0.116214 -0.190559 0.185534 0.28733 -0.945889 0.150783
0.24381 -0.0367442 0.308258 -0.0191736 0.179184 0.983629
0.429278 0.312654 -0.0955229 0.973995 0.225889 -0.017526
0.013406 0.280423 -0.294917 -0.198283 0.562706 -0.802525
0.492882 0.0937521 0.0113798 0.958372 0.283145 -0.0367619
0.156827 -0.181342 0.177201 0.243275 -0.953815 0.176225
0.525415 -0.0322698 -0.015711 0.973251 0.229706 -0.00413966
0.429499 0.348864 0.166608 0.968818 0.244444 0.04048
0.435146 -0.222867 0.0262705 -0.965478 -0.24965 -0.0743436
-0.140143 -0.103668 0.138329 -0.937906 -0.343607 0.0476124
-0.158329 -0.0221459 0.277035 -0.960627 -0.276449 0.027799
0.14832 -0.0439352 0.305919 -0.0172984 0.169416 0.985393
0.462045 0.225588 0.18918 0.977408 0.20666 -0.0443312
-0.362573 -0.0199039 -0.0201134 -0.225909 0.762696 -0.606019
-0.216667 0.268781 -0.157216 -0.302052 0.939338 -0.162504
-0.192566 -0.00393299 -0.156518 -0.00048861 -0.0388487 -0.999245
-0.0715177 -0.113164 -0.277287 -0.00966113 -0.123769 -0.992264
-0.237642 0.26938 0.239773 -0.0342333 0.329696 0.943466
-0.327224 -0.0738184 0.0106731 0.285081 -0.930414 0.230343
-0.126935 -0.191634 -0.179504 -0.944882 -0.325188 0.0380971
-0.233212 0.229521 0.0647102 -0.963456 -0.265904 0.0323756
-0.22972 0.168166 -0.317683 -0.962626 -0.269673 0.0250523
0.454902 0.113835 -0.309989 0.0320053 -0.179853 -0.983173
0.331627 0.400095 0.128553 0.0974315 -0.127544 0.987036
-0.386254 -0.0825947 -0.0204417 0.191434 -0.722406 -0.664442
-0.204368 0.0369932 -0.0520515 -0.975679 -0.219127 -0.0058305
0.381648 -0.176718 -0.148168 0.268468 -0.948973 0.165453
0.248913 0.273058 -0.272881 -0.229173 0.959426 0.164259
0.26683 -0.157056 -0.204826 -0.193874 0.735594 0.649088
0.212768 -0.164822 -0.20869 -0.0483316 0.518413 0.853763
0.238407 -0.21738 -0.14329 0.30319 -0.944679 0.125131
0.441498 -0.156533 -0.233033 0.199502 -0.842361 -0.500626
0.351512 0.432173 0.222968 0.0254504 0.34254 0.939159
0.461289 -0.101827 0.217307 -0.0315158 0.197939 0.979708
0.494929 -0.207956 0.0750796 0.228605 -0.951614 0.205357
-0.0931008 -0.260243 -0.184306 -0.28 0.934087 0.221545
0.101744 -0.156254 -0.26688 0.00640548 -0.176163 -0.98434
-0.296288 0.00211458 0.0153826 -0.215539 0.828523 0.516809
0.0122668 0.103932 0.278449 -0.0293681 0.196009 0.980162
0.15332 0.336913 0.137343 -0.120459 0.579083 0.80632
0.452914 -0.104876 0.218188 -0.0031492 0.167986 0.985784
0.251498 0.401197 0.216666 -0.2101 0.751373 0.625537
-0.0869827 0.19515 -0.237267 -0.110064 0.423013 -0.899414
0.0207765 -0.0979003 -0.277046 0.0201804 -0.124396 -0.992027
-0.125887 -0.105802 0.313079 -0.0242832 0.189339 0.981612
0.490115 0.0842888 -0.108273 0.939706 0.33014 -0.0892157
0.491242 0.0937838 -0.0654671 0.972855 0.23013 -0.0243482
0.44367 -0.107049 -0.267832 0.0248729 -0.244434 -0.969347
-0.0551488 0.00379078 -0.297493 0.0370702 -0.202163 -0.97865
0.520597 -0.237035 -0.138535 -0.0139471 -0.134438 -0.990824
0.38756 -0.136225 0.0726019 0.257269 -0.949479 0.179727
-0.239485 0.26018 -0.169565 -0.26743 0.948088 -0.172078
0.0661301 -0.11814 0.26405 -0.0426393 0.197635 -0.979348
0.0825915 0.300905 0.243152 -0.0452792 0.179335 0.982746
-0.141367 0.326453 0.0357254 -0.271674 0.949517 -0.156879
-0.146129 0.0830314 -0.31444 0.0442174 -0.205246 -0.977711
-0.175531 0.0307932 0.219873 -0.95094 -0.301902 0.0675846
0.524255 -0.202846 0.0605085 0.266987 -0.95069 0.157819
0.0839296 0.407895 0.148132 -0.185855 0.770488 0.609759
0.435337 0.334763 0.24269 0.967718 0.251972 0.0056723
0.336558 0.458021 0.02478 -0.26608 0.949033 -0.16893
-0.0545552 -0.125425 -0.273547 0.00150492 -0.135539 -0.990771
0.145154 -0.195396 0.108992 0.269 -0.947147 0.174793
-0.058904 0.209896 -0.234932 -0.0919784 0.191856 -0.977104
0.219684 0.313417 -0.273225 0.207161 -0.930539 0.301962
0.337343 0.0155089 -0.293313 -0.0310981 -0.130347 -0.990981
-0.126143 -0.0538449 0.303541 -0.0299272 0.188189 0.981677
-0.282535 -0.045474 0.0303494 0.207436 -0.438863 0.874282
-0.203776 0.264417 0.246053 -0.00434504 0.148144 0.988956
0.309143 0.389256 -0.292747 -0.278856 0.916658 -0.286316
-0.0735557 0.297164 0.142659 0.0568835 -0.218416 0.974196
-0.208316 0.305092 0.0235265 -0.287048 0.947899 -0.138171
-0.195629 0.0601049 -0.175684 -0.968998 -0.243016 -0.0445558
0.477637 0.150561 -0.0186309 0.965698 0.259437 -0.0109262
-0.0780607 -0.0335073 -0.291774 0.0620627 -0.241976 -0.968295
0.143971 0.355907 -0.227377 -0.258248 0.949179 -0.17991
0.535413 -0.120588 0.156514 0.960509 0.273056 -0.0534996
0.395091 -0.116111 0.162506 0.262769 -0.948536 0.176723
-0.113448 -0.228372 -0.0347902 -0.979023 -0.203357 -0.0126797
0.41052 -0.121261 -0.202403 -0.21057 0.901646 0.37775
0.192155 0.0998797 0.28022 -0.0382716 0.193619 0.98033
0.039915 -0.0194091 -0.292233 0.0412868 -0.201097 -0.978701
0.42683 -0.0919263 0.246841 0.247095 -0.9352 0.253665
-0.161812 0.0175675 0.290894 0.0308603 0.152158 0.987874
0.481793 -0.218445 0.0338817 0.261806 -0.946028 0.191021
-0.012353 0.209619 -0.242668 -0.16459 0.64398 -0.747128
0.30567 -0.1451 0.151723 0.26525 -0.948932 0.170793
0.0194515 -0.258707 -0.0503807 0.288298 -0.948853 0.128695
0.111353 -0.0247613 -0.290672 -0.00846569 -0.0978135 -0.995169
0.200081 -0.22152 -0.107922 0.289712 -0.941876 0.17011
0.484719 0.124277 -0.0174222 0.961742 0.265435 -0.0678041
-0.165427 -0.00112939 0.22217 -0.965951 -0.257497 0.0251679
-0.116684 -0.21564 -0.0857138 -0.966161 -0.256701 0.0252562
0.0320669 0.34279 0.219955 -0.139458 0.820719 0.554051
0.133973 -0.113741 -0.272641 0.00556836 -0.166269 -0.986065
-0.239349 0.224873 -0.210574 -0.964832 -0.26122 0.0293815
-0.15325 0.253733 0.143693 -0.0932404 0.368281 0.925027
-0.208153 0.158465 0.262001 -0.958918 -0.281325 0.0365083
-0.18549 0.283589 0.170159 0.247477 -0.967859 -0.0447715
0.542633 -0.0879038 0.0984577 0.23884 -0.94835 0.208776
0.524423 -0.0892909 0.16998 0.961649 0.271898 -0.0360852
-0.194776 0.0144242 0.114209 -0.986386 -0.160068 -0.0376892
-0.0130813 0.308586 -0.248619 -0.297151 0.947056 -0.121598
0.0626952 0.200058 -0.332408 0.0278187 -0.220687 -0.974948
0.508005 -0.208679 0.0583846 0.282751 -0.945739 0.160094
0.493181 -0.101221 -0.268966 0.0602623 -0.276163 -0.95922
0.0907415 0.367275 0.206339 -0.151174 0.837507 0.525098
0.0151814 -0.0367837 0.304481 0.0272872 0.108085 0.993767
-0.157782 -0.0111094 -0.297565 -0.0142369 -0.156824 -0.987524
0.146811 -0.190143 -0.172773 -0.187344 0.752854 -0.630961
0.10783 -0.0393904 -0.286884 0.100224 -0.182402 -0.978103
-0.31824 -0.0207547 -0.0302499 -0.2011 0.454932 -0.867523
0.389254 0.241367 -0.333079 -0.0678939 -0.112931 -0.99128
0.410763 -0.158579 -0.222927 -0.979521 -0.200718 0.0158341
-0.173947 0.267295 -0.233963 -0.2674 0.948232 -0.171326
0.274235 -0.197942 -0.101455 0.301394 -0.943496 0.137755
-0.192014 -0.00478239 0.06103 -0.939741 -0.337511 0.0545207
0.139743 0.384036 -0.0637764 -0.248311 0.950907 -0.184706
0.201927 -0.186425 0.0749366 0.291019 -0.944073 0.155026
0.0928531 0.277884 -0.275563 0.268401 -0.866003 0.421899
0.517604 0.0361224 0.27983 0.97197 0.235026 -0.0061327
0.508661 0.0733327 0.26935 0.962417 0.269235 -0.0355847
-0.0938966 0.281945 0.189532 -0.0714059 0.0848611 -0.993831
-0.107871 -0.219925 0.180918 -0.983113 -0.182107 -0.0180392
0.193094 -0.00833391 0.301776 -0.00628167 0.155027 0.98789
-0.125724 -0.150434 0.227664 -0.956156 -0.291185 0.0312743
0.172023 -0.191441 0.0918527 0.326273 -0.936987 0.124905
0.392671 0.3132 -0.269018 -0.280277 0.955519 -0.0918018
0.307509 0.402642 0.229795 0.00915012 0.170652 0.985289
0.051651 -0.0827012 -0.281021 0.0188926 -0.177923 -0.983863
0.344786 -0.117208 0.23106 0.244432 -0.938431 0.244134
0.181102 0.39117 -0.094482 -0.276053 0.946234 -0.168629
0.348615 -0.171483 -0.206696 0.230939 -0.768239 -0.597056
0.476243 0.102182 0.285835 -0.0720092 0.247223 0.966279
-0.00367636 -0.125687 0.220268 0.113555 -0.26191 0.958389
-0.0386294 -0.284971 -0.105319 0.25895 -0.949569 0.176814
0.427217 0.320736 -0.142324 0.968661 0.245277 -0.0391918
-0.0120778 0.350642 -0.0296429 -0.262492 0.948743 -0.176028
0.0183779 0.0107116 0.294237 -0.0328062 0.182125 0.982728
0.365009 0.154658 -0.317189 0.0240327 -0.202137 -0.979062
-0.203208 0.0920182 -0.1498 -0.969307 -0.245852 -0.000111419
0.00511067 0.16879 -0.325826 0.0460161 -0.223968 -0.97351
0.385898 0.312706 -0.25975 -0.221563 0.810716 -0.541894
0.457736 -0.240089 -0.0423178 0.219382 -0.955408 0.197656
-0.170613 -0.0263726 -0.189859 -0.972733 -0.230482 0.0258532
-0.167627 -0.0367282 0.142685 0.119707 -0.251886 0.960325
-0.193221 -0.0191596 -0.13703 -0.970642 -0.238807 0.0287179
0.510542 0.0524126 0.262224 0.970671 0.24008 -0.0126357
0.216714 -0.0573219 0.256777 0.135752 -0.540618 -0.830243
-0.219467 0.192935 0.210441 -0.963467 -0.265808 0.0328346
-0.451809 -0.0411462 0.0173105 -0.208936 0.905141 0.370223
0.065052 -0.227462 0.0609204 0.315978 -0.933436 0.169869
0.292682 0.0643914 0.291476 -0.0168398 0.162329 0.986593
0.403614 0.405544 -0.160915 0.974819 0.215059 0.0589624
0.111264 0.37997 -0.0466074 -0.2993 0.944048 -0.138542
-0.16239 -0.107212 0.0691772 -0.977193 -0.211493 0.0191003
-0.00929715 0.332817 -0.115799 -0.254388 0.948536 -0.188589
-0.0248038 -0.121135 -0.276124 0.0257019 -0.150025 -0.988348
-0.060764 0.197585 0.259441 -0.0139918 0.227911 0.973581
0.401743 0.00330673 0.226091 0.242695 -0.953953 0.176273
0.323336 0.448029 -0.00230668 -0.310254 0.944731 -0.105953
0.180993 0.36477 -0.236329 -0.327413 0.934386 -0.14044
0.507783 -0.00437813 0.204889 -0.076334 0.459296 0.884998
0.0983719 -0.241642 -0.0705412 0.275817 -0.948121 0.158084
-0.199682 0.0829216 -0.152186 -0.963104 -0.267456 0.0299606
-0.188635 -0.00210732 -0.156619 -0.00750719 -0.0967073 -0.995285
-0.150524 -0.100132 -0.114883 0.175813 -0.702343 -0.689786
0.512453 -0.226744 -0.0564889 0.250585 -0.949577 0.188442
-0.0441176 0.320192 0.164982 0.266192 -0.960962 -0.0754595
0.481394 -0.0950316 -0.270508 0.0103396 -0.135281 -0.990753
0.518535 -0.0253748 -0.209849 0.97618 0.216927 0.00394241
-0.113156 -0.186133 0.272032 -0.967463 -0.252236 0.019785
0.0414042 -0.204881 -0.156359 -0.0683801 0.200635 -0.977277
0.482548 -0.156542 -0.213214 0.258507 -0.932989 -0.250413
0.179031 0.253755 0.25508 -0.0442793 0.20863 0.976992
0.177671 0.26245 -0.341905 0.00243189 -0.166529 -0.986034
-0.0368749 -0.22488 -0.154881 -0.0616594 0.110744 -0.991934
-0.242719 -0.0497507 -0.0160118 0.204717 -0.883915 -0.420458
-0.125309 0.181534 -0.331135 -0.01534 -0.156969 -0.987484
0.0175308 -0.206547 0.235514 0.226102 -0.945171 0.235647
-0.176668 0.0347647 0.182967 -0.978705 -0.204785 -0.01409
-0.219274 0.147469 -0.197859 -0.940234 -0.328273 0.0905391
0.346256 -0.18071 -0.115723 0.202219 -0.951172 0.233192
0.0276012 -0.270603 -0.110604 0.294787 -0.942608 0.156813
-0.169907 -0.0421085 -0.252369 -0.956434 -0.286314 0.0570879
-0.201847 0.00943261 -0.137235 -0.974469 -0.224395 0.00748964
0.35734 0.328301 -0.295929 0.0636154 -0.0762517 0.995057
-0.121002 -0.20998 -0.206961 -0.967361 -0.251754 0.0288556
0.409364 0.374469 -0.224323 0.97626 0.216488 0.00702488
0.42073 0.382955 0.204166 0.941594 0.329107 -0.0713352
-0.21283 0.164169 0.180814 -0.966095 -0.256712 0.0275496
-0.156186 -0.137103 -0.000837957 -0.969088 -0.246292 -0.0144458
0.445008 -0.191049 0.233205 0.295005 -0.950537 0.0972225
0.446143 -0.140441 -0.252982 0.236871 -0.662143 -0.710957
0.0201821 -0.194597 -0.158718 0.0554551 -0.3254 -0.943949
0.11973 -0.17138 0.256813 0.23202 -0.618341 0.75088
-0.160906 -0.081641 -0.129139 0.124021 -0.496405 -0.859186
0.340597 -0.0752988 0.273235 0.235725 -0.599039 0.765236
0.33659 -0.0446139 -0.282746 0.0168245 -0.184582 -0.982673
-0.143069 0.297372 -0.110726 -0.23057 0.946237 -0.226878
-0.10373 0.303069 -0.150359 -0.250278 0.950895 -0.182096
0.108932 0.0880997 -0.309438 0.00476073 -0.15983 -0.987133
0.273884 0.205943 0.264576 -0.0183842 0.15104 0.988357
0.360557 0.437032 -0.117729 -0.231665 0.948156 -0.217558
-0.126126 0.269014 0.144913 0.021424 0.175668 0.984216
0.0964043 0.35948 0.162979 0.252096 -0.95681 -0.144785
-0.196705 -0.0218501 0.027177 0.142652 -0.461973 0.875346
-0.018086 -0.243474 0.0971509 0.222311 -0.956642 0.188187
0.054453 0.314619 -0.280039 -0.238988 0.543425 -0.804719
-0.418758 -0.101036 0.00485494 0.272141 -0.961469 0.0389553
0.159332 0.289633 0.245833 0.00333718 0.17148 0.985182
-0.00113109 0.248131 0.252679 -0.0286273 0.184499 0.982416
0.320498 0.39601 -0.283313 -0.267702 0.949536 -0.163456
0.126747 0.296456 0.245368 0.00310377 0.155295 0.987863
0.546589 -0.130632 -0.234776 0.21128 -0.8833 -0.418499
0.412326 -0.123767 -0.197433 -0.20982 0.975844 0.0608607
-0.184385 -0.0479852 -0.110117 -0.964778 -0.261458 0.0290515
0.326677 0.474463 0.131538 -0.252499 0.949306 -0.18725
-0.149801 -0.120194 -0.264217 -0.9636 -0.264233 0.0406827
0.506215 -0.0466204 -0.198479 0.233973 -0.968632 0.0837188
0.459623 -0.195989 0.112821 -0.274959 0.952343 -0.132062
0.0812984 -0.063963 0.310218 -0.0220879 0.178528 0.983687
-0.154 -0.0872294 -0.167825 -0.946352 -0.320665 0.0398974
0.404253 0.421294 0.102964 0.951734 0.302703 -0.0507298
0.476361 -0.220345 0.0220078 0.247069 -0.951751 0.182008
0.0121722 0.279378 -0.296729 -0.227365 0.544262 -0.807518
0.495728 0.107073 0.268928 0.93767 0.333959 -0.0961607
0.286598 -0.181351 -0.0407315 0.259731 -0.941338 0.215459
0.0525542 -0.0431487 0.30605 -0.00918841 0.175803 0.984383
