ply
format ascii 1.0
comment Created by Open3D
element vertex 830
property double x
property double y
property double z
property double nx
property double ny
property double nz
end_header
0.0970482 -0.0212505 -0.289553 0.0236246 -0.212246 -0.976931
-0.146619 -0.130714 -0.270499 -0.949251 -0.302283 0.0868698
-0.194811 0.0997909 0.238263 -0.952084 -0.304607 0.0274115
-0.214748 0.0766154 0.0106374 -0.946385 -0.321089 0.0354675
0.170811 -0.181212 -0.252255 0.188155 -0.828079 -0.528093
0.307454 0.0139072 -0.29542 -0.0423587 -0.136677 -0.98971
0.245819 0.318273 -0.286715 0.146525 -0.754762 0.639425
-0.217041 0.160774 0.0355581 -0.965243 -0.260819 0.0167085
0.206348 0.253522 -0.340434 0.0635861 -0.220416 -0.973331
0.190033 0.112797 0.278401 0.0439181 0.0488054 0.997842
0.244096 0.181346 0.269837 -0.0337575 0.197291 0.979764
0.526559 -0.119379 -0.253039 0.0784384 -0.598825 -0.797029
0.133656 0.387385 -0.0373632 -0.28066 0.944494 -0.170766
0.283684 0.00630984 -0.291945 -0.0261354 -0.122575 -0.992115
-0.207553 0.310565 0.224583 -0.203408 0.533404 0.821039
-0.132877 -0.175019 -0.125529 -0.951488 -0.305701 0.0348943
-0.231025 0.195201 -0.0672593 -0.964531 -0.262285 0.0297761
0.349565 0.220431 -0.33167 -0.00461656 -0.128513 -0.991697
-0.147459 0.284865 0.180891 0.161225 -0.799274 -0.578936
-0.214686 0.0900241 0.0529929 -0.965976 -0.256994 0.0290695
0.502037 0.0704628 0.0927649 0.972858 0.230526 -0.0201448
0.046967 -0.233971 0.0708583 0.209889 -0.95065 0.228497
0.457881 0.188789 -0.312239 0.97726 0.211314 -0.0175703
0.337458 0.477635 0.127284 -0.329673 0.939634 -0.0916688
0.503787 0.0280603 0.212749 0.13241 -0.760499 0.635696
0.189901 -0.169906 0.174431 0.202028 -0.935312 0.290476
0.341703 0.413085 -0.210618 -0.241324 0.947573 -0.209447
0.140633 0.359247 -0.212782 -0.34845 0.934229 -0.0761463
0.548434 -0.206079 -0.123944 0.952638 0.30281 -0.0280417
0.536251 -0.22326 -0.078275 0.42554 -0.895875 0.127766
0.250028 0.194971 -0.322006 0.0175704 -0.176956 -0.984062
0.176429 0.396301 -0.0529726 -0.285024 0.945506 -0.157413
0.03392 0.0961682 -0.312611 0.0462848 -0.194277 -0.979854
0.036426 0.376424 0.176638 -0.196338 0.856331 0.477649
0.434821 0.321838 0.1441 0.968443 0.226168 0.104722
-0.502301 -0.0635784 0.00718953 -0.92681 -0.368069 0.0744882
0.482897 0.101438 -0.281254 0.952926 0.297642 -0.0578093
0.42295 0.355471 0.117386 0.949342 0.300964 -0.0903867
-0.00178216 0.217926 0.257302 -0.0543142 0.0843463 0.994955
0.443499 0.28038 0.0979698 0.978122 0.206949 -0.0212086
0.0443515 -0.00835503 -0.292265 -0.0525368 -0.342371 -0.938095
0.429279 0.333055 0.0825613 0.969042 0.246713 -0.0095185
0.028608 -0.267724 -0.227495 0.171162 -0.802971 -0.570913
-0.456194 -0.0793292 0.0414455 0.124185 -0.262886 0.956801
0.452259 0.269739 0.193703 0.991986 0.125888 -0.0108166
0.47787 0.159913 0.0953888 0.968834 0.24756 -0.00860815
-0.0463666 -0.268119 -0.235996 0.153797 -0.678932 -0.717912
0.47452 -0.239645 -0.059698 0.275825 -0.947586 0.161247
-0.349439 -0.0142606 0.0143344 -0.252301 0.873377 0.416601
0.268181 -0.0382955 0.306241 -0.0586429 0.221347 0.97343
0.494823 -0.174891 0.228556 0.285333 -0.948996 0.134133
0.485984 -0.208733 -0.143928 0.0274497 -0.0412303 -0.998773
-0.211424 0.248881 -0.266564 -0.314547 0.948505 -0.0373901
0.0681029 -0.197973 0.222743 0.239681 -0.952971 0.185469
-0.502912 -0.0647684 -0.0225198 -0.93173 -0.355243 0.0753822
-0.0965717 -0.293365 -0.0870689 -0.987068 -0.14543 -0.067426
0.495521 0.0432588 -0.295911 0.031326 -0.18975 -0.981333
-0.126911 0.0477414 0.285606 -0.0296989 0.191315 0.981079
0.311257 -0.169266 0.0095378 0.285275 -0.958373 0.011804
0.419216 0.384818 0.200208 0.955041 0.286127 -0.0776366
0.117985 0.361814 -0.166031 -0.256225 0.913195 -0.316898
0.306277 -0.0366654 0.306947 0.178974 -0.556051 0.81165
-0.0521813 0.304025 -0.218771 -0.320076 0.93691 -0.140539
0.214508 0.323964 0.24082 0.000887065 0.0939445 0.995577
0.417363 -0.146344 -0.251649 0.135075 -0.587917 -0.797564
0.227008 0.14001 0.273145 0.0123388 0.119883 0.992711
0.149929 -0.0117544 -0.295049 0.0253999 -0.258311 -0.965728
0.416958 0.371386 -0.0800403 0.967905 0.218714 0.12379
-0.187648 -0.0191815 0.0469173 -0.976797 -0.212089 -0.0297665
-0.174489 0.329733 0.0991708 -0.179092 0.962992 -0.201424
0.489462 0.14025 0.21104 0.969984 0.243112 -0.00515395
0.254485 -0.0391829 0.22086 0.295455 -0.882323 0.366351
0.328655 -0.1679 -0.0379511 0.221946 -0.950765 0.216302
0.0787277 -0.236335 -0.0110092 0.287388 -0.956936 0.0410096
0.411847 0.354392 -0.338266 0.964668 0.261839 -0.0292513
0.220426 -0.168963 -0.170911 -0.238719 0.639668 -0.730643
0.520079 -0.217458 -0.0244135 0.264593 -0.948401 0.174716
0.130722 -0.193947 0.14885 0.243194 -0.945667 0.215801
0.505029 0.0727096 0.10394 0.984702 0.15817 -0.0731112
-0.114 0.307112 -0.101483 -0.215784 0.956382 -0.196901
-0.0924173 -0.120084 -0.275988 0.0546841 -0.214653 -0.975158
0.267522 -0.204992 -0.140164 0.2485 -0.940051 0.233564
-0.175344 -0.0775657 -0.0675613 -0.987288 -0.158219 -0.0151435
-0.200537 0.0242767 -0.0911608 -0.93666 -0.327043 0.125346
0.257296 0.00437162 0.300405 0.000183583 0.165335 0.986238
0.449817 -0.146534 -0.245475 0.123239 -0.687363 -0.715782
0.451951 -0.0610001 0.287358 0.25125 -0.739911 0.624023
0.186352 -0.0890683 0.261671 -0.0937764 0.180263 -0.979138
0.281305 0.344267 0.237483 -0.0254772 0.217542 0.975718
-0.198034 0.0820196 -0.131225 -0.129393 0.505142 -0.853281
0.275905 -0.131925 -0.166665 0.0880236 -0.118819 -0.989006
-0.0397893 0.203949 -0.239704 -0.282766 0.626609 -0.726227
-0.066992 0.229671 -0.243226 0.173533 -0.718843 -0.673164
0.441923 0.289742 0.0686862 0.93346 0.352785 -0.0647737
0.386714 0.00124853 0.21948 0.294578 -0.841205 0.453429
0.458096 0.229595 0.0688713 0.9743 0.225045 -0.00967658
-0.0945112 0.187501 -0.276397 -0.105243 0.536445 0.837348
-0.241681 0.232835 -0.0746213 -0.96578 -0.258497 0.0211798
0.158444 -0.066906 0.227559 0.399465 -0.8458 0.353624
-0.282352 -0.049107 -0.0261229 0.229218 -0.46339 -0.855996
0.508997 0.00816697 -0.258181 0.965066 0.261054 -0.0223341
-0.251776 0.318132 0.18806 -0.240519 0.966168 0.0931183
0.154222 -0.0840807 0.212173 -0.0412746 -0.110752 0.992991
-0.169528 -0.0439435 -0.280926 -0.953912 -0.290765 0.0742138
0.415027 -0.13083 0.0751832 0.235407 -0.95157 0.197732
0.421215 -0.128891 0.0664847 -0.941828 -0.329334 0.0670782
0.332137 0.257865 -0.336626 0.0193715 -0.178736 -0.983706
0.269185 -0.0369855 -0.286056 -0.0380799 -0.154277 -0.987294
-0.252331 0.295697 0.117579 -0.983582 -0.180242 -0.00890047
0.508007 0.0270587 -0.011191 0.968803 0.247808 -0.00360975
-0.217749 0.1282 -0.319093 -0.966103 -0.234907 -0.107064
0.0306924 -0.213442 0.196157 0.403771 -0.910074 0.0934605
0.0430596 0.366166 -0.0233334 -0.251324 0.95141 -0.177917
0.187076 -0.197595 -0.220981 0.220415 -0.759549 -0.611966
-0.209372 0.243767 0.146728 -0.106714 0.292937 0.950158
-0.0949812 0.274127 0.247101 0.0111371 0.130014 0.99145
0.0237179 -0.236177 0.0593063 0.419361 -0.906736 0.0443375
-0.0573686 0.339899 0.189793 -0.233591 0.754398 0.613448
0.226136 -0.166 -0.252857 0.0607237 -0.743551 -0.665916
0.521325 -0.117063 0.221081 -0.0176615 0.176877 0.984074
0.270803 0.362085 0.233753 -0.096823 0.278434 0.955562
-0.183152 0.109726 -0.319443 0.00220908 -0.172998 -0.98492
0.253974 -0.0806764 0.289262 0.0912584 -0.461414 0.882479
0.421656 -0.178568 -0.109053 -0.964401 -0.262724 0.030113
0.36883 0.0508333 -0.300006 0.0524849 -0.227971 -0.972252
-0.492784 -0.0970655 0.0373178 -0.952001 -0.281554 0.120091
0.218571 0.402067 -0.106281 -0.254436 0.948098 -0.190713
0.205367 0.291734 -0.24281 0.0402407 -0.229516 -0.972473
0.335073 -0.131926 -0.172742 -0.196278 0.576761 -0.792983
0.548237 -0.121083 -0.098349 0.948992 0.300146 -0.0965757
0.282141 0.460829 0.12002 -0.243242 0.940413 -0.237608
0.252599 0.0930886 0.281288 -0.0291991 0.18848 0.981643
-0.155226 -0.0525034 0.173692 -0.992327 -0.0214833 -0.121758
0.392118 0.441853 -0.142888 0.978904 0.173861 0.107328
0.0358032 0.260691 -0.276358 0.177669 -0.689898 0.701765
0.0260613 0.242403 -0.281297 0.0573015 -0.202188 0.977669
0.118001 -0.179509 0.243687 0.215145 -0.944697 0.247507
0.381989 0.340742 -0.298746 0.058185 -0.0846758 0.994708
-0.106452 -0.239759 0.0531077 -0.912901 -0.326132 0.245457
0.48052 -0.226331 -0.00988782 0.259561 -0.949139 0.178221
0.111775 -0.223088 0.0171345 0.269932 -0.947826 0.169593
0.210105 0.14211 0.272919 -0.0157157 0.229263 0.973238
-0.0523411 -0.265008 0.00896993 0.255219 -0.937417 0.23688
0.336021 -0.120711 0.233865 0.0814452 -0.952508 0.29342
0.142282 -0.207916 0.0464515 0.267823 -0.953429 0.138723
0.45061 0.259313 0.137523 0.969336 0.24449 -0.0247459
0.28462 0.255457 -0.33596 -0.00978575 -0.142568 -0.989737
-0.127348 0.0689462 0.279851 -0.0151881 0.0228647 0.999623
0.449379 0.23351 0.262697 -0.0458142 0.259407 0.964681
0.140819 -0.220801 -0.216047 0.19591 -0.793771 -0.575801
0.361802 -0.119664 0.181177 0.218375 -0.949818 0.22396
0.143941 0.268458 -0.238591 0.022075 -0.0352531 -0.999135
0.411338 -0.137531 0.0921606 -0.987153 -0.145682 -0.0656228
0.429159 -0.149847 0.0530391 0.333302 -0.94012 0.0712982
0.222446 0.308114 -0.31669 -0.0302097 0.396252 -0.917645
0.374084 0.472194 0.0539488 -0.225876 0.951285 -0.209852
0.393658 0.147128 -0.313443 0.00275338 -0.141008 -0.990005
0.538839 -0.168172 0.190722 0.596471 -0.758429 0.262694
0.0678201 0.380501 0.185626 -0.170592 0.815943 0.55239
0.492803 0.0860899 -0.00495013 0.963306 0.266305 -0.0335095
-0.0255986 -0.233838 0.154492 0.206445 -0.93797 0.278556
0.00695119 -0.231118 -0.163758 -0.411156 0.763139 -0.498568
0.359442 0.306276 -0.343014 0.0746959 -0.25168 -0.964924
-0.227884 0.219102 0.163714 -0.984095 -0.175945 0.024506
0.445272 -0.200453 0.204192 0.241756 -0.938392 0.246931
0.260986 -0.173586 0.0449802 0.171948 -0.930697 0.322856
0.0993954 -0.222813 0.019732 0.365577 -0.919498 0.144488
-0.0042532 0.239087 -0.239116 0.104591 -0.487351 -0.86692
0.451625 -0.177598 -0.0558469 -0.973085 -0.229086 -0.024988
-0.146564 -0.0806199 0.143257 -0.965139 -0.260474 0.025689
0.421274 0.364505 0.0322096 0.971998 0.227586 0.0585216
0.351114 0.341794 0.24158 -0.0250399 0.187773 0.981893
0.497526 0.0557289 -0.166436 0.933534 0.35454 -0.0530572
0.228107 0.295227 0.24815 -0.0500065 0.207704 0.976913
0.0624403 -0.0414799 0.305701 -0.00196366 0.0910699 0.995843
0.381583 -0.126908 -0.17696 -0.259909 0.7706 -0.581913
0.0537215 -0.200514 0.226514 0.334604 -0.937232 0.0981646
0.421258 0.3809 0.16364 0.986302 0.148447 0.0719111
0.372217 0.437571 -0.127098 -0.234268 0.951099 -0.201316
0.40185 -0.0782147 -0.273252 0.0471442 -0.208809 -0.976819
0.332039 -0.132015 -0.172282 -0.154441 0.637196 -0.755069
0.324824 0.316574 -0.245145 -0.00336748 0.06901 -0.99761
-0.233044 0.284037 -0.0386772 -0.310457 0.942789 -0.121511
0.0804178 0.394667 0.158383 -0.202249 0.806739 0.555218
-0.0267538 0.24983 -0.308367 -0.175551 0.547332 -0.818297
-0.00610465 -0.156219 -0.27108 -0.0282541 -0.0814434 -0.996277
0.449796 -0.255344 -0.116116 0.230372 -0.954439 0.189672
0.420108 -0.0749966 0.279084 0.314564 -0.697818 0.643506
0.269201 -0.0728096 0.251613 -0.169751 0.624198 -0.762602
-0.142723 0.274517 -0.25131 -0.269593 0.957664 -0.100994
0.387292 0.454312 -0.0639975 -0.267473 0.9483 -0.170835
-0.141739 -0.124415 -0.209366 -0.962301 -0.270327 0.0300017
0.470492 0.179937 -0.0251965 0.96997 0.243222 -0.00110113
0.484864 0.112056 -0.133907 0.968988 0.246826 -0.0118173
0.375334 -0.0280122 0.251832 0.0543925 -0.12877 -0.990182
0.300138 -0.185828 -0.0718733 0.182551 -0.960984 0.207811
-0.0499667 -0.201677 -0.196293 0.132446 -0.73791 0.661775
-0.145579 -0.0733486 0.207549 -0.98566 -0.162052 0.0470558
-0.152236 -0.101351 -0.266513 -0.956858 -0.273885 0.0970046
-0.203995 0.31328 0.0500802 -0.256835 0.949661 -0.179388
0.37731 0.421134 -0.196908 -0.190737 0.94933 -0.249785
0.275753 -0.133947 0.239765 0.26423 -0.957892 0.112362
0.170614 0.421187 0.160813 -0.124823 0.872113 0.473116
0.0825418 -0.16795 0.260683 0.156338 -0.535594 0.829878
0.146674 -0.179378 0.19267 0.281865 -0.949055 0.14088
0.363322 -0.0187558 0.305277 0.27266 -0.576419 0.770323
0.492904 0.064691 -0.271981 0.949934 0.311118 -0.0288221
-0.442674 -0.0663956 -0.0305856 -0.108675 0.225667 -0.968124
-0.195624 0.336478 0.165819 -0.164713 0.980203 -0.109875
-0.206763 0.284413 -0.0865196 -0.264699 0.949604 -0.167888
-0.11205 -0.247642 -0.13565 -0.94299 -0.321382 0.0865101
0.0822458 -0.0889716 0.255802 0.10159 -0.842041 -0.52976
-0.198428 0.232318 0.170121 -0.248377 0.954913 -0.162635
0.0889506 0.193883 0.262371 -0.00595331 0.167697 0.985821
0.159679 0.219643 0.261199 -0.159591 0.344567 0.925097
-0.223761 0.20882 0.216914 -0.934802 -0.321482 0.150978
0.530612 -0.072055 -0.173401 -0.204821 0.268308 -0.941307
0.228679 -0.221233 -0.156563 0.171139 -0.939525 0.296655
0.0897898 0.385665 0.176951 -0.206344 0.812654 0.544992
0.134048 -0.113961 0.292811 0.187312 -0.547097 0.815842
0.192007 -0.00282466 -0.291391 0.0183707 -0.173239 -0.984709
-0.110541 0.328959 0.0032015 -0.29265 0.944388 -0.149959
-0.0983104 -0.180531 0.319235 0.107476 -0.268549 0.957251
0.04651 0.224181 -0.28187 -0.120235 0.506449 0.853846
-0.0676456 0.304797 -0.213389 -0.317795 0.944575 -0.0823692
0.109867 -0.19719 -0.197631 -0.0611271 0.850186 0.522921
0.467355 0.00873703 0.301655 -0.0436078 0.19763 0.979306
0.281704 -0.0452608 0.259836 -0.00821677 -0.0486094 -0.998784
0.13781 -0.179758 0.197459 0.19571 -0.89985 0.38983
-0.246313 0.282564 0.046336 -0.950576 -0.288619 0.114471
0.0578117 0.220082 -0.336783 0.0410703 -0.247712 -0.967963
-0.000129 0.300359 0.240799 0.15356 0.153213 0.976189
0.400855 0.3878 -0.331262 -0.160482 0.585413 -0.794693
0.441739 -0.14038 0.0761337 -0.956041 -0.290248 0.0417386
-0.123796 -0.167326 0.112187 -0.971462 -0.237057 0.00807879
0.237515 -0.0622068 0.304262 0.234633 -0.638956 0.732586
0.024666 -0.0505546 -0.286482 0.105342 -0.408914 -0.906472
0.145389 -0.175217 0.229702 0.27896 -0.944214 0.175047
0.283194 -0.128241 -0.165979 0.0734603 -0.148731 -0.986145
-0.108972 0.29285 -0.207287 -0.394947 0.913862 -0.094197
-0.176989 0.0341206 0.255769 -0.984835 -0.163751 -0.0573145
0.220597 0.368467 -0.264617 -0.098237 0.935125 -0.340428
0.189686 -0.14829 -0.210861 0.226935 -0.384515 0.89479
0.492969 0.102986 -0.0952043 0.920587 0.38665 -0.0549683
0.0928579 0.0368078 0.293561 0.0222649 0.110779 0.993596
0.0886452 0.393457 0.175187 -0.150238 0.752837 0.640831
0.476437 0.00427384 0.203167 0.0134971 -0.134956 0.99076
0.214978 0.405817 -0.0594623 -0.285076 0.948754 -0.136372
0.185483 0.43129 0.122677 -0.23863 0.938401 -0.24992
0.19786 0.268068 0.250468 -0.0409651 0.11016 0.993069
0.354665 0.352775 -0.280672 0.267596 -0.919443 0.288128
-0.244886 -0.0496049 0.00550995 0.216786 -0.957441 0.190554
-0.272136 -0.0595448 0.00449863 0.325257 -0.94326 0.0668404
0.109003 0.331869 0.241335 -0.0219732 0.220248 0.975196
0.168805 0.330654 0.164508 -0.267573 0.903969 -0.333533
-0.0494078 -0.199089 -0.195175 0.30768 -0.830615 0.464124
-0.011396 -0.268648 -0.0514093 0.318999 -0.946412 0.050437
-0.236955 0.253075 -0.219659 -0.283191 0.94431 -0.167578
0.258957 0.387277 0.234988 -0.0417618 0.198658 0.979179
0.374296 0.406383 0.231506 -0.0372597 0.0739679 0.996564
0.00917123 -0.0248695 -0.293607 0.0127317 -0.130597 -0.991354
-0.114786 -0.22821 -0.0381094 -0.977858 -0.207445 0.0275654
0.140393 0.288012 -0.2514 0.203372 -0.799814 -0.564745
0.0501538 -0.140852 0.239931 -0.24634 0.965096 0.0889194
0.397962 0.455265 0.0785959 0.95833 0.28367 -0.0336788
0.487635 0.106257 -0.0241311 0.947717 0.30494 -0.0940454
0.145115 0.33119 0.240536 -0.0623358 0.224395 0.972502
0.185401 0.286283 -0.244451 0.0299023 -0.250911 -0.967548
0.408012 -0.094502 -0.17528 0.0399637 -0.248439 -0.967823
-0.392005 -0.0852909 0.0241737 0.268505 -0.780408 0.564685
-0.259632 -0.00666104 0.0307883 -0.0745837 0.404676 0.911413
0.509162 0.0440087 0.055674 0.940092 0.327897 -0.0933331
0.415819 -0.141996 0.0718849 -0.943961 -0.319104 0.0843241
-0.131519 -0.171591 -0.199334 -0.964385 -0.262735 0.030542
-0.0570412 -0.14515 0.319463 0.0448637 -0.0259913 0.998655
0.482486 0.115238 -0.169713 0.96859 0.247974 -0.0184941
0.441299 0.27741 -0.0679318 0.9902 0.134742 -0.0367177
0.290158 0.395925 -0.240801 -0.212447 0.956742 -0.198776
-0.0982441 -0.213114 -0.174771 0.23574 -0.930738 -0.279559
0.532041 -0.123407 0.106458 0.958025 0.284894 -0.0319979
-0.0589023 -0.163464 0.257871 -0.238278 0.793905 -0.559409
-0.150028 -0.0646923 0.211786 -0.97753 -0.209569 -0.0227141
0.174962 0.405462 0.176108 -0.184408 0.763869 0.618464
0.373857 -0.171876 -0.10124 0.256724 -0.948809 0.183997
-0.331186 -0.0718821 0.016698 0.0821227 -0.865774 0.493652
0.422782 0.339051 -0.162866 0.956475 0.240845 0.16477
0.0403549 -0.141207 0.223494 -0.28483 0.791859 0.540215
0.0504894 -0.10914 0.219242 0.144441 -0.271512 0.951534
0.469631 0.157543 -0.23528 0.973994 0.22066 -0.0514361
-0.168114 -0.0932375 0.0114422 -0.961264 -0.273121 0.0371115
0.422741 0.223581 -0.329737 0.0748382 -0.196292 -0.977685
-0.194513 0.297616 -0.0340577 -0.242082 0.945101 -0.219502
0.355058 0.399588 -0.314875 -0.177701 0.829572 -0.529369
0.306041 -0.134594 -0.265221 0.0174711 -0.175514 -0.984322
-0.0567712 -0.284112 -0.0608271 0.255377 -0.949694 0.181283
0.522002 -0.197161 0.0795332 0.211017 -0.947638 0.239693
-0.244912 0.310028 0.0971991 -0.266515 0.95137 -0.154485
0.51656 -0.0320947 -0.247905 0.982162 0.184511 0.0362424
0.121074 -0.106632 0.262402 -0.0641698 0.389004 -0.918998
0.353005 -0.0944459 -0.271364 -0.0703275 -0.168735 -0.983149
0.304406 0.151933 -0.315637 0.0221135 -0.178259 -0.983735
-0.130717 -0.127691 0.297703 -0.992934 -0.116831 0.0208173
0.206103 -0.00845189 -0.292992 0.00301343 -0.140109 -0.990132
-0.223917 0.0986565 -0.0891886 -0.979366 -0.153878 -0.131014
0.468607 -0.018091 0.247807 -0.0567693 0.473894 -0.87875
0.382178 0.304661 -0.346604 0.112467 -0.262331 -0.958402
0.212013 -0.147734 -0.211756 0.0552546 -0.236568 0.970042
0.0103524 0.16285 -0.323906 0.084441 -0.245407 -0.965736
0.0558619 -0.260864 -0.0993417 0.295951 -0.946146 0.131227
0.427587 0.331631 0.244016 -0.0773118 0.250299 0.965077
-0.240904 0.254723 0.0392507 -0.959168 -0.277682 0.0537471
0.418256 0.376957 0.153845 0.942754 0.325939 -0.0705519
0.0837309 -0.02066 0.305146 -0.0550275 0.184421 0.981306
-0.0842998 0.0202972 -0.2996 0.0144051 -0.146509 -0.989104
-0.108457 -0.240902 0.028068 -0.966479 -0.255204 0.0280857
0.32232 0.474777 0.164116 -0.306345 0.931947 0.193979
0.141864 0.421701 0.122447 -0.20003 0.959607 -0.197842
0.153585 -0.199729 0.078931 0.213895 -0.95018 0.226732
0.0152239 -0.0947175 0.314962 -0.0704726 0.232309 0.970086
0.200156 -0.191719 0.0526221 0.344508 -0.926149 0.153503
0.457686 0.202418 -0.153441 0.94331 0.326526 -0.0595592
-0.476076 -0.107466 -0.0219958 0.183282 -0.717603 -0.671903
0.372272 -0.0378843 0.205654 -0.0568435 0.384292 0.92146
-0.183549 0.143293 -0.325837 0.0493192 0.0284848 -0.998377
0.0771791 0.354044 -0.142998 -0.242573 0.950692 -0.193245
0.125449 0.113125 -0.310377 0.0257184 -0.188702 -0.981698
0.194729 -0.173398 0.172064 0.322495 -0.937947 0.127485
0.480036 0.0741412 0.291645 -0.0622853 0.307257 0.949586
0.323211 -0.125392 0.223977 0.0890005 -0.975613 0.200642
0.207486 -0.13869 0.259974 0.188989 -0.6515 0.734732
0.0744941 0.388922 0.0534119 -0.280579 0.94731 -0.154526
0.188951 0.33827 -0.295673 -0.14229 0.538166 -0.830741
-0.186146 0.321794 0.213312 -0.242504 0.801587 0.546489
-0.233769 0.251194 0.131092 -0.987787 -0.0534311 -0.146362
0.12685 0.337486 -0.285114 -0.115066 0.48157 -0.868821
0.287544 0.328093 -0.255023 0.228843 -0.705295 -0.670962
0.470036 0.189349 0.133656 0.980232 0.197308 0.0146612
-0.131889 -0.113358 0.263006 -0.997681 -0.0520023 -0.0439181
-0.219283 0.141258 0.0440828 -0.267226 0.907584 0.323855
0.154017 0.332905 0.238743 -0.0299397 0.192066 0.980925
-0.13897 -0.0780847 0.293368 -0.978103 -0.199586 -0.0589814
-0.346645 -0.051206 -0.0316382 0.0783896 -0.251547 -0.964665
0.377787 0.43998 -0.138185 -0.259572 0.948329 -0.182467
-0.478896 -0.0908559 -0.023927 0.0325621 -0.337253 -0.940851
-0.058734 0.355896 0.0770618 -0.292084 0.946164 -0.139504
-0.154919 0.262689 0.144604 0.0263753 0.0319567 0.999141
0.124136 -0.234181 -0.0532575 0.299497 -0.943449 0.142144
0.10977 0.333549 -0.279304 -0.351922 0.604713 -0.714474
0.452125 0.274162 0.231578 0.962992 0.267499 -0.0330221
-0.113121 0.312515 -0.0546756 -0.309008 0.94043 -0.141794
0.432928 -0.0680691 -0.195391 0.25087 -0.955181 0.157141
0.411114 -0.123433 0.12438 -0.964241 -0.263323 0.0300083
0.0702853 -0.194503 -0.262731 0.0666419 -0.239263 -0.968665
-0.123387 -0.15617 0.1239 -0.96542 -0.259341 0.0265878
0.24177 -0.162745 0.12761 0.23792 -0.931327 0.275726
0.506647 0.0404515 -0.120099 0.940061 0.315671 -0.128985
0.139928 0.0706359 -0.304028 0.134261 -0.181425 -0.974197
0.487601 0.131502 0.0764044 0.966952 0.254224 -0.0193555
0.435172 -0.237648 -0.0133621 -0.977372 -0.210833 -0.0171194
0.443802 -0.0621949 -0.191232 0.302867 -0.935735 -0.180752
0.526715 -0.0264648 0.113017 0.976851 0.212967 -0.0201825
-0.331971 -0.00413382 0.000296372 -0.255381 0.958865 -0.123929
-0.066748 0.148812 0.26801 -0.0157304 0.0955086 0.995304
0.392147 0.441429 0.154978 0.313778 -0.945798 -0.0837206
0.331214 0.203996 -0.327888 0.0151264 -0.16123 -0.986801
0.219954 0.164814 0.273576 -0.0192636 0.166266 0.985893
0.26459 0.421315 0.208438 -0.953784 -0.299628 0.0228068
0.440826 0.0884394 0.288693 -0.0383545 0.33973 0.93974
0.501128 -0.236794 -0.138964 0.129619 -0.271018 -0.953807
0.293213 -0.0720447 0.2876 0.163565 -0.542833 0.823759
0.488631 -0.0585969 -0.27602 0.087805 -0.189476 -0.977951
0.113353 -0.0927068 -0.277336 -0.137529 -0.0481583 -0.989326
0.289208 -0.149238 -0.180203 -0.280766 0.805837 -0.521341
0.305504 -0.155179 0.102596 0.228598 -0.956778 0.179777
0.0485068 0.322462 0.240027 0.093259 0.0255237 0.995315
-0.209901 0.0548955 0.0566976 -0.976839 -0.211242 0.0341037
-0.18633 -0.0286179 -0.0959203 -0.969373 -0.245126 0.0151543
0.3096 0.0923383 0.281508 -0.00664488 0.171279 0.9852
0.301194 0.451093 0.0348836 -0.288064 0.949686 -0.122943
-0.216314 0.190573 0.17843 -0.932161 -0.361755 0.0144697
0.139752 -0.0842443 -0.278468 0.0346457 -0.213373 -0.976356
0.0119662 0.327857 -0.211334 -0.314555 0.949009 -0.0209199
0.00112397 -0.157553 -0.269179 -0.0179347 -0.137227 -0.990377
0.31415 0.387468 0.231969 -0.0685125 0.224393 0.972087
-0.219622 0.25723 0.193359 0.0969983 -0.345783 -0.933288
0.30198 -0.052092 0.208801 0.00152063 0.0851433 0.996368
0.409242 0.408688 0.0330543 0.947254 0.311173 -0.0766868
0.00497403 0.336206 0.219727 -0.250685 0.860139 0.444205
0.444679 -0.224972 0.0517449 0.253274 -0.949581 0.18479
-0.0986902 -0.0826097 0.311117 0.0716204 0.0276595 0.997048
-0.418685 -0.0526432 -0.0282134 -0.108765 0.38949 -0.914586
-0.147453 -0.0720063 0.130438 -0.955842 -0.291424 0.0379184
-0.0236624 0.251109 0.252573 -0.0115725 0.173243 0.984811
-0.305572 -0.0388206 -0.0337724 -0.118779 -0.108756 -0.986947
0.443745 0.232927 -0.232807 0.9698 0.243503 -0.0138995
0.084642 0.351846 -0.163914 -0.302503 0.943293 -0.136716
-0.0885345 -0.17266 -0.26612 -0.140993 -0.158606 -0.977223
0.0314607 -0.202008 0.247596 0.128127 -0.956489 0.262132
-0.215112 0.0681093 -0.0682743 -0.931151 -0.361279 0.0493563
-0.00924346 0.256912 -0.26677 0.154183 -0.933149 0.324747
-0.0802037 -0.248189 0.152201 0.176002 -0.938254 0.297829
-0.0218383 -0.120688 0.219946 -0.0133593 -0.547924 0.836421
0.461242 0.206446 -0.0273566 0.90347 0.416371 -0.101873
0.408992 0.399621 -0.0852916 0.96715 0.252574 -0.0287615
-0.176055 -0.0576036 0.0309814 -0.966932 -0.222953 -0.123833
0.494875 -0.142528 -0.23794 0.226522 -0.815919 -0.531944
0.295575 0.453025 0.0606116 -0.278985 0.947378 -0.156978
0.0256254 -0.284297 -0.19446 0.334382 -0.90516 -0.262439
0.541221 -0.0866172 0.0871071 0.968658 0.247967 -0.0146228
-0.0152946 -0.0975179 -0.279569 0.030421 -0.204314 -0.978433
0.485163 0.143291 0.233099 0.951974 0.297709 -0.0715214
0.494305 0.0799359 -0.0533502 0.967202 0.250461 0.0423049
0.417347 -0.105747 0.205227 -0.94754 -0.317026 0.0407723
0.353195 0.481306 0.16862 -0.163526 0.981373 0.100831
0.532896 -0.13726 -0.169184 0.330133 -0.938613 0.100086
-0.00986074 -0.23833 -0.249141 0.0816085 -0.139005 -0.986923
0.535471 -0.0412912 0.223074 0.98676 0.15855 0.0341531
0.437547 0.285389 -0.155108 0.978406 0.181506 0.0988763
0.0647774 0.401494 0.150003 -0.162778 0.850464 0.500214
0.385505 -0.0815998 0.259105 0.1402 -0.529959 0.836353
-0.29679 -0.0274048 0.0354663 -0.0151162 0.199719 0.979737
0.174968 0.295955 -0.251306 0.329773 -0.768014 -0.549004
0.523003 -0.144769 -0.21198 0.240709 -0.954108 -0.178151
0.305309 -0.0365107 0.301861 0.431029 -0.539018 0.723653
0.113939 0.267238 -0.290754 -0.0101227 -0.0671632 0.997691
0.493224 0.101346 0.0453917 0.884735 0.429467 -0.181111
0.431376 0.328611 0.156477 0.944104 0.327974 -0.0331648
-0.228222 0.127243 -0.0718518 -0.971471 -0.237147 -0.00215988
-0.199979 0.0741129 -0.143618 -0.970283 -0.239767 0.032584
0.0511835 0.00495248 -0.297832 0.119784 -0.37171 -0.920589
0.424936 -0.154552 -0.0956647 0.253959 -0.951026 0.176224
0.437798 0.291104 -0.176678 0.929501 0.350901 -0.113565
-0.117308 -0.18096 0.0315749 -0.954812 -0.294425 0.0406072
-0.194618 0.0159619 0.103133 -0.930396 -0.364454 0.0392055
-0.230804 0.211475 -0.0577573 -0.951081 -0.293269 0.0971458
0.278094 0.438626 0.0120888 -0.25597 0.948417 -0.18704
0.461904 -0.247053 -0.0830135 0.292176 -0.945907 0.141044
-0.175329 -0.0517722 0.0662425 -0.973371 -0.22836 0.0200248
0.31985 0.338913 -0.344347 -0.124803 0.286008 -0.950065
0.188791 -0.0566806 0.242964 0.202357 -0.857144 -0.473662
0.475488 -0.0694896 -0.272513 -0.0414791 -0.163106 -0.985736
0.496734 0.00868211 0.251944 0.0186686 -0.130074 -0.991328
-0.0820194 0.359987 0.158636 -0.200619 0.801318 0.563597
0.409678 0.413254 0.0389772 0.966871 0.254538 -0.0192611
-0.199198 0.00808268 -0.091638 -0.974279 -0.223472 0.0289818
0.442998 0.266798 -0.100316 0.978099 0.206847 0.0231757
0.420687 -0.15477 -0.0481529 -0.977962 -0.207886 0.019313
-0.138154 -0.146538 -0.24492 -0.925872 -0.372587 0.062761
0.2099 -0.214708 -0.195077 0.141838 -0.839006 -0.525311
0.450107 0.148823 -0.317507 -0.104071 -0.170912 -0.979775
0.264016 0.32799 0.241526 -0.199347 0.23882 0.950382
-0.0580753 -0.265765 0.0410743 0.239901 -0.9512 0.194077
-0.123415 -0.204225 -0.261512 0.0533302 -0.318322 -0.946481
-0.219235 0.157788 -0.0713171 -0.946169 -0.318299 0.0587314
0.34261 -0.0345898 0.208343 0.121976 -0.162641 0.979117
0.297075 0.428437 -0.0686825 -0.340017 0.937973 -0.0677914
0.0521174 0.0344983 0.292865 0.0590133 0.0949999 0.993727
0.277724 0.316086 -0.340487 -0.945765 -0.314264 0.082255
-0.186411 0.335221 0.165955 -0.262349 0.964913 -0.0107771
0.409882 0.131485 -0.31479 -0.11746 -0.12886 -0.984682
-0.455884 -0.0612223 -0.0262621 -0.0583477 0.301818 -0.951578
0.50751 0.0450066 0.0411829 0.971312 0.236052 0.0288689
-0.0767018 0.202622 -0.279379 -0.0292091 0.200091 0.979342
0.238887 0.43498 0.0388567 -0.171907 0.933771 -0.313879
0.0895585 0.296442 -0.301793 -0.204757 0.5596 -0.803071
-0.206556 0.198116 -0.268422 0.197012 -0.824858 0.529901
0.183042 0.433704 0.135458 -0.220113 0.956544 -0.191244
0.245092 -0.209657 -0.126588 0.285234 -0.946299 0.152183
0.255371 0.321684 -0.267888 0.209418 -0.977703 0.0155355
-0.0612675 -0.247369 0.139933 0.237999 -0.916731 0.320875
0.499315 0.0133806 0.24906 0.00345418 -0.217842 -0.975978
-0.12122 -0.215076 -0.241944 -0.976295 -0.205972 -0.0665105
0.443885 -0.224298 -0.0115546 -0.198371 0.951537 -0.235001
0.196319 0.43074 0.0851333 -0.266302 0.950878 -0.157841
-0.204062 0.0203627 -0.0866713 -0.944577 -0.317311 0.0841866
0.534623 -0.0392629 0.155304 0.933301 0.349601 -0.0820207
0.229794 0.316029 -0.280774 0.22384 -0.83571 0.501482
0.303362 -0.0179981 -0.286245 0.0224072 -0.185788 -0.982334
-0.0206992 -0.116236 0.25895 0.131453 -0.741738 -0.657682
0.412579 0.332276 -0.296585 -0.0303411 0.328414 0.944047
0.215288 0.140284 0.276064 -0.0876872 0.229684 0.969307
-0.201402 0.300177 -0.0185291 -0.280274 0.947509 -0.153861
-0.186736 0.202874 0.25638 -0.0681074 0.237224 0.969065
-0.119506 0.299902 -0.125119 -0.249608 0.934394 -0.254172
0.534356 -0.0709183 -0.131805 0.960523 0.277008 -0.0257397
0.439077 -0.136397 0.155458 0.0135064 -0.23013 -0.973066
0.468795 -0.0309847 0.228428 -0.253597 0.959903 -0.119476
0.221128 -0.154847 -0.164825 0.12267 0.224216 -0.966788
-0.163826 0.145508 0.268228 0.0220312 0.0259964 0.999419
-0.0614557 0.345203 0.0288182 -0.318404 0.939845 -0.123736
-0.132152 -0.13489 0.0503417 -0.98021 -0.196296 -0.0256054
0.455355 0.204639 -0.179703 0.935467 0.35201 -0.0314681
-0.172526 0.286609 -0.136124 -0.223946 0.95435 -0.197646
0.104327 0.179369 0.268216 -0.0205088 0.179317 0.983578
-0.126245 0.26943 0.145283 -0.0157029 0.159902 0.987008
-0.0146248 0.338672 -0.105727 -0.239073 0.951561 -0.193331
-0.171782 -0.0983682 0.00980369 -0.904328 -0.426833 -0.00206484
0.532418 -0.192563 0.0924703 0.335905 -0.933043 0.128832
0.0264395 0.211667 -0.274972 -0.237519 0.72157 0.650324
0.0254254 0.345072 -0.120217 -0.19746 0.946035 -0.256959
0.415307 -0.134889 0.137189 -0.953888 -0.293761 0.0616631
-0.0386575 -0.15433 -0.268835 0.044686 -0.248939 -0.967488
0.0313617 -0.191861 0.256937 0.211712 -0.552633 0.806086
0.521716 -0.22354 -0.137876 0.0182853 -0.177877 -0.983883
-0.233914 0.280839 -0.0769262 -0.3266 0.930516 -0.165749
0.46048 0.186545 -0.0865259 0.960145 0.276183 -0.0429511
-0.00677471 0.324864 -0.158811 -0.215901 0.955051 -0.203137
0.430038 0.0105083 -0.284907 0.0717572 -0.203854 -0.976368
-0.104909 -0.218629 -0.159982 0.107028 -0.572128 -0.813151
-0.185499 0.0248735 -0.249929 -0.959251 -0.272338 0.0753012
0.125001 -0.103178 0.265992 -0.0855446 0.204705 -0.975079
0.42902 0.296803 -0.230646 0.984676 0.163957 -0.0594305
0.360676 -0.160039 -0.0176975 0.221536 -0.925837 0.306181
0.0721171 0.0143547 0.29616 0.00108191 0.120231 0.992745
-0.0397666 0.219453 -0.233094 -0.200816 0.040672 -0.978784
0.203488 0.102023 -0.313602 0.0215891 -0.205591 -0.9784
-0.0482577 -0.0661086 -0.284552 0.0728335 -0.218376 -0.973143
0.457845 -0.215906 0.087716 0.220942 -0.948078 0.228763
0.498258 0.0835989 0.289171 0.0124443 0.14696 0.989064
-0.243018 0.233976 -0.194167 -0.984867 -0.172499 0.0167408
-0.0918434 -0.172355 0.230426 -0.206693 0.650891 0.730492
0.0732266 0.0604799 -0.304621 -0.00889448 -0.11756 -0.993026
0.474836 0.149925 -0.0449289 0.960083 0.27368 -0.0577832
0.393513 -0.162997 -0.0724409 0.254499 -0.950535 0.178083
-0.154177 0.279499 -0.191855 -0.28722 0.952041 -0.105469
0.203513 0.239514 0.250303 -0.0246803 0.302795 0.952736
-0.0160521 0.209804 -0.242128 -0.262755 0.678598 -0.685905
-0.126621 -0.202675 -0.127353 -0.978876 -0.203001 -0.0243457
0.425566 -0.135987 0.144395 0.240035 -0.948162 0.20826
0.452014 -0.207908 0.132071 0.218406 -0.956974 0.191049
-0.220132 0.135543 0.0487376 -0.266009 0.884502 0.383269
0.0808614 0.314362 -0.286649 -0.217078 0.542862 -0.811282
0.265339 0.404929 0.151878 0.40971 -0.908209 -0.0854108
0.429149 0.336666 0.106214 0.95324 0.295521 -0.0632447
-0.228221 0.189732 -0.120815 -0.968785 -0.245867 0.0316898
0.203987 -0.0552303 0.224868 0.237506 -0.835663 0.495236
0.25864 0.324056 -0.278575 0.330865 -0.910479 0.248104
-0.0455162 0.318547 0.177332 0.116431 -0.958104 -0.261689
0.153555 -0.22707 -0.199085 0.221775 -0.857635 -0.463982
-0.0717372 0.333388 -0.0269356 -0.272161 0.956501 -0.105039
0.506932 0.0671492 0.090326 0.955875 0.288499 -0.0554215
0.539934 -0.0565273 0.220371 0.927432 0.35071 -0.129892
0.497806 -0.232382 -0.0655426 0.205153 -0.950983 0.231396
-0.109239 -0.147858 0.320341 -0.0948685 0.207087 0.973712
0.40961 0.381125 0.235699 -0.0171425 0.0751583 0.997024
0.105253 0.390885 0.0165821 -0.260797 0.94889 -0.177745
0.181458 0.344417 0.237792 -0.0906107 0.208114 0.973898
-0.0910154 0.203209 -0.326325 -0.00958481 0.546293 -0.83754
0.160824 0.366297 -0.216639 -0.199729 0.92713 -0.317077
-0.155809 0.225584 -0.323099 -0.203355 0.492445 -0.846254
-0.00410453 -0.0216624 -0.295082 0.0744929 -0.266166 -0.961045
0.102918 0.274649 -0.240409 0.183806 -0.635366 -0.750017
0.328473 -0.0215079 0.24474 0.226806 -0.844252 -0.48559
0.468264 0.198725 0.120317 0.930394 0.353984 -0.0951923
0.256778 0.44579 0.159622 -0.96652 -0.255348 0.0252415
0.464452 0.215602 0.190578 0.967878 0.251039 -0.0138801
0.430335 -0.119291 -0.265899 0.0578906 -0.31128 -0.948553
-0.0377125 -0.296603 -0.180534 0.3034 -0.952015 -0.040191
0.468843 0.196617 0.133737 0.927361 0.317039 -0.198716
0.394741 0.120792 -0.31002 0.0968186 -0.285973 -0.953334
-0.130869 -0.171279 -0.146699 -0.936627 -0.3311 0.114464
0.267987 -0.114596 -0.203875 0.224467 -0.689355 0.68877
0.150037 0.251184 -0.280871 -0.192587 0.549425 0.813045
0.44731 -0.144145 0.064487 -0.952147 -0.303771 0.033749
-0.135231 0.0261991 -0.301631 -0.063694 -0.131812 -0.989226
-0.179879 -0.0452183 0.103324 -0.943234 -0.32343 0.0755174
0.137812 0.363183 -0.196905 -0.374949 0.925451 -0.0543495
0.208107 0.141859 0.275794 -0.026019 0.27338 0.961554
0.100093 -0.203385 -0.190711 -0.25042 0.946253 0.204681
0.183937 0.0326915 -0.296478 0.0769207 -0.226152 -0.97105
0.481288 -0.0791321 -0.174775 -0.119802 0.0923642 -0.988492
-0.128369 -0.131889 0.174313 -0.935744 -0.348286 0.0555047
0.137178 -0.21361 0.0265848 0.266706 -0.948314 0.171953
-0.139762 -0.0658515 0.30602 0.0518611 0.0730351 0.99598
0.478565 -0.202195 -0.148114 -0.0906558 -0.0373747 -0.995181
0.0477412 0.199353 0.260512 -0.0607987 0.221647 0.97323
0.335902 0.411739 -0.21395 -0.209507 0.96019 -0.184776
0.443845 -0.244837 -0.0313942 0.262366 -0.948479 0.177631
0.0314545 0.291799 0.152919 -0.244931 0.873454 0.420817
0.244298 -0.163171 -0.257427 0.199208 -0.795782 -0.57188
-0.15376 -0.0520367 0.170155 -0.97343 -0.228346 -0.017086
0.145674 -0.177746 0.20146 0.235933 -0.939964 0.246583
-0.165386 0.00162503 0.262023 -0.959273 -0.278198 0.0489973
0.0220573 0.183675 0.264609 -0.0524181 0.226559 0.972586
-0.176793 -0.0593445 0.0479116 -0.935909 -0.345573 0.0682225
0.415571 0.356219 -0.326814 0.969353 0.245501 -0.00922962
0.353276 -0.15764 -0.229308 0.22664 -0.829236 -0.510883
0.214559 0.23455 0.25769 0.00843871 0.15568 0.987772
0.467398 -0.21404 0.0802612 0.299336 -0.940593 0.160257
-0.226802 0.117733 0.00491588 -0.965246 -0.250071 -0.0759288
-0.102821 0.293372 -0.212877 -0.32919 0.939153 -0.0981086
0.103437 -0.209785 0.100698 0.2632 -0.948539 0.176069
-0.198622 0.162687 0.265144 0.0394713 0.0923185 0.994947
0.512192 0.0199818 -0.102886 0.955593 0.289394 -0.0556083
0.494944 -0.203657 0.0984945 0.289234 -0.945007 0.152661
-0.111522 0.317219 -0.0723071 -0.285469 0.956222 -0.0643892
-0.0128828 -0.130653 0.264951 0.0174593 -0.240801 -0.970417
0.0640621 0.0584722 0.287323 -0.00976612 0.175824 0.984373
-0.140188 -0.136292 -0.225551 -0.959797 -0.276553 0.0480514
0.413141 0.00706168 0.219551 0.315774 -0.854437 0.412583
-0.0150165 0.304111 0.142352 0.0135562 0.0355298 0.999277
0.526722 -0.014961 0.0843262 0.951543 0.305822 -0.032224
0.477118 0.128875 -0.237529 0.965064 0.260985 -0.0231893
0.401244 -0.143763 -0.00129989 0.33213 -0.937714 0.101898
0.0768235 0.304121 0.166 -0.25056 0.945042 -0.210039
0.23692 0.356272 0.173586 -0.0758105 0.557515 -0.826698
0.331324 0.146296 0.277591 -0.0403885 0.202146 0.978522
0.195736 0.412416 -0.018342 -0.164111 0.943329 -0.288441
-0.229944 0.295044 0.00325921 -0.195656 0.951128 -0.238901
0.0742522 -0.250414 -0.0852683 0.130678 -0.969004 0.209653
0.1621 -0.152369 -0.205038 0.114956 -0.434086 0.893507
0.232048 0.123804 -0.314085 0.0164321 -0.232587 -0.972437
0.211867 -0.23059 -0.175925 0.178397 -0.845579 -0.503161
0.338072 0.0530144 0.293038 -0.0110592 0.0447947 0.998935
0.302426 0.412534 -0.160688 -0.274401 0.95334 -0.125889
-0.178049 0.327069 0.0908447 -0.259404 0.947621 -0.186341
0.0322815 -0.133994 -0.271772 0.0602739 -0.195137 -0.978922
0.261481 -0.0871094 0.229764 -0.183452 0.964939 0.187718
0.533835 -0.0641092 -0.0532925 0.920313 0.286796 -0.26603
0.194143 0.115661 -0.312437 0.0116455 -0.141771 -0.989831
0.16297 0.249617 -0.268157 -0.287984 0.933255 0.214711
0.521269 -0.00174207 0.123371 0.94987 0.29749 -0.0961614
0.268655 0.380962 -0.260882 -0.123882 0.961878 -0.243813
0.311275 0.440606 -0.00088115 -0.238354 0.945809 -0.220529
-0.140676 0.274149 -0.259528 -0.313245 0.942245 -0.118542
0.529777 -0.0242304 0.1836 0.957574 0.283276 -0.0529777
-0.0592316 -0.176769 -0.263115 0.0589407 -0.241881 -0.968514
-0.214593 0.161336 0.067501 -0.910634 -0.41265 0.0215728
-0.149919 -0.0634398 -0.289008 0.133079 -0.257074 -0.957185
0.459919 -0.209357 0.0451361 -0.194774 0.958342 -0.20891
-0.0932684 -0.211498 -0.259967 -0.0651227 -0.0992998 -0.992924
0.247725 -0.13737 -0.211131 0.12808 -0.196265 0.97215
0.519933 -0.0663602 -0.175749 -0.215201 -0.136876 -0.96693
0.530446 -0.0095445 0.293291 0.852707 0.497324 -0.159875
0.429649 0.350704 0.196529 0.950907 0.309358 0.00851226
0.492003 0.0968328 0.0486546 0.9661 0.256431 0.0298981
-0.170366 0.208645 -0.325366 -0.0986714 0.304199 -0.947484
0.512362 0.0413714 0.29771 -0.0419072 0.177639 0.983203
0.0151317 -0.267016 -0.0765595 0.230737 -0.954694 0.187933
0.521962 -0.0155794 0.297967 0.13296 -0.315584 0.939536
-0.140921 -0.128508 -0.127875 -0.986405 -0.156187 0.0511037
0.27225 -0.194315 -0.0682476 0.243994 -0.952155 0.18403
0.455269 -0.192947 0.0152776 -0.983721 -0.17952 -0.00814177
-0.134166 -0.134582 0.135722 -0.959301 -0.278354 0.0475437
0.415977 0.379625 0.0608291 0.902262 0.423493 -0.0810976
-0.101591 -0.195131 0.312011 0.0466496 -0.393839 0.917995
0.0170813 0.0556641 0.287705 0.0224234 0.107767 0.993923
0.452978 -0.199991 0.107515 -0.214251 0.94973 -0.228275
0.0748216 -0.159099 -0.265545 0.177271 -0.253316 -0.951002
-0.213208 0.126651 -0.265214 -0.923906 -0.362371 0.122822
0.439101 -0.113957 0.218594 -0.00578622 0.144309 0.989516
-0.153174 -0.0986536 -0.178316 -0.896838 -0.416486 0.149066
-0.215005 0.17667 -0.228165 0.170616 -0.300847 -0.938287
0.418794 0.00220875 0.245201 0.166317 -0.685118 -0.709191
0.116187 0.402831 0.0464023 -0.270341 0.947652 -0.169913
0.344533 0.313258 -0.251576 -0.200283 0.408985 -0.890291
0.507234 0.0615321 0.216865 0.964316 0.262993 -0.0304691
-0.11408 -0.217689 0.086313 -0.959318 -0.279976 0.0363501
0.11518 0.398878 0.0457049 -0.315295 0.948803 -0.0190398
-0.163506 0.0472784 -0.309663 0.0150887 -0.165592 -0.986079
0.110113 -0.184534 0.183754 0.298652 -0.945302 0.131193
0.128035 0.381106 -0.060882 -0.21423 0.940559 -0.263542
-0.196082 0.0503606 -0.297423 -0.971101 -0.238235 0.0143925
-0.223235 0.20542 0.0925299 -0.989358 -0.0601577 -0.132485
-0.0881678 0.0219173 -0.299171 0.179628 -0.309186 -0.933883
0.0151014 -0.211214 0.22407 0.304158 -0.9447 0.122593
0.257861 -0.0491008 0.306369 -0.0290777 0.220588 0.974934
0.465411 0.118702 0.282641 0.0297784 0.0984609 0.994695
-0.089178 -0.0660296 -0.286343 -0.0419521 -0.133602 -0.990147
-0.187967 0.0506989 -0.169777 -0.934684 -0.353629 0.0362328
0.329389 0.274893 0.252019 -0.0414138 0.205526 0.977775
0.404569 0.436176 0.168174 0.952971 0.295744 -0.0662002
-0.249427 0.285807 0.160272 -0.939553 -0.34159 0.0235994
0.167884 0.412481 0.0375595 -0.286136 0.950817 -0.118633
0.00713888 -0.122712 -0.273388 0.00803338 -0.172139 -0.98504
-0.0292879 0.120529 -0.319624 -0.0241227 -0.159016 -0.986981
0.13827 0.338875 0.238864 0.120189 0.0369742 0.992062
0.479297 -0.225991 -0.00154193 0.162605 -0.955042 0.2479
0.538298 -0.0376958 0.240781 0.967777 0.251803 0.00156923
0.135206 0.288705 -0.276116 0.217037 -0.812897 0.540457
-0.0353122 0.0548508 -0.311271 0.0262339 -0.189245 -0.981579
0.256375 -0.152946 0.165032 0.108113 -0.971196 0.212344
0.0203426 0.316463 -0.267795 -0.237086 0.943613 -0.231052
0.278257 -0.171303 0.0511833 0.259608 -0.949084 0.178446
-0.117664 0.180839 -0.3319 0.010663 -0.20926 -0.977802
0.127949 -0.200469 -0.201835 -0.208049 0.855187 0.474733
-0.0705714 0.270476 -0.28557 -0.206825 0.669315 -0.713611
-0.0798203 -0.239486 0.19303 0.173142 -0.947821 0.267691
-0.209442 0.191459 0.259881 0.0115599 0.164634 0.986287
0.023109 -0.279712 -0.176376 0.247147 -0.958778 0.140225
0.505017 -0.205629 0.0700032 0.261441 -0.947799 0.182551
-0.228279 0.170258 -0.306481 -0.948699 -0.28139 0.144186
0.418006 0.347935 -0.160544 0.944626 0.32333 -0.0560303
0.487123 -0.148124 -0.222723 0.230838 -0.866355 -0.44288
0.0935308 -0.24413 -0.192161 0.146614 -0.912344 -0.382272
0.503183 0.0262597 -0.152373 0.97898 0.202565 -0.0237933
0.419459 0.348996 -0.0377387 0.928043 0.372243 -0.01309
0.099106 0.0798265 -0.307585 -0.0331874 -0.10377 -0.994047
-0.0978154 -0.287436 -0.236628 0.153364 -0.719099 -0.677773
0.322235 0.109178 0.284455 -0.0180834 0.170506 0.985191
-0.0698153 0.262883 0.164117 -0.245611 0.963074 0.110291
0.354923 -0.144763 0.0767439 0.285368 -0.955509 0.0746181
-0.19371 0.110835 0.256203 -0.986877 -0.161229 0.00893899
0.461455 -0.25366 -0.136816 0.0925046 -0.260876 -0.96093
-0.0128135 0.124417 -0.315728 0.0854912 -0.193131 -0.977441
-0.0702881 0.309967 0.232592 -0.260275 0.716311 0.647422
-0.231469 0.203126 -0.135934 -0.915612 -0.374044 0.147465
-0.0930254 0.294956 -0.198418 -0.277849 0.946868 -0.161993
0.297341 0.449127 0.0524106 -0.298035 0.953809 -0.0377332
0.527217 -0.0705712 -0.172391 -0.112359 0.135039 -0.984449
-0.280243 -0.021647 0.033021 -0.012018 0.171494 0.985112
0.53583 -0.188408 0.127492 0.301293 -0.949653 0.0859163
0.535065 -0.125266 0.224978 -0.0192587 0.1824 0.983036
-0.189555 -0.0142217 -0.0588146 -0.954109 -0.297718 0.0322458
-0.235884 0.243007 0.0280528 -0.96574 -0.258862 0.0183731
0.530627 -0.124038 -0.00176119 0.972238 0.232013 -0.0303748
-0.110163 -0.206521 0.195063 -0.944829 -0.324183 0.046946
-0.148762 0.24745 0.253359 -0.0605433 0.316417 0.946686
-0.0385411 0.102259 0.276476 0.0281423 0.100481 0.994541
-0.0986834 0.310004 -0.119687 -0.269813 0.947999 -0.168818
0.517548 -0.17829 -0.147388 -0.0479285 -0.163346 -0.985404
0.198306 -0.222579 -0.122584 0.277649 -0.949471 0.146342
-0.0657302 0.0111942 0.295736 -0.0120449 0.160591 0.986948
-0.0716655 -0.272857 0.0155273 0.234319 -0.936738 0.260032
-0.234725 0.202089 -0.0985484 -0.967466 -0.251375 0.028651
0.108751 0.174754 -0.327552 -0.0544333 -0.054111 -0.99705
0.453034 0.207124 -0.180768 0.933949 0.338605 -0.114392
-0.0577493 -0.253008 0.0960855 0.0743443 -0.954767 0.287911
0.202903 -0.229937 -0.166569 0.127842 -0.967042 0.220194
0.34247 0.152466 0.276832 -0.0417905 0.215836 0.975535
0.0565776 0.248592 -0.286141 0.0639883 -0.195136 0.978687
-0.0551396 0.064915 -0.306359 0.0898192 -0.251784 -0.963606
0.268957 -0.199878 -0.10167 0.263523 -0.959122 0.103151
-0.217595 0.16841 -0.10984 -0.962161 -0.270578 0.0321591
0.157689 -0.217287 -0.0335399 0.127012 -0.946301 0.297293
0.360391 -0.114038 0.224615 0.287652 -0.948646 0.131631
0.540407 -0.149968 0.125152 0.984651 0.171983 0.0297412
-0.017558 -0.266855 -0.0173487 0.170271 -0.963711 0.205593
0.180012 0.401502 -0.0484672 -0.404076 0.910662 -0.086119
0.526015 -0.153555 0.229122 -0.0647022 0.26457 0.962193
-0.180633 -0.0162213 0.148329 0.201377 -0.168219 0.964961
0.04182 0.395423 0.135077 -0.354022 0.927825 -0.117515
0.482339 -0.0255183 0.239013 -0.232212 0.905608 -0.354896
-0.0975886 -0.281303 -0.0897549 -0.948393 -0.314289 0.042101
0.140176 0.021807 0.294945 -0.132679 0.225061 0.965269
-0.19271 0.258902 0.194855 0.0208214 -0.19211 -0.981152
0.501029 -0.0726448 -0.171007 0.0138461 -0.132399 -0.9911
0.270469 0.0855608 0.287095 0.0224359 0.0987652 0.994858
-0.201718 0.225665 0.180409 -0.249411 0.885688 -0.3916
0.187869 -0.0792915 0.301569 0.0287371 -0.518417 0.854645
0.350726 -0.144602 0.0724014 0.281469 -0.946527 0.157678
0.507326 -0.220012 -0.0160329 0.359086 -0.929489 0.0843119
-0.0509148 -0.265103 0.0346849 0.342219 -0.929643 0.136563
0.0393418 0.309109 0.142734 0.0232012 0.218328 0.9756
0.426758 0.337454 0.00430606 0.985104 0.0811807 0.151589
0.251594 0.176549 -0.325968 0.121383 -0.222779 -0.967283
0.399073 -0.134197 -0.243911 0.158618 -0.834678 -0.527403
-0.0795208 -0.20916 0.300869 0.182708 -0.630979 0.753979
-0.0987991 0.0919299 -0.312909 -0.043954 -0.15098 -0.987559
0.222316 -0.170113 -0.189368 -0.204706 0.972125 0.114314
-0.0749598 -0.0593536 -0.28749 -0.00625062 -0.149645 -0.98872
0.334942 0.0915717 -0.305475 0.151296 -0.280481 -0.947861
0.469531 0.150163 -0.21621 0.928958 0.358596 -0.0918985
0.0463448 0.18966 0.26366 0.142047 -0.000345819 0.98986
0.497879 -0.0660779 0.26131 0.368623 -0.867297 0.334535
0.0683394 -0.167384 -0.169741 0.178179 -0.825612 -0.535367
-0.0377712 -0.262664 0.0164384 0.35095 -0.927231 0.130679
-0.0941882 -0.161214 -0.269121 0.148982 -0.302797 -0.941339
-0.0237241 -0.149496 0.26565 -0.127487 0.343625 -0.930413
-0.13519 -0.143538 0.0326001 0.113568 -0.930456 0.348358
-0.126048 0.28592 0.241378 -0.0205573 0.206813 0.978164
0.209221 -0.149377 -0.266764 0.119129 -0.239635 -0.963526
0.36197 -0.0220521 0.302463 0.291865 -0.617904 0.730076
0.207639 -0.158273 0.21865 0.39038 -0.920096 0.0320567
0.0340422 -0.20807 -0.259869 -0.165773 -0.127003 -0.977952
0.412344 0.144084 0.278407 0.0784045 0.00167542 0.99692
0.227468 -0.0235021 0.307413 0.0145573 0.171636 0.985053
0.489143 0.0903907 -0.0870676 0.979554 0.201072 -0.00657423
0.140381 0.25242 -0.283311 -0.216461 0.618649 0.755261
-0.0721582 0.228512 -0.309361 -0.264104 0.625197 -0.734423
0.278592 0.114962 -0.314169 0.0304561 0.0473407 -0.998414
0.409225 0.402275 -0.0417653 0.959637 0.276209 -0.0529686
0.229859 -0.182093 0.0623387 0.371146 -0.927918 0.0348977
0.152111 0.39391 0.19206 -0.199047 0.793375 0.57527
-0.0806906 0.336353 -0.0148581 -0.212262 0.942137 -0.259465
-0.460755 -0.0392987 -0.00597081 -0.184732 0.907053 -0.378325
0.498162 0.0589413 -0.190575 0.98546 0.152998 0.0738995
-0.13865 -0.139967 -0.189836 -0.961993 -0.269125 0.0462697
0.207035 -0.133616 -0.17285 0.226873 -0.859511 -0.458006
0.515962 0.0346461 0.248356 0.968638 0.247445 -0.0226104
0.185897 0.263104 -0.246864 -0.280256 0.541599 -0.792544
-0.2482 0.28851 0.0121273 -0.37706 0.920569 -0.101872
-0.28588 -0.022861 0.0333233 0.100337 -0.0584748 0.993234
-0.0779737 -0.165265 0.268028 -0.229561 0.619081 -0.751026
-0.0614734 0.157348 0.267182 -0.0278365 0.222302 0.97458
-0.178199 -0.0308482 -0.281295 -0.950058 -0.301749 0.0796077
0.499352 -0.181625 0.189127 0.16563 -0.955702 0.243312
0.0195653 0.149899 -0.319664 0.026793 -0.190339 -0.981353
0.158718 -0.220523 -0.0516072 0.243049 -0.9539 0.176074
0.404852 0.285651 -0.340703 0.0537737 -0.238594 -0.969629
0.493309 0.07602 0.290747 0.215049 0.0375075 0.975883
0.106244 -0.115162 -0.272679 0.0187649 -0.177973 -0.983856
0.409967 0.375193 0.240231 0.0695879 0.115399 0.990879
-0.0254777 0.244018 -0.268496 0.220474 -0.855946 0.467704
0.260184 -0.213585 -0.143023 0.189989 -0.954721 0.228937
-0.159942 -0.0202325 0.27935 -0.963948 -0.264149 0.0320945
0.270162 0.273235 -0.343906 -0.0560701 -0.122204 -0.99092
0.41943 0.366598 0.032197 0.970311 0.24077 -0.0229577
0.248465 0.395735 -0.165166 -0.322231 0.941516 -0.09856
0.0727457 0.275142 -0.314067 -0.207529 0.650971 -0.730184
0.303945 -0.102181 0.263826 0.1743 -0.545971 0.819472
0.0329127 -0.259558 -0.232684 0.209968 -0.602598 -0.769928
-0.0770813 -0.250719 0.134155 0.264405 -0.950491 0.163268
-0.034814 -0.236367 0.175216 0.261813 -0.948801 0.176722
0.415009 0.301895 0.251765 -0.0478505 0.208221 0.976911
0.361303 0.459507 0.00414255 -0.212409 0.930463 -0.298531
0.453881 -0.189495 0.110197 -0.965565 -0.259619 0.0168203
0.0112714 0.211918 -0.2458 -0.151979 0.739339 -0.655958
0.186653 -0.129308 0.266628 0.325637 -0.682442 0.654395
-0.240054 0.24177 -0.0816898 -0.976141 -0.216798 0.0121596
-0.116156 -0.226127 -0.208674 -0.94648 -0.310129 0.0894199
0.469797 -0.0988493 -0.215468 -0.149612 0.490272 0.858632
0.456622 0.0374298 0.295422 -0.0118726 0.167121 0.985865
0.210168 0.436825 0.110311 -0.165699 0.958949 -0.230133
0.430948 -0.175024 -0.149787 -0.217534 -0.0250714 -0.975731
-0.143962 0.250095 0.24934 -0.0618996 0.232659 0.970587
0.0842111 0.369283 -0.0723118 -0.180752 0.953957 -0.239364
0.183571 -0.178872 0.156471 0.223323 -0.954423 0.198001
-0.0212902 -0.257822 0.0530127 0.187516 -0.965219 0.182182
0.498372 0.0925433 0.152001 0.923059 0.36505 -0.121244
