ply
format ascii 1.0
comment Created by Open3D
element vertex 832
property double x
property double y
property double z
property double nx
property double ny
property double nz
end_header
0.228445 0.0926367 -0.308949 0.0178337 -0.177216 -0.98401
0.424254 0.0921493 -0.305313 0.0178337 -0.177216 -0.98401
0.477875 0.169206 0.178307 0.964516 0.262341 -0.0297662
-0.00367586 0.311016 0.240327 -0.0178337 0.177216 0.98401
0.324728 0.251423 0.257011 -0.0178336 0.177216 0.98401
0.435111 -0.215773 0.0404157 -0.263421 0.948563 -0.175607
0.457259 0.243194 0.16237 0.964516 0.262341 -0.0297662
-0.216682 0.127995 -0.293893 -0.964517 -0.262336 0.0297638
0.106836 0.300641 -0.301733 -0.173656 0.545424 -0.819973
0.0519431 0.298131 -0.291777 -0.173656 0.545424 -0.819973
-0.20988 0.0564566 -0.00407795 -0.964516 -0.262341 0.0297662
0.49537 0.105969 0.187869 0.964516 0.262341 -0.0297662
0.225157 0.395015 0.215465 -0.198877 0.796046 0.571628
0.0189022 0.00113561 -0.296268 0.0178337 -0.177216 -0.98401
0.54137 -0.129561 -0.127841 0.263421 -0.948563 0.175607
-0.111512 -0.235237 -0.0873582 -0.964516 -0.262341 0.0297661
0.290886 -0.198983 -0.127091 0.263421 -0.948563 0.175607
0.155862 0.395857 0.190184 -0.198877 0.796046 0.571628
0.278619 0.38207 -0.289884 -0.261395 0.932957 -0.247514
0.306967 0.336375 -0.259647 0.224292 -0.873625 -0.431824
-0.142943 0.0564906 -0.30917 0.0178336 -0.177216 -0.98401
0.502611 0.0667207 0.0766114 0.964516 0.262341 -0.0297662
0.483871 0.152294 0.22354 0.964516 0.262341 -0.0297654
0.472822 -0.0933758 -0.27102 0.0178337 -0.177216 -0.98401
-0.0521782 -0.27227 -0.239236 0.134368 -0.584782 -0.799984
-0.226641 0.21376 0.139283 -0.964516 -0.26234 0.0297657
0.427834 -0.1428 -0.253182 0.145354 -0.621731 -0.769625
-0.0502614 -0.19811 -0.184035 0.262894 -0.94385 0.200085
0.473201 -0.0191996 0.245753 -0.194833 0.631131 -0.750809
0.503126 0.0868218 0.289888 -0.0178337 0.177216 0.98401
0.428383 0.329835 -0.00968573 0.964516 0.262341 -0.0297662
0.126202 -0.248067 -0.145186 0.263421 -0.948563 0.175607
0.0624422 -0.252824 -0.075242 0.263421 -0.948563 0.175607
0.11324 -0.106677 0.262347 -0.0982263 0.251899 -0.962756
0.145664 -0.190531 -0.171895 -0.232776 0.791738 -0.56477
-0.112179 -0.212408 0.0922159 -0.964516 -0.262341 0.0297661
-0.0105 0.314454 0.140742 0.122141 -0.343403 0.931212
0.315579 0.185965 -0.324178 0.0178337 -0.177216 -0.98401
0.405429 -0.0277229 0.206575 -0.0439755 0.27079 0.961633
0.108959 0.387352 -0.00883916 -0.263421 0.948563 -0.175607
0.316134 -0.176702 -0.0446086 0.263421 -0.948563 0.175607
0.02096 0.386778 0.120066 -0.263421 0.948563 -0.175607
0.363735 -0.0542664 0.220099 -0.217071 0.852114 0.476216
0.394165 0.440906 -0.139546 0.964516 0.262341 -0.0297661
-0.203878 0.143904 0.261198 -0.964516 -0.262341 0.0297661
0.167571 0.192963 0.264691 -0.0178337 0.177216 0.98401
0.356077 0.032027 -0.295721 0.0178337 -0.177216 -0.98401
0.41866 -0.0597577 0.294031 0.168724 -0.525726 0.833753
0.0832831 -0.119041 0.298424 0.173656 -0.545424 0.819973
0.43839 0.317239 0.203535 0.964516 0.262341 -0.0297662
0.176388 -0.199316 0.0428664 0.263421 -0.948563 0.175607
0.0415745 0.243114 0.253376 -0.0178337 0.177216 0.98401
0.157354 -0.220293 -0.041895 0.263421 -0.948563 0.175607
0.415586 0.365545 -0.109644 0.964516 0.262341 -0.0297662
0.316852 -0.0569987 0.211465 -0.106855 0.490961 0.864604
0.417883 -0.0896298 -0.170413 0.0309441 -0.224286 -0.974032
0.0585314 0.077995 0.28342 -0.0178337 0.177216 0.98401
-0.118209 -0.178753 0.193428 -0.964516 -0.262341 0.0297646
-0.202804 0.0812578 -0.256113 -0.964516 -0.262341 0.0297661
0.2173 0.277535 -0.24524 -0.144837 0.431473 -0.890423
0.106918 -0.10433 0.214871 -0.00468396 0.129725 0.991539
0.35259 0.456435 -0.00113843 -0.263421 0.948563 -0.175607
0.414429 0.382504 0.00235761 0.964516 0.262341 -0.0297662
-0.0603998 -0.230764 0.228191 0.263421 -0.948563 0.175607
0.392732 0.470322 0.0732816 0.964516 0.262341 -0.0297661
-0.0304909 0.275502 0.159263 -0.251727 0.947736 0.196034
0.375211 0.333797 -0.348197 -0.0403135 0.0349129 -0.998577
0.0847907 0.256321 0.25178 -0.0178337 0.177216 0.98401
-0.441996 -0.0347415 0.00188718 -0.263594 0.963237 -0.0518822
0.405191 0.403398 -0.112847 0.964516 0.26234 -0.029766
-0.266542 -0.0583053 -0.00662337 0.251727 -0.947736 -0.196036
-0.0453629 0.234002 -0.313826 -0.173656 0.545424 -0.819973
0.154701 -0.0415498 -0.286119 0.0178337 -0.177216 -0.98401
-0.489563 -0.102089 0.034481 -0.964514 -0.262349 0.0297604
0.41335 -0.109804 0.170918 0.263421 -0.948563 0.175607
0.537273 -0.075326 -0.0521742 0.964516 0.262341 -0.0297662
0.451133 0.226413 -0.184022 0.964516 0.262341 -0.0297662
0.4968 0.0669068 -0.110061 0.964516 0.262341 -0.0297662
0.076578 0.346188 -0.182619 -0.263421 0.948563 -0.175607
-0.11201 0.29419 -0.180599 -0.263421 0.948563 -0.175607
0.515397 -0.00804165 -0.168022 0.964516 0.262341 -0.0297662
-0.150402 0.298089 -0.101946 -0.263421 0.948563 -0.175607
-0.183204 0.0101214 -0.247971 -0.964516 -0.262341 0.0297661
-0.10128 0.229775 -0.32348 0.964516 0.262341 -0.0297671
0.179731 0.371194 -0.202282 -0.263421 0.948563 -0.175607
-0.151078 -0.149774 -0.00155424 0.262515 -0.964926 0.00206726
-0.0365469 0.23015 -0.236867 0.0822829 -0.4058 -0.91025
0.384713 -0.124203 -0.177557 -0.219211 0.732866 -0.644092
-0.0930042 0.208992 -0.281324 0.0733401 -0.15791 0.984726
-0.241486 0.258754 0.0547926 -0.964516 -0.26234 0.0297661
0.135663 -0.176429 0.227585 0.263421 -0.948563 0.175607
0.121028 -0.195247 0.14789 0.263421 -0.948563 0.175607
0.471167 0.181316 0.067697 0.964516 0.262341 -0.0297662
0.120502 0.284084 0.247428 -0.0178337 0.177216 0.98401
0.214785 -0.166511 0.162469 0.263421 -0.948563 0.175607
0.504405 -0.157952 0.228135 -0.0178337 0.177216 0.98401
0.358629 -0.108461 -0.270373 0.0178337 -0.177216 -0.98401
0.427543 -0.209055 -0.120358 -0.964516 -0.262341 0.0297664
0.103749 -0.206193 -0.184293 -0.262515 0.964926 -0.00205873
-0.204632 0.0929318 -0.212465 -0.964516 -0.262341 0.029766
0.100408 -0.249218 -0.184968 0.198877 -0.796046 -0.571628
-0.205872 0.101869 -0.173887 -0.964516 -0.26234 0.0297662
0.432461 0.343362 0.241656 0.964516 0.262341 -0.0297662
-0.0148944 0.381609 0.145927 -0.263421 0.948563 -0.175607
0.486975 -0.215411 0.0436645 0.263421 -0.948563 0.175607
0.00374475 0.328665 -0.168014 -0.263421 0.948563 -0.175607
-0.198065 0.0513373 0.139825 -0.0696757 0.361656 0.929705
0.217693 0.387275 -0.17236 -0.263421 0.948563 -0.175607
-0.218891 0.146709 -0.200548 -0.964516 -0.26234 0.029766
-0.0131368 -0.250452 -0.247596 0.099564 -0.465819 -0.879261
-0.0191009 0.26563 0.248221 -0.0178337 0.177216 0.98401
0.307167 -0.148244 0.12256 0.263421 -0.948563 0.175607
0.526036 -0.0944555 0.115032 0.964516 0.26234 -0.0297661
0.0390677 0.18891 -0.32972 0.0178337 -0.177216 -0.98401
0.457832 0.19841 -0.213767 0.964516 0.262341 -0.0297662
0.215775 -0.183277 0.070421 0.263421 -0.948563 0.175607
-0.172804 -0.0752546 0.0364561 -0.964517 -0.262339 0.0297703
0.37796 0.270324 0.254572 -0.0178336 0.177216 0.98401
-0.098345 0.341012 0.0518185 -0.263421 0.948563 -0.175607
-0.117023 0.329163 0.015833 -0.263421 0.948563 -0.175607
0.432051 -0.0144671 -0.28597 0.0178337 -0.177216 -0.98401
-0.169897 0.116664 -0.320496 0.0178336 -0.177216 -0.98401
0.386733 -0.148492 0.00186703 0.263421 -0.948563 0.175607
-0.075131 0.0592855 0.284367 -0.0178338 0.177216 0.98401
0.447357 -0.0916141 0.218161 0.263421 -0.948563 0.175607
-0.176851 -0.0698497 -0.0470452 -0.964516 -0.262341 0.0297675
0.40373 0.201912 0.26736 -0.0178337 0.177216 0.98401
0.0245163 -0.108702 0.316427 -0.0178336 0.177216 0.98401
0.0648087 0.037266 0.290869 -0.0178337 0.177216 0.98401
-0.11765 -0.149506 0.225243 0.166098 -0.515273 0.840776
-0.253513 0.314307 0.154704 -0.964516 -0.262341 0.0297656
-0.20364 0.0178407 -0.142234 -0.964517 -0.262339 0.0297665
-0.141406 -0.124918 -0.0837357 -0.964516 -0.26234 0.0297656
0.388374 0.347595 -0.250872 0.0946856 -0.448936 -0.888533
-0.131502 -0.156631 -0.0423378 -0.964517 -0.262338 0.0297649
-0.114585 -0.210208 0.0336631 -0.964516 -0.262341 0.0297661
-0.0634041 -0.292065 -0.0984291 0.263421 -0.948563 0.175607
0.433144 -0.197762 -0.0765077 -0.0178338 0.177216 0.98401
-0.16602 0.32089 0.0446413 -0.263421 0.948563 -0.175607
0.295022 -0.0272167 0.242088 0.230957 -0.892968 -0.386352
0.427541 0.314367 -0.173308 0.964516 0.262341 -0.0297662
-0.00769384 -0.156538 0.251226 -0.256322 0.903381 -0.343806
0.40624 0.405535 -0.0600106 0.964516 0.26234 -0.029766
0.0500982 -0.0290572 0.302547 -0.0178337 0.177216 0.98401
0.242423 -0.181866 0.0380664 0.263421 -0.948563 0.175607
0.437971 -0.209057 0.151494 0.263421 -0.948563 0.175607
0.332576 -0.175655 -0.206637 0.198877 -0.796046 -0.571628
0.177921 -0.229338 -0.121602 0.263421 -0.948563 0.175607
-0.0238618 0.037317 -0.303559 0.0178337 -0.177216 -0.98401
-0.0244415 -0.282652 -0.10603 0.263421 -0.948563 0.175607
-0.136078 0.276401 0.14356 0.085891 -0.205164 0.974952
-0.0847872 -0.238465 -0.202002 -0.03094 0.224271 0.974036
0.333828 0.32195 -0.34692 -0.0274639 -0.0124393 -0.999545
0.0139128 -0.126207 0.266199 -0.0216288 -0.0338519 -0.999193
0.362061 -0.178884 -0.125292 0.263421 -0.948563 0.175607
0.521724 -0.201377 0.0673452 0.263421 -0.948563 0.175607
0.541287 -0.146978 0.14632 0.964516 0.26234 -0.0297661
0.439244 0.256681 -0.302509 0.964516 0.262341 -0.0297663
0.169929 -0.240627 -0.170592 0.263421 -0.948563 0.175606
0.0515226 0.125158 0.274799 -0.0178337 0.177216 0.98401
0.0502077 0.358557 -0.0762505 -0.263421 0.948563 -0.175607
0.514573 0.0160996 0.0180647 0.964516 0.262341 -0.0297662
0.366284 0.221123 0.263221 -0.0178336 0.177216 0.98401
-0.215676 0.308948 0.0546225 -0.263421 0.948563 -0.175607
0.296914 -0.167776 -0.230017 0.198877 -0.796046 -0.571628
-0.134559 -0.0410182 0.301355 -0.0178337 0.177216 0.98401
0.454693 0.16201 -0.317343 0.0178337 -0.177216 -0.98401
0.0764307 0.147369 -0.321561 0.0178337 -0.177216 -0.98401
0.10625 0.0746491 0.284888 -0.0178337 0.177216 0.98401
-0.114128 -0.0316753 -0.29277 0.0178337 -0.177216 -0.98401
0.00986416 0.317242 0.186458 0.0309431 -0.224282 -0.974033
0.431745 0.326839 0.072848 0.964514 0.262348 -0.0297783
0.280473 0.20099 -0.32752 0.0178337 -0.177216 -0.98401
0.103899 0.283469 -0.26335 0.262516 -0.964925 0.00207056
0.350078 0.33463 -0.248522 0.0696817 -0.361677 -0.929696
0.344832 -0.0398647 0.255877 -0.0606045 0.110255 -0.992054
0.402856 0.401609 -0.204286 0.964516 0.26234 -0.029766
0.528768 -0.0411903 -0.0268896 0.964516 0.262341 -0.0297662
0.0254438 0.355361 0.201204 -0.198877 0.796046 0.571628
-0.12016 -0.197853 -0.038103 -0.964516 -0.262341 0.0297661
-0.0221047 0.0593675 0.285314 -0.0178337 0.177216 0.98401
-0.200399 0.18619 0.259242 -0.0178338 0.177216 0.98401
0.225059 -0.0822534 0.292869 0.173656 -0.545424 0.819973
-0.205112 0.278936 -0.123335 -0.263421 0.948563 -0.175607
0.0719365 0.337382 -0.223221 -0.263421 0.948563 -0.175607
0.440277 -0.0361995 0.227073 -0.258405 0.961107 0.0974666
0.118669 0.013584 0.29611 -0.0178336 0.177216 0.98401
-0.0776811 0.337719 0.00303493 -0.263421 0.948563 -0.175607
0.389536 0.422911 -0.237646 -0.263421 0.948563 -0.175607
-0.216178 0.179377 0.175267 -0.964516 -0.262341 0.0297662
-0.215192 0.139125 -0.147527 -0.964516 -0.262341 0.0297662
-0.0282169 0.331431 0.215859 -0.198877 0.796046 0.571628
0.255987 -0.0686308 -0.279407 0.0178337 -0.177216 -0.98401
0.402556 0.423561 -0.0205139 0.964516 0.26234 -0.029766
0.144932 0.400281 0.00704037 -0.263421 0.948563 -0.175607
0.29737 -0.131858 0.225768 0.263421 -0.948563 0.175607
0.419057 0.359019 -0.0546711 0.964516 0.262341 -0.0297662
-0.194768 0.201412 -0.248224 0.247445 -0.93751 -0.244635
0.533491 -0.175016 -0.149358 0.0178337 -0.177216 -0.98401
0.168476 -0.113265 0.284224 0.173656 -0.545424 0.819973
0.0247773 -0.248176 0.00636535 0.263421 -0.948563 0.175607
0.540474 -0.107683 -0.23361 0.964517 0.262337 -0.0297617
0.34989 0.261607 -0.337179 0.0178337 -0.177216 -0.98401
0.23104 -0.209258 -0.0928177 0.263421 -0.948563 0.175607
-0.157572 -0.0818341 -0.227865 -0.964516 -0.262341 0.0297661
0.535312 -0.120409 0.186869 0.964516 0.26234 -0.0297661
0.193214 0.151884 0.272554 -0.0178336 0.177216 0.98401
-0.156885 0.287742 -0.148111 -0.263421 0.948563 -0.175607
0.440943 0.0245762 0.299971 -0.0178337 0.177216 0.98401
0.127542 0.382217 -0.0644532 -0.263421 0.948563 -0.175607
0.297538 -0.167881 0.0309334 0.263421 -0.948563 0.175607
-0.00562933 0.311318 -0.247659 -0.263421 0.948563 -0.175607
0.525029 -0.0384798 -0.124153 0.964516 0.26234 -0.0297654
-0.110975 0.0848101 0.279121 -0.0178338 0.177216 0.98401
0.222808 -0.118904 0.268967 0.173656 -0.545424 0.819973
0.25187 0.36417 0.235385 -0.0178337 0.177216 0.98401
-0.407801 -0.0666749 0.0380455 0.0733369 -0.157898 0.984728
0.392481 0.0787913 0.289329 -0.0178337 0.177216 0.98401
-0.128258 0.266195 0.246141 -0.0178338 0.177216 0.98401
0.536879 -0.0672456 0.00629209 0.96452 0.262328 -0.0297613
-0.177616 -0.0511109 0.0933325 -0.964516 -0.262339 0.0297667
-0.145095 -0.0713314 0.268983 -0.964516 -0.262341 0.0297661
-0.124937 -0.140787 0.310061 -0.964516 -0.262341 0.0297661
0.138506 0.36048 -0.198313 -0.263421 0.948563 -0.175607
0.278412 0.348783 -0.333255 -0.168724 0.525727 -0.833753
-0.0812781 -0.12911 0.236808 0.256322 -0.903379 0.343811
0.44605 -0.159936 -0.0209729 -0.964516 -0.262341 0.0297662
-0.184197 0.0632752 0.18832 -0.964516 -0.262341 0.0297662
0.497907 -0.150866 -0.177722 0.263421 -0.948563 0.175606
0.484319 0.0722273 -0.300636 0.0178337 -0.177216 -0.98401
0.378196 -0.182357 -0.181432 0.198877 -0.796046 -0.571628
0.384378 -0.128102 0.115537 0.263421 -0.948563 0.175607
-0.236485 0.260839 0.235212 -0.964517 -0.262337 0.0297652
0.24974 -0.211141 -0.131043 0.263421 -0.948563 0.175607
0.0285815 -0.132101 -0.272097 0.0178337 -0.177216 -0.98401
0.125747 -0.088623 0.309665 0.173656 -0.545424 0.819973
0.489278 0.0902421 -0.148144 0.964516 0.262341 -0.0297662
0.174247 0.371801 0.138945 0.18571 -0.593961 0.782766
0.148773 0.0164381 -0.29667 0.0178337 -0.177216 -0.98401
-0.0430381 -0.238301 -0.197238 -0.163126 0.680772 0.714101
-0.0978178 -0.0719167 -0.285227 0.0178337 -0.177216 -0.98401
0.45863 0.22483 0.0449521 0.964516 0.262341 -0.0297662
-0.374287 -0.0870351 0.0115908 0.261351 -0.932667 0.248653
0.34337 -0.13684 0.129857 0.263421 -0.948563 0.175607
0.052354 -0.141584 0.237846 -0.255383 0.955609 0.146937
-0.166461 -0.108115 -0.0476272 -0.964516 -0.262341 0.0297664
-0.201011 0.303837 0.0050186 -0.263421 0.948563 -0.175607
0.0810584 0.240146 -0.336513 -0.173656 0.545424 -0.819973
-0.242226 -0.0184097 -0.0361117 -0.00848303 -0.08189 -0.996605
0.214645 0.273602 -0.286374 -0.130357 0.571217 0.810381
0.115501 -0.0154281 -0.291534 0.0178337 -0.177216 -0.98401
0.378542 -0.0744703 0.265541 0.173656 -0.545424 0.819973
-0.01272 -0.0238376 -0.292344 0.0178337 -0.177216 -0.98401
0.142429 -0.109176 -0.274163 0.0178337 -0.177216 -0.98401
0.0577629 -0.111296 0.26456 0.0178399 -0.177239 -0.984006
0.388516 0.46791 0.00695209 -0.263421 0.948563 -0.175607
0.155827 0.423689 0.117137 -0.263421 0.948563 -0.175607
-0.184886 0.0227154 -0.191479 -0.964516 -0.262341 0.0297661
-0.0929898 -0.311461 -0.15898 -0.964516 -0.262341 0.0297661
0.4696 0.178287 -0.0097742 0.964517 0.262338 -0.0297612
0.357804 0.302174 -0.270279 -0.263594 0.963237 -0.0518856
0.479756 0.137451 -0.0406061 0.964522 0.262324 -0.0297388
0.203121 -0.0583047 -0.282224 0.0178337 -0.177216 -0.98401
-0.0207418 0.355627 0.0143515 -0.263421 0.948563 -0.175607
0.492971 0.103888 0.0918001 0.964516 0.262341 -0.0297662
0.0104602 -0.270237 -0.0913225 0.263421 -0.948563 0.175607
0.322855 0.383341 0.132484 -0.106853 0.490954 0.864608
-0.195572 0.0148003 0.0924119 -0.964516 -0.262341 0.0297662
0.0154885 -0.279159 -0.147057 0.263421 -0.948563 0.175607
-0.150526 0.165302 -0.247378 -0.256322 0.903377 -0.343816
0.294517 -0.0712241 0.247549 -0.232775 0.791736 -0.564774
0.0725431 0.0825709 -0.309962 0.0178337 -0.177216 -0.98401
0.277413 0.399742 0.17342 0.14164 -0.609275 -0.780207
0.404587 0.43293 0.127855 0.964515 0.262344 -0.0297667
0.236526 -0.206971 -0.196443 0.198877 -0.796046 -0.571628
-0.229643 0.184086 -0.21954 -0.964515 -0.262344 0.0297674
0.484426 -0.196433 0.149999 0.263421 -0.948563 0.175607
-0.182001 0.264634 0.145129 0.085891 -0.205164 0.974952
0.0180134 0.37847 0.0796074 -0.263421 0.948563 -0.175607
-0.284539 -0.0101782 -0.0305653 -0.155662 0.473969 -0.866674
0.447756 -0.25043 -0.086664 0.263421 -0.948563 0.175607
-0.206103 0.156796 -0.32838 0.0178338 -0.177217 -0.98401
0.432705 -0.170527 -0.189071 0.263623 -0.963123 0.0538331
0.540813 -0.167447 -0.0494625 0.964516 0.26234 -0.0297661
0.402765 0.017118 -0.292189 0.0178337 -0.177216 -0.98401
-0.183668 -0.0414753 -0.0178633 -0.964516 -0.262342 0.0297704
-0.220219 0.165622 -0.0768812 -0.964516 -0.26234 0.029766
0.0701187 0.160263 0.268814 -0.0178337 0.177216 0.98401
0.356391 -0.119932 0.201655 0.263421 -0.948563 0.175607
0.229542 0.16947 -0.322767 0.0178337 -0.177216 -0.98401
0.16026 0.27134 -0.240918 -0.047718 0.0623253 -0.996915
0.150276 0.418357 0.156906 -0.198877 0.796046 0.571628
-0.150032 0.205922 -0.273896 0.194833 -0.631129 0.750811
-0.225318 0.20349 0.0916266 -0.964516 -0.26234 0.0297661
0.467214 0.208171 0.176281 0.964516 0.262337 -0.0297914
0.460617 -0.037203 0.29842 0.125866 -0.357768 0.925289
0.462648 -0.108573 -0.194691 -0.262515 0.964926 -0.00205873
-0.188303 0.0834287 0.232886 -0.964516 -0.262341 0.0297662
-0.0984008 -0.265912 0.0671206 -0.964516 -0.262341 0.0297661
-0.215863 0.130625 -0.244178 -0.964516 -0.26234 0.029766
-0.135976 0.349614 0.178723 -0.255719 0.956277 0.141925
0.435949 -0.231377 -0.0446977 -0.964517 -0.262339 0.0297658
-0.0294398 -0.252907 0.0621395 0.263421 -0.948563 0.175607
-0.0408061 -0.153582 0.222135 -0.0946853 0.448934 0.888534
0.290589 -0.0364945 -0.284567 0.0178337 -0.177216 -0.98401
0.523352 0.0157066 0.299073 0.964515 0.262343 -0.0297663
0.400894 0.436303 0.0379381 0.964516 0.262341 -0.0297661
0.389951 -0.0349517 -0.283044 0.0178337 -0.177216 -0.98401
0.415059 -0.16101 -0.10824 0.263421 -0.948563 0.175607
0.512674 0.0294846 0.0744861 0.964516 0.262341 -0.0297662
0.326588 -0.153491 0.0650841 0.263421 -0.948563 0.175607
-0.162807 0.120519 0.27175 -0.0178337 0.177216 0.98401
0.507212 0.0172118 -0.210659 0.964516 0.262337 -0.0297833
0.513671 0.0471809 0.262758 0.964516 0.262341 -0.0297654
0.347141 0.37172 -0.33256 -0.178484 0.564792 -0.805701
0.274868 -0.167031 0.069531 0.263421 -0.948563 0.175607
-0.0127621 -0.0776528 0.31016 -0.0178338 0.177216 0.98401
0.315687 -0.11854 -0.269336 0.0178337 -0.177216 -0.98401
0.541128 -0.152812 0.0897448 0.964516 0.26234 -0.0297661
0.209092 0.318012 -0.311834 -0.173656 0.545424 -0.819973
-0.12746 -0.136389 0.267036 -0.964516 -0.262341 0.0297661
0.0133808 0.210698 -0.25046 -0.252848 0.885348 -0.390162
0.281305 0.408234 0.22738 -0.0499457 0.292 0.955113
0.107117 0.342411 0.183743 0.0178338 -0.177217 -0.98401
0.18025 0.304235 -0.265935 0.262516 -0.964925 0.00207056
-0.0960463 0.180157 0.26222 -0.0178338 0.177216 0.98401
0.245108 0.41896 -0.0423337 -0.263421 0.948563 -0.175607
0.249404 -0.0489299 0.254694 0.118754 -0.53175 -0.838534
0.393144 0.450297 -0.0898822 0.964516 0.262341 -0.0297661
-0.236482 0.245851 0.103228 -0.964516 -0.26234 0.0297661
0.0361441 -0.271687 -0.21277 0.225638 -0.877575 -0.423024
0.322467 0.475089 0.147437 -0.263623 0.963122 -0.0538369
-0.12487 -0.189808 -0.11981 -0.964516 -0.262341 0.0297666
0.193239 -0.166495 -0.164593 -0.133656 0.387922 -0.91195
0.251577 -0.167837 -0.245705 0.198877 -0.796046 -0.571628
-0.13816 -0.14486 -0.154322 -0.964516 -0.26234 0.0297645
0.356449 0.162691 0.273566 -0.0178336 0.177216 0.98401
0.415744 0.343564 -0.298244 0.964517 0.262337 -0.0297661
0.434658 0.297699 -0.0895913 0.964516 0.262341 -0.0297662
-0.0953659 -0.287515 -0.025908 0.263421 -0.948563 0.175607
0.239857 0.409097 -0.0877348 -0.263421 0.948563 -0.175607
-0.0149501 0.331329 -0.12558 -0.263421 0.948563 -0.175607
0.0851507 0.215933 0.259061 -0.0178337 0.177216 0.98401
0.240815 0.369034 0.131984 -0.0211173 0.189032 0.981744
0.0756374 -0.189878 0.244979 0.263421 -0.948563 0.175607
0.450378 -0.171044 0.0213762 -0.964516 -0.262341 0.0297662
0.373105 -0.143692 0.04824 0.263421 -0.948563 0.175607
0.383906 -0.0348348 0.290769 0.173656 -0.545424 0.819973
0.106324 0.413974 0.138917 -0.263421 0.948563 -0.175607
-0.176376 0.339591 0.169118 -0.262591 0.964895 -0.00478547
0.121504 0.363705 -0.155387 -0.263421 0.948563 -0.175607
0.159903 0.39672 -0.0346566 -0.263421 0.948563 -0.175607
0.387373 -0.0834857 -0.27435 0.0178337 -0.177216 -0.98401
-0.150692 0.34236 0.137624 -0.263421 0.948563 -0.175607
0.123067 0.355017 0.138578 0.1661 -0.515285 0.840769
-0.0871921 -0.243603 0.19903 0.263421 -0.948563 0.175607
0.426681 0.323185 -0.123466 0.964516 0.262341 -0.0297662
0.116062 0.0786054 -0.308459 0.0178337 -0.177216 -0.98401
0.312872 0.305346 -0.292189 -0.0696805 0.361673 0.929697
-0.175561 -0.00868473 -0.166063 -0.964516 -0.262341 0.0297661
0.318058 0.127361 0.279233 -0.0178336 0.177216 0.98401
0.420718 -0.15164 0.164508 -0.964516 -0.262341 0.0297659
0.00400032 -0.224901 0.163258 0.263421 -0.948563 0.175607
0.49009 0.0806549 -0.206315 0.964516 0.262339 -0.0297721
0.414319 0.394448 0.104058 0.964516 0.262341 -0.0297662
-0.195472 -0.00143021 -0.047399 -0.964517 -0.262337 0.0297663
0.198866 0.401403 -0.0678074 -0.263421 0.948563 -0.175607
0.239947 -0.157988 -0.168193 -0.166099 0.515278 -0.840774
0.518463 -0.0239039 -0.208447 0.964516 0.262343 -0.0297546
0.0301599 -0.185788 0.273053 0.964516 0.26234 -0.0297656
0.351882 -0.143681 -0.244447 0.198877 -0.796046 -0.571628
-0.192657 0.165135 -0.275267 -0.106857 0.490968 0.8646
0.164975 0.24703 0.254907 -0.0178337 0.177216 0.98401
0.186099 -0.110924 -0.273056 0.0178337 -0.177216 -0.98401
0.357902 0.333866 0.242765 -0.0178336 0.177216 0.98401
0.138278 -0.145716 0.269034 0.173656 -0.545424 0.819973
-0.0482736 0.172586 -0.328363 0.0178337 -0.177216 -0.98401
-0.208047 0.0438456 -0.0558374 -0.964516 -0.262341 0.0297661
0.330311 -0.0855509 0.268385 0.173656 -0.545424 0.819973
-0.216347 0.201804 -0.324218 -0.125864 0.357762 -0.925292
-0.134944 0.0163909 -0.301804 0.0178336 -0.177216 -0.98401
0.192525 -0.206282 -0.0189683 0.263421 -0.948563 0.175607
0.278747 0.116879 0.280409 -0.0178336 0.177216 0.98401
0.111812 0.249536 -0.241649 -0.144838 0.43148 -0.89042
0.444318 0.266027 -0.0557106 0.964516 0.262341 -0.0297662
0.468657 0.175286 -0.0667949 0.964516 0.262341 -0.0297662
-0.101159 -0.232108 0.273801 0.256494 -0.9043 0.341251
-0.238601 0.020668 -0.00214405 -0.262516 0.964925 -0.0020681
0.198423 -0.0973922 0.222279 -0.201025 0.802779 0.561369
0.310197 -0.0514145 0.295352 0.173656 -0.545424 0.819973
0.315996 0.229744 -0.332055 0.0178337 -0.177216 -0.98401
-0.203586 0.0223508 -0.100746 -0.964516 -0.262341 0.0297659
-0.165208 -0.0957758 0.101749 -0.964516 -0.262341 0.0297662
-0.324998 -0.00920224 -0.018866 -0.232775 0.791734 -0.564777
-0.0221487 -0.126519 0.318704 -0.0113615 0.153877 0.988025
0.244749 0.246877 0.25638 -0.0178336 0.177216 0.98401
-0.119581 -0.220094 -0.215357 -0.964516 -0.262341 0.0297662
0.41731 0.394081 0.197725 0.964516 0.262341 -0.0297662
-0.216961 0.158279 -0.0360257 -0.964516 -0.262341 0.0297662
0.0277309 -0.0526249 -0.286426 0.0178337 -0.177216 -0.98401
0.0610288 -0.151773 0.281365 0.173656 -0.545424 0.819973
-0.0946918 0.233392 0.252657 -0.0178338 0.177216 0.98401
-0.19973 0.0186714 0.023429 -0.152574 0.645832 0.748079
0.357389 0.478387 0.110241 -0.263421 0.948563 -0.175607
-0.222034 0.232479 0.189327 -0.185708 0.593953 -0.782772
0.187282 -0.136048 -0.198447 0.244022 -0.84272 0.47987
0.503606 0.0227409 -0.278785 0.964516 0.262341 -0.0297663
0.250864 0.311879 -0.32476 -0.173656 0.545424 -0.819973
0.0843083 0.0356965 -0.301307 0.0178337 -0.177216 -0.98401
-0.171353 0.306236 -0.02651 -0.263421 0.948563 -0.175607
-0.250488 0.28231 -0.0292759 -0.964516 -0.262341 0.0297662
-0.0590867 0.33371 -0.0465142 -0.263421 0.948563 -0.175607
0.238807 0.348472 -0.297866 -0.173656 0.545424 -0.819973
0.435784 0.274208 -0.260135 0.964516 0.262341 -0.0297639
0.542682 -0.169015 -0.00270119 0.964516 0.26234 -0.0297661
0.0561903 0.325737 0.185711 -0.00848252 -0.0818918 -0.996605
0.527533 -0.0530579 -0.171524 0.964516 0.262341 -0.0297662
0.383153 0.294704 -0.342537 0.0178337 -0.177216 -0.98401
0.278305 0.388884 0.130732 0.073337 -0.157899 0.984728
-0.229953 0.13132 0.00527459 -0.964516 -0.262341 0.0297669
0.440731 0.263613 -0.193206 0.964516 0.262341 -0.0297662
0.288986 0.218708 0.262255 -0.0178336 0.177216 0.98401
0.31079 0.414931 -0.162625 -0.263421 0.948563 -0.175607
0.183759 0.424232 0.078172 -0.263421 0.948563 -0.175607
0.260742 0.403139 -0.151248 -0.263421 0.948563 -0.175607
0.3492 0.431983 -0.128133 -0.263421 0.948563 -0.175607
0.258475 0.281089 -0.252348 -0.219211 0.732865 -0.644093
0.420802 0.312503 -0.34506 0.0178337 -0.177216 -0.98401
0.428784 0.131345 -0.31229 0.0178337 -0.177216 -0.98401
0.185545 0.367235 0.180375 0.0568952 -0.316613 -0.946847
-0.0921291 -0.211714 -0.167653 0.224291 -0.873623 -0.43183
0.446793 0.080229 0.290055 -0.0178337 0.177216 0.98401
0.399165 -0.101151 0.238938 0.263421 -0.948563 0.175607
0.181624 0.416134 0.0376276 -0.263421 0.948563 -0.175607
0.333266 0.467559 0.190688 -0.211112 0.834011 0.509762
-0.0913216 0.319078 -0.0771955 -0.263421 0.948563 -0.175607
0.527781 -0.0310887 0.0301477 0.964516 0.262341 -0.0297662
0.150354 0.300211 -0.311235 -0.173656 0.545424 -0.819973
-0.135293 0.281626 -0.213539 -0.263421 0.948563 -0.175607
0.496319 0.0973227 0.142421 0.964516 0.262341 -0.0297662
-0.226514 -0.0466372 0.00779779 0.261351 -0.932667 0.248653
0.448538 0.278022 0.186729 0.964516 0.262341 -0.0297654
0.442696 -0.219243 0.0893857 0.263421 -0.948563 0.175607
-0.103104 -0.239839 0.144515 -0.964516 -0.262341 0.0297661
-0.0753256 -0.0457367 0.303278 -0.0178337 0.177216 0.98401
0.284986 -0.147663 -0.262176 0.198877 -0.796046 -0.571628
-0.247352 -0.00585013 0.0314049 -0.0568949 0.316611 0.946847
0.230339 0.427932 0.0282814 -0.263421 0.948563 -0.175607
0.106321 -0.0833737 -0.279464 0.0178337 -0.177216 -0.98401
0.361445 -0.00164705 0.303253 -0.0178336 0.177216 0.98401
-0.054066 0.276203 -0.283912 -0.173656 0.545424 -0.819973
0.284756 0.440036 0.0120355 -0.263421 0.948563 -0.175607
0.0816391 -0.232765 0.00431355 0.263421 -0.948563 0.175607
0.442467 0.128407 0.2813 -0.0178337 0.177216 0.98401
0.00344882 0.214851 0.257775 -0.0178337 0.177216 0.98401
0.100015 0.404877 0.0992414 -0.263421 0.948563 -0.175607
0.272438 -0.181527 -0.0051228 0.263421 -0.948563 0.175607
0.279861 0.46345 0.147912 -0.264019 0.959029 -0.102745
0.451544 0.271326 0.225131 0.964516 0.262341 -0.0297662
0.414625 0.159443 0.275205 -0.0178337 0.177216 0.98401
-0.114346 -0.229646 -0.129935 -0.964516 -0.262341 0.0297661
0.316822 0.419753 0.154212 0.260784 -0.964214 -0.0477718
0.370149 0.483175 0.17816 -0.23799 0.912685 0.332215
0.0854141 -0.217889 0.0790053 0.263421 -0.948563 0.175607
0.0385776 0.26618 -0.310199 -0.173656 0.545424 -0.819973
-0.0248051 -0.168427 0.313713 0.125864 -0.357762 0.925292
0.490585 0.0939756 -0.0728774 0.964514 0.262349 -0.0297796
-0.0909581 0.186035 -0.331559 0.0178336 -0.177216 -0.98401
0.340242 -0.0572753 -0.279925 0.0178337 -0.177216 -0.98401
0.055905 0.220583 -0.266703 -0.251727 0.947737 0.196032
0.497743 -0.185188 0.190763 0.263421 -0.948563 0.175607
0.315589 0.0056212 0.301113 -0.0178336 0.177216 0.98401
-0.10523 -0.265628 -0.151651 -0.964516 -0.262341 0.0297661
-0.218786 0.0912099 0.0136089 -0.964516 -0.26234 0.029763
0.0125905 0.28666 0.162734 -0.262516 0.964925 -0.00207056
-0.0713037 0.317064 0.220876 -0.198877 0.796046 0.571628
-0.205905 0.0523117 0.0881675 -0.964517 -0.262337 0.0297639
-0.199698 0.273316 -0.161817 -0.263421 0.948563 -0.175607
0.012721 0.147076 -0.322663 0.0178337 -0.177216 -0.98401
0.507183 0.0336979 -0.0663056 0.964516 0.262341 -0.0297662
0.0795793 -0.111483 -0.274886 0.0178337 -0.177216 -0.98401
0.253732 0.00168141 0.300702 -0.0178336 0.177216 0.98401
0.335174 0.0643044 0.2909 -0.0178336 0.177216 0.98401
0.0602494 -0.269667 -0.162932 0.263421 -0.948563 0.175607
0.12969 0.405025 0.055525 -0.263421 0.948563 -0.175607
0.540607 -0.1001 -0.162466 0.964516 0.26234 -0.0297654
0.0208956 -0.208193 0.228161 0.263421 -0.948563 0.175607
0.357731 -0.110711 0.245842 0.173656 -0.545424 0.819973
0.0263395 -0.241071 -0.248095 0.099564 -0.465819 -0.879261
0.502149 -0.0965951 -0.188876 -0.259159 0.919164 -0.296604
0.0824918 0.311908 0.241728 -0.0178337 0.177216 0.98401
0.332029 0.4082 -0.230845 -0.263421 0.948563 -0.175607
0.412985 0.367084 -0.180352 0.964515 0.262345 -0.0297671
-0.00804363 0.289384 -0.284891 -0.173656 0.545424 -0.819973
-0.138721 -0.110031 0.134478 -0.964516 -0.26234 0.0297668
-0.194722 0.0550083 -0.225576 -0.964516 -0.262341 0.0297661
-0.350243 -0.0681785 -0.0250353 0.141644 -0.60929 -0.780194
0.479622 0.122486 -0.176848 0.964516 0.262341 -0.0297662
-0.174533 0.269981 0.191238 0.0696765 -0.361659 -0.929703
0.140412 0.215611 -0.332692 0.0178337 -0.177216 -0.98401
0.526872 -0.0678067 -0.22158 0.00848231 0.0818925 0.996605
0.0307403 -0.194865 -0.260755 0.0178337 -0.177216 -0.98401
0.486263 0.132012 0.122301 0.964516 0.262341 -0.0297662
-0.19556 0.0669247 -0.147735 -0.964516 -0.26234 0.0297665
0.49793 0.0713081 -0.034662 0.964516 0.262341 -0.0297662
0.205207 0.27244 0.25106 -0.0178337 0.177216 0.98401
-0.215647 0.254507 -0.239489 -0.263421 0.948563 -0.175607
0.173337 -0.173454 0.187137 0.263421 -0.948563 0.175607
-0.0972245 -0.172644 0.320408 0.0781668 -0.176047 0.981273
0.298202 -0.0777388 -0.277001 0.0178337 -0.177216 -0.98401
0.178225 -0.162749 0.237634 0.263421 -0.948563 0.175607
-0.2128 0.0982409 -0.116239 -0.194832 0.631124 -0.750815
0.415983 -0.129854 0.203096 -0.964516 -0.26234 0.0297663
0.53117 -0.0223805 0.216715 0.964516 0.26234 -0.0297661
0.530822 -0.0266444 0.167856 0.964516 0.26234 -0.0297661
-0.155807 -0.136373 0.0485675 -0.964516 -0.26234 0.0297678
-0.366392 -0.0174118 -0.0124682 -0.248745 0.865114 -0.435551
0.133328 0.338058 -0.282455 -0.173656 0.545424 -0.819973
0.469644 -0.0665762 0.273972 0.227275 -0.767598 0.599282
-0.170669 -0.0371361 -0.258314 -0.964516 -0.262341 0.0297649
0.0847969 -0.0449348 -0.286777 0.0178337 -0.177216 -0.98401
-0.502435 -0.059795 -0.00986067 -0.964518 -0.262331 0.0297827
-0.116158 -0.190722 0.154411 -0.964516 -0.26234 0.0297664
0.0647883 0.391007 0.0771613 -0.263421 0.948563 -0.175607
0.266687 0.246067 -0.335888 0.0178337 -0.177216 -0.98401
0.537049 -0.158042 -0.0885435 0.964516 0.26234 -0.0297661
-0.0147036 0.355128 0.18756 -0.198877 0.796046 0.571628
0.449882 0.0118147 0.242696 0.192245 -0.775097 -0.601885
0.168391 0.0871929 -0.309057 0.0178337 -0.177216 -0.98401
0.386386 0.41206 0.229198 -0.0178336 0.177216 0.98401
0.240698 0.183212 0.267773 -0.0178336 0.177216 0.98401
0.438675 -0.250417 -0.124174 -0.964516 -0.262341 0.0297664
0.539335 -0.0712034 0.0509962 0.964516 0.26234 -0.0297661
-0.0185563 0.0162546 0.293142 -0.0178337 0.177216 0.98401
-0.139375 -0.101936 0.18461 -0.964516 -0.262341 0.0297661
0.392308 0.395152 0.166088 -0.226273 0.763244 -0.605193
0.242229 -0.00341085 -0.291402 0.0178337 -0.177216 -0.98401
0.540044 -0.0576721 0.193211 0.964516 0.26234 -0.0297661
0.2607 0.042238 -0.299288 0.0178337 -0.177216 -0.98401
0.500138 0.0686384 0.0133499 0.964516 0.262341 -0.0297662
0.548844 -0.135305 -0.205841 0.964516 0.26234 -0.0297615
0.117828 0.160366 -0.323152 0.0178337 -0.177216 -0.98401
0.143165 -0.156842 -0.265565 0.0178337 -0.177216 -0.98401
-0.204579 0.14028 0.206554 -0.964516 -0.262341 0.0297662
0.404028 0.402237 -0.16076 0.964516 0.26234 -0.029766
0.410908 0.369584 -0.225629 0.964516 0.26234 -0.029766
0.431985 -0.0848831 0.26224 0.249122 -0.866936 0.431695
-0.295442 -0.0419722 0.0332724 0.11032 -0.298019 0.948164
0.267209 -0.0813904 0.284516 0.173656 -0.545424 0.819973
-0.192057 0.269348 0.244417 -0.0178336 0.177216 0.98401
0.403593 -0.151222 -0.0381693 0.263421 -0.948563 0.175607
0.534455 -0.044395 0.129151 0.964516 0.26234 -0.0297661
0.369363 0.449394 0.217148 -0.111443 0.506726 0.854874
0.122105 0.241691 0.255091 -0.0178337 0.177216 0.98401
-0.0985475 -0.281829 -0.0779125 -0.964516 -0.262341 0.0297661
0.247922 0.448996 0.115685 -0.263421 0.948563 -0.175607
0.462514 0.012269 -0.290233 0.0178337 -0.177216 -0.98401
0.250941 0.390259 -0.206115 -0.263421 0.948563 -0.175607
0.0866575 0.365291 -0.094551 -0.263421 0.948563 -0.175607
-0.107892 -0.179209 -0.266087 0.0178337 -0.177216 -0.98401
0.128011 0.371193 0.214841 -0.198877 0.796046 0.571628
-0.0151339 0.110956 -0.316663 0.0178337 -0.177216 -0.98401
-0.00244654 0.157014 0.268084 -0.0178337 0.177216 0.98401
0.0294703 0.0498275 -0.304846 0.0178337 -0.177216 -0.98401
0.52416 -0.00741765 0.121453 0.964516 0.262341 -0.0297662
0.204494 0.0573239 -0.303024 0.0178337 -0.177216 -0.98401
-0.44252 -0.104147 -0.00797166 0.230956 -0.892966 -0.386356
0.0032304 0.213218 -0.334747 0.0178337 -0.177216 -0.98401
0.438068 0.297383 0.0181103 0.964516 0.262341 -0.0297662
0.225538 -0.0979288 -0.274682 0.0178337 -0.177216 -0.98401
-0.245919 0.257125 -0.103212 -0.964516 -0.262341 0.0297662
0.114131 0.395677 0.175915 -0.198877 0.796046 0.571628
-0.214711 0.261985 -0.200502 -0.263421 0.948563 -0.175607
0.120009 0.326522 0.239776 -0.0178337 0.177216 0.98401
-0.148709 -0.0625904 0.228938 -0.964516 -0.262341 0.0297662
0.189432 -0.181699 0.118458 0.263421 -0.948563 0.175607
0.505942 0.0646479 0.166248 0.964516 0.262341 -0.0297662
-0.326839 -0.0127807 0.0244078 -0.173271 0.714013 0.678353
-0.240441 0.266657 0.1583 -0.964516 -0.262341 0.0297656
0.482715 -0.236118 -0.139274 0.0178337 -0.177216 -0.98401
-0.0559479 0.351825 0.0466284 -0.263421 0.948563 -0.175607
-0.0433827 -0.279081 -0.0583286 0.263421 -0.948563 0.175607
0.117638 -0.230204 -0.0358516 0.263421 -0.948563 0.175607
0.232812 0.423332 0.178694 -0.198877 0.796046 0.571628
0.146334 -0.166284 -0.209754 0.0606018 -0.110245 0.992055
-0.1844 -0.0233327 0.118317 -0.964516 -0.262341 0.0297661
0.374537 -0.0058962 0.240343 0.230956 -0.892966 -0.386356
0.205504 0.410499 -0.028629 -0.263421 0.948563 -0.175607
-0.0367819 0.192735 0.261029 -0.0178337 0.177216 0.98401
0.0195872 -0.25921 -0.0454483 0.263421 -0.948563 0.175607
-0.114838 0.304008 -0.12332 -0.263421 0.948563 -0.175607
-0.085967 -0.115415 -0.277178 0.0178337 -0.177216 -0.98401
0.468145 0.163142 -0.190425 0.964516 0.262341 -0.0297662
0.0525482 -0.234656 0.0377403 0.263421 -0.948563 0.175607
-0.221351 0.203812 0.223015 -0.964516 -0.262341 0.0297662
-0.0269872 0.313453 -0.204087 -0.263421 0.948563 -0.175607
0.452055 0.228177 -0.138614 0.964516 0.262341 -0.0297662
0.278777 -0.147986 -0.169765 -0.176121 0.555303 -0.812785
-0.0458519 -0.294462 -0.137706 0.263421 -0.948563 0.175607
0.117784 -0.0393624 0.30563 -0.0178336 0.177216 0.98401
-0.031694 0.108183 0.276348 -0.0178337 0.177216 0.98401
0.398428 0.313916 -0.278004 -0.247444 0.937507 0.244646
-0.00670715 -0.280786 -0.216475 0.218639 -0.856826 -0.466955
0.527129 -0.109895 0.0143922 0.964516 0.26234 -0.0297661
0.0250566 0.283987 0.245715 -0.0178337 0.177216 0.98401
0.540526 -0.077407 0.155143 0.263421 -0.948563 0.175607
0.490122 0.0750161 -0.254968 0.964516 0.262341 -0.0297661
0.296682 -0.143105 0.166051 0.263421 -0.948563 0.175607
0.0426849 0.265865 -0.268361 0.259159 -0.919164 0.296606
0.479601 -0.0600392 -0.179805 0.17327 -0.714009 -0.678357
0.246648 0.139914 0.275678 -0.0178336 0.177216 0.98401
-0.0472105 -0.0139331 0.29806 -0.0178338 0.177216 0.98401
-0.0476397 -0.0814963 -0.282592 0.0178336 -0.177216 -0.98401
-0.0793689 0.297831 0.187468 0.0946856 -0.448935 -0.888533
0.445556 -0.144575 0.0984142 -0.964516 -0.262341 0.0297662
-0.402537 -0.025335 0.0128778 -0.242546 0.924946 0.292653
-0.0656163 0.365323 0.134043 -0.263421 0.948563 -0.175607
0.110992 -0.188397 0.199942 0.263421 -0.948563 0.175607
-0.0743592 0.277903 0.245009 -0.0178337 0.177216 0.98401
0.215397 -0.158136 0.20679 0.263421 -0.948563 0.175607
0.108134 0.24972 -0.285894 -0.0696805 0.361673 0.929697
-0.156745 0.22895 -0.320724 -0.158556 0.485388 -0.859801
-0.0643244 0.296825 -0.237896 -0.263421 0.948563 -0.175607
0.0917828 -0.223425 -0.223888 0.198877 -0.796046 -0.571628
0.551268 -0.219564 -0.118097 0.979961 -0.192184 0.0523718
-0.139845 -0.143647 -0.198225 -0.964516 -0.262341 0.0297661
-0.184066 -0.0535062 -0.13677 -0.964516 -0.26234 0.0297659
0.428311 0.343423 0.107724 0.964516 0.26234 -0.0297654
0.156928 -0.0110809 0.301246 -0.0178336 0.177216 0.98401
0.391447 0.43382 -0.181584 -0.263421 0.948563 -0.175607
0.263745 -0.157423 0.138116 0.263421 -0.948563 0.175607
-0.0577732 -0.0431194 -0.289688 0.0178336 -0.177216 -0.98401
0.308343 0.355275 0.238011 -0.0178336 0.177216 0.98401
0.20685 0.342446 0.145608 -0.217069 0.852106 0.476232
0.153443 -0.0756216 0.258031 0.118754 -0.531751 -0.838534
-0.367151 -0.0380996 0.03499 -0.0568951 0.316612 0.946847
0.363186 0.373027 0.235808 -0.0178336 0.177216 0.98401
0.0741621 0.352629 0.153522 0.259159 -0.919164 0.296606
0.13086 -0.204322 0.0841192 0.263421 -0.948563 0.175607
0.524802 0.00516588 0.253148 0.964519 0.262331 -0.0297684
-0.12921 0.158407 0.265536 -0.0178338 0.177216 0.98401
0.173285 0.256229 -0.278903 -0.201025 0.80278 0.561368
-0.137221 -0.121148 0.0851023 -0.964516 -0.262341 0.0297661
0.286337 -0.191657 -0.0806954 0.263421 -0.948563 0.175607
-0.31348 -0.05444 -0.0287463 0.106853 -0.490956 -0.864607
0.403405 0.391166 -0.278514 0.964516 0.262341 -0.0297632
0.252533 -0.0516586 0.212367 0.133655 -0.387921 0.91195
0.158594 -0.072829 0.217713 0.176121 -0.555303 0.812785
0.425622 -0.107264 -0.269375 0.0178337 -0.177216 -0.98401
-0.468425 -0.0537412 0.0311427 -0.152574 0.64583 0.748081
-0.18334 -0.0380758 0.0227382 -0.964516 -0.26234 0.0297676
-0.0639277 -0.208461 0.294351 0.22041 -0.737987 0.637805
-0.125678 0.340496 0.0900351 -0.263421 0.948563 -0.175607
0.381414 -0.165849 -0.0839099 0.263421 -0.948563 0.175607
-0.215822 0.0860318 0.0640354 -0.964516 -0.26234 0.0297656
0.0325707 0.185457 0.263596 -0.0178337 0.177216 0.98401
-0.0263042 -0.123493 -0.274642 0.0178336 -0.177216 -0.98401
0.0900419 0.374539 -0.0496724 -0.263421 0.948563 -0.175607
-0.0631025 -0.267102 0.0359632 0.263421 -0.948563 0.175607
0.146486 0.263278 -0.334983 -0.173656 0.545424 -0.819973
0.0151363 -0.210629 -0.1578 -0.0858904 0.205161 -0.974952
0.0711901 0.260383 -0.240608 0.0946856 -0.448936 -0.888533
-0.243951 0.262248 0.00573447 -0.964516 -0.26234 0.0297661
0.0937962 0.198248 -0.33041 0.0178337 -0.177216 -0.98401
-0.0206833 -0.257304 0.0252551 0.263421 -0.948563 0.175607
0.515614 -0.0238917 -0.282759 0.0178337 -0.177216 -0.98401
0.389365 0.217726 -0.328561 0.0178337 -0.177216 -0.98401
-0.228804 0.283046 -0.0655961 -0.263421 0.948563 -0.175607
0.0669984 0.367803 0.198334 -0.198877 0.796046 0.571628
0.094325 -0.208637 0.115617 0.263421 -0.948563 0.175607
0.48105 0.140674 0.0297339 0.964516 0.262341 -0.0297662
0.444888 -0.0703275 -0.212071 0.203471 -0.666726 0.716991
0.536056 -0.138351 0.0528327 0.964516 0.26234 -0.0297661
0.254044 0.35766 0.1705 -0.226273 0.763244 -0.605193
0.478573 0.11268 -0.297241 0.964516 0.262341 -0.0297663
0.192697 -0.214029 -0.201863 0.198877 -0.796046 -0.571628
0.358082 -0.0927083 -0.176481 0.182986 -0.745482 -0.640915
0.244505 -0.169827 0.0999765 0.263421 -0.948563 0.175607
0.338714 -0.0190289 0.216562 0.226273 -0.763243 0.605195
-0.137121 0.215345 0.255138 -0.0178338 0.177216 0.98401
-0.020752 -0.118365 0.225953 0.211603 -0.700662 0.681393
0.213018 0.328293 0.241142 -0.0178337 0.177216 0.98401
0.483695 0.158584 0.273278 0.964516 0.262341 -0.0297662
0.255704 0.141096 -0.317183 0.0178337 -0.177216 -0.98401
0.388235 0.397509 -0.320312 -0.220409 0.737982 -0.637811
-0.206657 0.130214 0.0732402 -0.209308 0.828476 0.51944
0.248998 0.321194 -0.259175 0.230956 -0.892966 -0.386356
0.431469 -0.188921 0.184305 -0.964516 -0.262341 0.0297659
0.201831 0.439089 0.13131 -0.263421 0.948563 -0.175607
0.0850612 0.388349 0.0323934 -0.263421 0.948563 -0.175607
0.400751 0.0302683 0.298218 -0.0178337 0.177216 0.98401
-0.128971 -0.144363 0.147799 -0.964516 -0.26234 0.0297664
0.444939 0.258639 -0.10072 0.964516 0.262341 -0.0297662
0.449498 -0.144434 0.224705 -0.0178337 0.177216 0.98401
-0.0169961 -0.223038 0.204817 0.263421 -0.948563 0.175607
0.0907183 -0.0749158 0.311542 -0.0178336 0.177216 0.98401
0.041877 0.376396 0.0326102 -0.263421 0.948563 -0.175607
-0.0996528 -0.266818 0.0185671 -0.964516 -0.262341 0.0297661
0.187691 -0.160032 -0.264183 0.0178337 -0.177216 -0.98401
0.544647 -0.213869 -0.0401398 0.592826 -0.790637 0.153135
0.0843675 -0.0831181 0.243909 0.251728 -0.947739 -0.196022
0.394271 0.121947 0.28159 -0.0178337 0.177216 0.98401
0.0504794 -0.262963 -0.112064 0.263421 -0.948563 0.175607
0.462384 0.217825 0.104851 0.964516 0.262341 -0.0297662
-0.0930684 0.0260704 -0.302788 0.0178336 -0.177216 -0.98401
-0.234686 0.197403 -0.265583 -0.964516 -0.26234 0.0297684
-0.156544 -0.0958547 -0.119454 0.152574 -0.645831 -0.74808
0.140545 -0.217403 -0.215309 0.198877 -0.796046 -0.571628
0.42667 0.298382 0.250401 -0.0178337 0.177216 0.98401
0.180532 0.382422 -0.142833 -0.263421 0.948563 -0.175607
0.312618 0.05938 -0.301434 0.0178337 -0.177216 -0.98401
0.355839 0.341965 -0.290727 0.176115 -0.555279 0.812803
0.294644 0.117252 -0.312183 0.0178337 -0.177216 -0.98401
0.287413 0.393973 -0.240767 -0.263421 0.948563 -0.175607
0.139273 -0.218134 -0.00310894 0.263421 -0.948563 0.175607
-0.189447 -0.0279425 -0.0858248 -0.964516 -0.26234 0.0297661
-0.176602 0.222308 0.253169 -0.0178338 0.177216 0.98401
-0.0660718 -0.240259 -0.15816 -0.155662 0.473968 -0.866674
0.42265 0.326929 -0.221067 0.964516 0.262341 -0.0297662
0.401858 0.449538 0.185782 0.964516 0.26234 -0.0297651
-0.236349 0.225882 -0.0684646 -0.964516 -0.26234 0.0297661
-0.24743 0.257538 -0.148533 -0.964516 -0.262341 0.0297662
-0.22362 0.191592 0.0417958 -0.964516 -0.26234 0.0297661
-0.109791 -0.232744 -0.00963982 -0.964516 -0.262341 0.0297661
-0.176375 0.271714 -0.205453 -0.263421 0.948563 -0.175607
0.316583 0.384024 0.175638 -0.133656 0.387925 -0.911949
0.00786246 -0.0309987 0.302131 -0.0178337 0.177216 0.98401
-0.100721 0.325189 -0.0300872 -0.263421 0.948563 -0.175607
0.449632 0.267256 0.127298 0.964516 0.262341 -0.0297662
-0.0161862 -0.20259 -0.260214 0.0178337 -0.177216 -0.98401
-0.0225863 -0.26652 -0.0216745 0.263421 -0.948563 0.175607
0.458335 0.219836 -0.00860584 0.964516 0.262341 -0.0297662
-0.113894 0.316173 0.233078 -0.0995644 0.46582 0.87926
0.331112 -0.193608 -0.158397 0.263421 -0.948563 0.175606
-0.0697321 0.305936 -0.180573 -0.263421 0.948563 -0.175607
0.286619 0.429648 -0.0468689 -0.263421 0.948563 -0.175607
0.49661 -0.237914 -0.0923442 0.263421 -0.948563 0.175607
0.395911 0.258671 -0.335817 0.0178337 -0.177216 -0.98401
-0.282502 0.00320845 0.0180407 -0.209308 0.828476 0.51944
-0.441994 -0.0901449 0.0340312 0.166099 -0.515278 0.840773
-0.0652271 -0.19135 -0.263127 0.0178337 -0.177216 -0.98401
0.455795 0.200155 -0.264382 0.964516 0.262341 -0.0297661
-0.105244 0.353044 0.127159 -0.263421 0.948563 -0.175607
0.0446497 -0.220563 -0.191097 -0.237047 0.910089 0.339921
-0.0812655 -0.122011 0.316907 -0.0178337 0.177216 0.98401
0.454429 -0.181621 0.0594098 -0.964516 -0.26234 0.029766
0.0754745 -0.197877 -0.259401 0.0178337 -0.177216 -0.98401
0.0168705 -0.14104 0.222259 -0.130361 0.571232 0.810371
-0.24686 0.295956 0.208539 -0.964516 -0.26234 0.0297658
0.23079 0.436598 0.0744176 -0.263421 0.948563 -0.175607
-0.160261 0.182284 0.260673 -0.0178338 0.177216 0.98401
0.332676 0.133181 -0.314362 0.0178337 -0.177216 -0.98401
0.350895 0.448475 -0.0415914 -0.263421 0.948563 -0.175607
-0.126534 -0.178864 -0.0772916 -0.964516 -0.262341 0.0297662
0.161386 0.32885 0.14959 -0.230955 0.892962 0.386366
-0.166225 -0.103617 -0.00031208 -0.964516 -0.262341 0.0297662
-0.148484 0.202028 -0.234551 0.106856 -0.490964 -0.864602
-0.20588 0.0861569 -0.312606 -0.964516 -0.262341 0.0297662
-0.19474 0.0461188 -0.304505 -0.964516 -0.262341 0.0297662
0.3508 0.440532 -0.0843576 -0.263421 0.948563 -0.175607
0.511474 0.0500821 0.217151 0.964516 0.262342 -0.029757
0.540999 -0.0547992 0.249496 0.964516 0.26234 -0.0297693
0.249099 0.300411 0.246818 -0.0178336 0.177216 0.98401
0.430916 0.340922 0.170107 0.964516 0.262341 -0.0297654
0.209703 0.390408 0.153281 0.263784 -0.952685 0.151029
0.479768 0.00102834 0.303917 0.0274637 0.0124392 0.999545
0.184241 -0.0434649 0.307573 -0.0178336 0.177216 0.98401
0.363548 0.174542 -0.321252 0.0178337 -0.177216 -0.98401
0.0944919 0.311633 0.149538 -0.224291 0.873621 0.431833
-0.0627934 0.0882789 -0.313443 0.0178336 -0.177216 -0.98401
-0.228426 0.116318 -0.0774697 -0.964516 -0.26234 0.0297665
0.390506 0.457832 -0.0504681 -0.263421 0.948563 -0.175607
0.227952 -0.192156 0.00418977 0.263421 -0.948563 0.175607
0.473408 0.192655 0.240229 0.964516 0.262344 -0.0297572
0.0384609 0.232262 -0.332737 -0.173656 0.545424 -0.819973
0.504815 -0.218173 0.0019807 0.263421 -0.948563 0.175607
-0.205597 0.236632 -0.3012 -0.227275 0.767596 -0.599285
0.0301875 0.335609 0.146173 0.219215 -0.732881 0.644073
0.545264 -0.153386 0.225001 0.995347 0.0963562 0.000685801
0.075563 0.353372 -0.142289 -0.263421 0.948563 -0.175607
0.0106775 0.0947572 0.279534 -0.0178337 0.177216 0.98401
-0.182813 0.00365418 -0.292316 -0.964516 -0.262341 0.0297662
0.0125374 0.251795 -0.244093 0.173271 -0.714014 -0.678351
0.109233 -0.218714 0.0388203 0.263421 -0.948563 0.175607
0.52537 -0.017489 0.0718984 0.964516 0.262341 -0.0297662
0.186225 0.235927 -0.335521 0.0178337 -0.177216 -0.98401
0.467027 -0.183899 0.23213 -0.0178337 0.177216 0.98401
-0.23242 0.206589 -0.11118 -0.964516 -0.26234 0.0297661
-0.004963 0.249935 -0.311784 -0.173656 0.545424 -0.819973
-0.0223514 -0.228182 -0.159408 -0.155662 0.473968 -0.866674
-0.235793 0.213342 -0.160977 -0.964517 -0.262336 0.0297645
0.476716 -0.0127299 0.206118 -0.0946828 0.448926 0.888539
-0.212 0.158753 0.12888 -0.964516 -0.262341 0.0297672
0.503832 -0.227089 -0.0447059 0.263421 -0.948563 0.175607
0.0904384 -0.159454 -0.184764 0.263594 -0.963237 0.0518915
0.261335 -0.148843 0.188078 0.263421 -0.948563 0.175607
-0.0607 0.154243 0.267527 -0.0178337 0.177216 0.98401
0.164678 0.307538 0.244004 -0.0178337 0.177216 0.98401
0.28623 0.452039 0.196379 -0.203079 0.809192 0.551333
0.108588 0.345366 -0.235075 -0.263421 0.948563 -0.175607
0.209074 0.215728 0.261343 -0.0178336 0.177216 0.98401
0.129861 0.139035 0.27372 -0.0178337 0.177216 0.98401
-0.00445915 -0.0821162 -0.281698 0.0178337 -0.177216 -0.98401
0.0390331 0.324676 -0.242499 -0.263421 0.948563 -0.175607
0.319936 -0.144556 -0.179575 -0.244023 0.842722 -0.479867
-0.177042 0.0117097 0.148939 0.00848434 0.0818877 0.996605
-0.154493 -0.0515637 0.13871 -0.964516 -0.26234 0.029767
0.0664301 -0.200509 0.201364 0.263421 -0.948563 0.175607
0.00922391 -0.231326 0.120715 0.263421 -0.948563 0.175607
0.138173 0.124142 -0.316259 0.0178337 -0.177216 -0.98401
0.0497416 0.366667 -0.0317436 -0.263421 0.948563 -0.175607
0.0462288 0.393977 0.154658 -0.198877 0.796046 0.571628
0.290634 -0.108629 -0.202806 0.238697 -0.818254 0.522957
0.536943 -0.204224 0.0291378 0.263421 -0.948563 0.175607
-0.202566 0.127359 0.157895 -0.964516 -0.262341 0.0297662
0.543128 -0.117451 -0.0650621 0.263421 -0.948563 0.175607
-0.398964 -0.0757695 -0.0271725 0.0946864 -0.448938 -0.888532
-0.239035 0.2205 -0.202915 -0.964516 -0.262341 0.0297662
0.512632 -0.141983 -0.22769 0.225638 -0.877574 -0.423026
0.456713 0.219227 -0.0665375 0.964516 0.262341 -0.0297662
0.182219 -0.192234 -0.23586 0.198877 -0.796046 -0.571628
0.0394107 0.333916 0.235927 -0.198877 0.796046 0.571628
0.355118 0.10195 0.284481 -0.0178336 0.177216 0.98401
-0.0584101 0.316107 -0.142616 -0.263421 0.948563 -0.175607
0.0294582 0.0128134 0.294632 -0.0178337 0.177216 0.98401
0.038749 0.110538 -0.315611 0.0178337 -0.177216 -0.98401
-0.112447 0.0336022 0.288317 -0.0178337 0.177216 0.98401
-0.0961889 0.277439 -0.274169 -0.173656 0.545424 -0.819973
-0.110491 -0.19656 0.286582 -0.964516 -0.26234 0.0297667
0.299874 0.29234 -0.343621 0.0178337 -0.177216 -0.98401
-0.164229 0.265574 -0.256838 -0.263421 0.948563 -0.175607
-0.0485377 0.327999 -0.0931871 -0.263421 0.948563 -0.175607
