ply
format ascii 1.0
comment Created by Open3D
element vertex 829
property double x
property double y
property double z
property double nx
property double ny
property double nz
end_header
0.141344 0.250557 -0.280955 -0.14374 0.703977 0.695525
0.180501 0.391282 -0.0961891 -0.213862 0.946781 -0.240558
0.0427114 0.324341 -0.251896 -0.300778 0.941222 -0.153731
0.354727 -0.152887 0.0273575 0.261138 -0.948225 0.180764
0.396936 0.0702355 0.29166 -0.0174406 0.187221 0.982163
0.0454002 -0.211622 0.162907 0.298292 -0.942682 0.149574
-0.237566 0.273974 -0.106164 -0.236739 0.950377 -0.201836
-0.015114 -0.219671 0.228007 0.261171 -0.937229 0.231065
0.43574 -0.171307 0.158459 0.0356601 -0.241668 -0.969703
-0.0449779 0.347504 0.00179516 -0.260797 0.948511 -0.179755
0.291046 0.184798 -0.323147 0.0364955 -0.227057 -0.973197
0.423701 0.102022 0.286762 -0.0132589 0.142509 0.989705
0.44486 0.27984 0.0929201 0.961793 0.272274 -0.0286625
0.109228 0.147993 -0.318899 0.0782215 -0.214504 -0.973586
0.483711 0.0874942 -0.302855 0.0700833 -0.249934 -0.965723
0.447549 0.239879 -0.184148 0.94744 0.308787 -0.083713
0.163585 0.255147 -0.337353 0.00330002 -0.15031 -0.988633
0.110495 -0.230547 -0.0203245 0.156159 -0.960866 0.228804
0.0596857 -0.0882517 -0.279643 0.000309119 -0.172411 -0.985025
-0.253496 0.298533 0.0458885 -0.302793 0.941039 -0.150874
0.367777 -0.0049448 0.229913 0.259633 -0.961316 0.0919872
0.447954 -0.0243958 0.210643 -0.148454 0.626888 0.764835
0.3571 0.0999266 0.284666 -0.0452137 0.179686 0.982684
0.407779 -0.0836225 0.265856 -0.960243 -0.276348 0.0395676
0.0126758 -0.125592 0.2654 0.0518551 -0.110673 -0.992503
0.53599 -0.0518376 0.0541486 0.96461 0.261985 -0.0298587
0.399359 0.28555 0.251624 -0.0434164 0.218331 0.974909
0.0361634 -0.164189 -0.26565 0.0239521 -0.199424 -0.979621
0.0177468 0.318575 0.240508 -0.0166064 0.127709 0.991673
-0.157461 0.318294 0.019323 -0.274504 0.946283 -0.170867
-0.0335425 0.348851 0.190707 -0.198705 0.811532 0.549483
-0.171739 -0.0737629 0.0333304 -0.969686 -0.242022 -0.0336758
-0.168394 -0.049001 -0.288862 -0.96672 -0.25524 0.0174626
0.520857 0.0123578 0.150984 0.948705 0.310689 -0.0585756
-0.152884 0.291989 -0.129228 -0.279185 0.946111 -0.164101
-0.269198 -0.000410474 -0.0257123 -0.184357 0.629964 -0.754425
0.4697 0.186731 0.0934502 0.966806 0.25412 -0.0266266
0.134095 -0.189654 0.149015 0.255072 -0.950109 0.179529
0.319541 0.458625 0.200346 -0.191219 0.737054 0.648218
-0.212436 0.0720943 0.0284937 -0.944732 -0.312542 0.0989906
-0.0863364 0.341555 0.0400498 -0.249079 0.931418 -0.265368
0.22509 0.44644 0.140627 -0.27538 0.946443 -0.168559
0.0136191 0.321793 -0.222337 -0.213355 0.952453 -0.217517
0.172673 -0.219234 -0.0706805 0.209193 -0.959502 0.188665
-0.0104366 0.294628 0.186054 -0.132656 0.386806 -0.91257
0.431678 0.298273 -0.141495 0.974559 0.221589 -0.033646
0.00358108 0.205545 -0.33291 0.0317683 -0.136226 -0.990168
0.505228 -0.0785208 -0.21969 -0.0617644 0.403699 0.912804
0.408347 0.316122 -0.344703 0.0520692 -0.216969 -0.974789
-0.0848474 -0.204099 -0.259904 0.0258016 -0.210026 -0.977355
0.33473 -0.063844 0.234284 -0.263611 0.952559 -0.152124
0.277506 -0.174849 0.0197435 0.286231 -0.94333 0.167931
-0.151547 -0.052132 0.253513 -0.962406 -0.268682 0.039806
-0.220316 0.300445 0.018684 -0.244888 0.940041 -0.237386
0.238693 0.0587519 -0.302813 0.00928793 -0.146179 -0.989215
0.439526 0.277173 -0.0905241 0.959705 0.278327 -0.0387305
0.00581587 0.364507 0.181286 -0.200084 0.812139 0.548085
-0.0502311 -0.145259 0.219568 0.0575911 0.00832782 0.998306
0.179015 -0.21241 -0.207156 0.173525 -0.826508 -0.535512
0.207747 -0.162497 -0.16343 -0.158699 0.322798 -0.933068
0.0183548 -0.26225 -0.0560784 0.238643 -0.952804 0.187653
-0.0859436 0.0419053 0.287961 -0.0137876 0.177001 0.984114
0.274367 -0.194678 -0.0728362 0.259568 -0.946917 0.189663
-0.238413 0.228026 -0.10983 -0.949331 -0.308822 0.0583063
0.452312 0.21571 -0.253781 0.956658 0.287485 -0.0464401
0.276064 -0.110992 -0.271188 0.000737837 -0.153947 -0.988079
0.455125 0.219236 -0.142455 0.983912 0.173955 -0.0407122
0.223948 0.245196 -0.336252 0.00816498 -0.166901 -0.98594
0.0803639 -0.112333 0.263885 0.0158637 0.0452864 -0.998848
0.465954 -0.231917 -0.0104513 0.276316 -0.950023 0.145276
0.199372 0.279527 -0.336243 -0.127992 0.466458 -0.875234
0.401878 0.449074 0.188486 0.963345 0.2663 -0.032399
-0.0596484 0.0738002 0.283127 -0.0745923 0.219294 0.972803
0.124767 0.328389 0.139098 -0.111116 0.517614 0.848368
0.164642 -0.103921 0.292396 0.191512 -0.556961 0.808157
0.507334 -0.19163 0.142819 0.265852 -0.948272 0.173499
0.365838 0.0433515 -0.297895 -0.0539218 -0.1242 -0.990791
-0.229821 0.205118 0.00555899 -0.953961 -0.292745 0.0652555
0.106813 -0.125212 0.233023 -0.301376 0.908665 0.288965
-0.111287 -0.253099 -0.251735 -0.93922 -0.334772 0.0761119
-0.15395 -0.149809 -0.00328987 -0.970211 -0.241183 0.0228145
-0.153234 -0.0476707 0.202935 -0.975225 -0.22092 0.011443
-0.00567449 -0.188888 0.295105 0.241434 -0.71862 0.652147
-0.041272 0.058684 -0.307501 -0.00851086 -0.130698 -0.991386
0.00851722 0.209658 -0.248944 -0.26185 0.863976 -0.430094
-0.363719 -0.0246193 -0.0222045 -0.244435 0.674085 -0.697037
0.479278 -0.0223601 0.301538 0.118796 -0.290201 0.949563
-0.209293 0.0507617 -0.0105446 -0.968557 -0.248109 0.0184296
-0.0315442 0.201727 0.259491 0.0510305 0.136767 0.989288
-0.194446 0.100489 0.195468 -0.940904 -0.32584 0.092342
0.0155229 -0.204653 0.259351 0.27616 -0.952565 0.127892
0.511092 -0.224268 -0.0341961 0.250366 -0.950758 0.182693
-0.146861 -0.0753596 0.15307 -0.970053 -0.236581 -0.0550196
-0.171432 0.27776 -0.186356 -0.242406 0.951114 -0.191368
0.0333075 0.13732 -0.322117 0.00880623 -0.118198 -0.992951
-0.213144 0.150611 -0.00673598 -0.962618 -0.267769 0.0408212
-0.164735 -0.11059 -0.0179792 -0.962484 -0.270639 0.0194984
0.309586 0.412207 0.228984 -0.0411387 0.248834 0.967672
0.121032 -0.243225 -0.105144 0.244675 -0.942809 0.226376
0.48085 -0.0569574 -0.186724 0.223701 -0.918236 -0.326803
0.314182 0.326804 0.242439 0.0115865 0.169179 0.985517
0.252583 -0.17614 -0.230151 0.190508 -0.778351 -0.598227
-0.201525 0.255836 -0.255348 -0.23685 0.95152 -0.196243
0.298559 -0.194366 -0.195284 0.199002 -0.782087 -0.590541
0.00437115 -0.230981 0.134065 0.243102 -0.949554 0.198113
0.44083 0.0948365 -0.305728 -0.0426442 -0.164184 -0.985508
0.472522 -0.0590489 0.282331 0.148124 -0.647576 0.747465
0.0234121 0.340927 -0.134494 -0.274508 0.947619 -0.163289
0.320625 0.129414 -0.314959 0.0220573 -0.186211 -0.982262
0.499802 -0.151767 -0.214133 0.25824 -0.930896 -0.25835
0.0420885 0.392675 0.156413 -0.200286 0.805195 0.558163
0.34372 -0.187397 -0.153625 0.268592 -0.947554 0.173202
0.229387 0.102669 -0.309973 0.0446322 -0.180673 -0.98253
-0.141501 -0.0786063 0.295344 -0.975898 -0.214529 -0.0399909
0.197502 0.203922 -0.32926 0.0250552 -0.199105 -0.979658
0.115521 0.323117 -0.289947 -0.20908 0.563655 -0.799111
0.175844 0.346195 0.237055 -0.0312233 0.194065 0.980492
-0.106936 -0.255793 -0.143371 -0.967437 -0.251284 0.0303802
0.299865 -0.043971 0.302905 0.198386 -0.550286 0.811066
0.531067 -0.0612539 0.250724 0.242694 -0.887392 0.391963
-0.122494 0.296041 0.154418 0.298097 -0.835796 0.461067
-0.1661 0.0598284 0.281771 -0.019656 0.177304 0.98396
0.153743 -0.16895 -0.209273 -0.00411733 0.10145 0.994832
0.543429 -0.158365 0.158047 0.959928 0.277465 -0.0393851
0.0380638 -0.276634 -0.196272 0.248492 -0.951266 -0.182607
0.202673 -0.20158 -0.00742385 0.277908 -0.951981 0.12845
-0.0123649 0.370222 0.0781144 -0.188848 0.961614 -0.199084
0.276615 0.305571 0.245817 -0.0793353 0.194869 0.977615
0.465362 0.216732 0.145896 0.959494 0.278938 -0.0395595
0.226657 -0.206247 -0.0704341 0.274161 -0.948457 0.158946
0.429444 -0.111251 0.217235 -0.0155147 0.161721 0.986715
0.101873 -0.195437 0.185007 0.249678 -0.94487 0.211852
-0.434532 -0.0439566 -0.0193086 -0.149852 0.682255 -0.715593
0.528047 -0.127555 -0.0966827 0.972044 0.23445 -0.0128158
0.545791 -0.175123 0.112454 0.982874 -0.181318 0.0329156
0.0650784 0.106508 0.277579 -0.0146428 0.175819 0.984314
0.232237 0.353159 0.140172 -0.192979 0.774333 0.602633
0.541544 -0.0926786 -0.107454 0.947803 0.318116 -0.0217008
0.46668 0.187464 0.272267 -0.0448841 0.223395 0.973694
-0.0483647 0.0146806 -0.302295 0.0179009 -0.174706 -0.984458
0.0659361 0.0552464 0.284792 0.0699832 0.158075 0.984944
0.25479 0.384692 -0.254918 -0.243069 0.948797 -0.201747
0.141185 -0.0463043 -0.286708 0.0157398 -0.175331 -0.984384
-0.0498492 -0.289969 -0.218548 0.197718 -0.796521 -0.571368
0.184571 0.383238 -0.142497 -0.243905 0.947959 -0.204654
0.252511 0.304976 -0.292818 0.0732124 -0.197292 0.977607
0.311438 0.0516462 -0.300437 0.0699316 -0.228954 -0.970922
0.544473 -0.106825 -0.0136663 0.970676 0.239079 -0.0250944
0.428498 0.300281 -0.278926 0.976463 0.210435 -0.0472966
-0.0545563 -0.159219 0.320024 0.0666776 -0.131419 0.989082
0.268315 0.020087 -0.295335 -0.0522212 -0.142433 -0.988426
0.140807 0.417473 0.110956 -0.185894 0.95343 -0.237519
-0.00349218 0.159585 0.2696 -0.00383144 0.149603 0.988739
0.403602 0.387968 -0.264157 0.956013 0.28919 -0.0490632
0.431867 0.0535589 -0.299703 0.00833727 -0.285827 -0.958245
0.317317 0.218018 -0.330205 0.0282871 -0.182871 -0.98273
0.527348 -0.175997 0.184434 0.250944 -0.947739 0.197022
0.175931 -0.177863 0.150865 0.260261 -0.948484 0.180674
-0.0171919 -0.111093 0.241127 0.230527 -0.969765 0.08008
0.326564 -0.173566 -0.0527264 0.343279 -0.936282 0.0743993
0.167706 0.249564 0.254048 -0.0318744 0.185836 0.982064
-0.124717 0.336824 0.0626455 -0.346769 0.934409 -0.0814315
0.180893 0.396368 0.200155 -0.259962 0.746518 0.612479
0.489612 0.0506736 0.297525 -0.0195572 0.166837 0.98579
-0.226213 0.10297 -0.0619947 -0.951217 -0.300254 0.070947
-0.224607 0.165316 -0.20353 -0.958077 -0.281119 0.0553136
-0.240077 0.249035 -0.230521 -0.262 0.948197 -0.17966
0.278082 0.00193339 0.300261 -0.0095225 0.17651 0.984253
-0.0802612 0.177993 0.263287 -0.0120011 0.081182 0.996627
-0.159606 0.269074 0.143211 0.137562 -0.210071 0.96796
-0.166463 0.307872 -0.0282265 -0.23723 0.947945 -0.21242
0.303872 -0.174008 -0.0096583 0.255014 -0.941954 0.218382
0.545578 -0.108198 -0.0584452 0.965825 0.258643 0.0169125
0.215737 0.418006 0.178986 -0.198638 0.782215 0.590493
-0.223606 0.157383 -0.307286 -0.987685 -0.154556 -0.0243089
0.54964 -0.19027 0.0481433 0.987632 -0.147113 0.0542293
0.37159 -0.178894 -0.189401 0.198038 -0.803313 -0.561667
-0.0226539 0.315077 -0.209234 -0.278927 0.949115 -0.146222
0.0415075 -0.270051 -0.13721 0.206222 -0.953649 0.21915
0.0190592 0.260825 -0.260993 0.256145 -0.964116 0.0697797
-0.0355921 0.195637 -0.268842 -0.2183 0.862755 0.456068
0.500935 0.0421804 -0.204163 0.957272 0.287866 -0.0276256
-0.184753 0.204743 -0.253365 0.199881 -0.978382 0.0530681
-0.177885 0.0032219 -0.157116 -0.957758 -0.28254 0.0535863
-0.0485607 -0.18685 -0.264617 -0.028552 -0.136469 -0.990233
0.140904 0.365471 -0.172904 -0.222581 0.949923 -0.219325
-0.216658 0.177577 0.175142 -0.962927 -0.267958 0.031154
0.0242419 -0.197466 -0.203807 0.0857949 -0.204977 0.974999
0.189066 -0.0279444 0.303638 -0.0182468 0.180122 0.983475
0.365225 0.484733 0.131103 -0.172617 0.964027 -0.202127
0.341978 0.278916 -0.339088 -0.0334375 -0.161646 -0.986282
-0.206109 0.140015 0.152506 -0.956807 -0.286087 0.0517163
0.0985129 -0.0565153 0.308099 -0.0808136 0.202471 0.975948
0.477256 0.123369 -0.254726 0.979146 0.198747 0.0421135
0.527918 -0.0717896 -0.267357 0.938542 0.32141 -0.125833
0.225607 0.18207 0.267984 -0.0349867 0.19065 0.981034
0.499605 0.0172687 0.247724 0.113692 -0.527217 -0.842091
0.0573889 0.378254 0.0175713 -0.227168 0.944197 -0.238511
-0.181863 0.0072179 -0.22673 -0.961007 -0.270977 0.0551119
-0.499008 -0.0672362 0.0206915 -0.971029 -0.237506 0.0263261
-0.160693 0.176638 0.261501 -0.0146094 0.147678 0.988928
0.160334 -0.0867856 -0.277723 -0.0472119 -0.153478 -0.987024
0.163886 0.401369 -0.0236384 -0.251972 0.942811 -0.218216
-0.0976219 -0.275992 0.0281203 -0.971595 -0.234979 0.0280704
0.313002 0.393759 -0.280787 -0.262504 0.946312 -0.188641
0.301402 0.0993658 0.285523 -0.029127 0.187168 0.981896
0.523694 -0.0733146 0.201633 0.956285 0.291163 -0.0272632
-0.456415 -0.084038 -0.0282739 0.0227301 -0.230756 -0.972746
-0.367831 -0.0737244 0.0291837 0.260888 -0.657365 0.706972
0.401493 0.450854 0.130748 0.962506 0.269339 -0.0322166
0.302523 0.409416 0.136886 0.241238 -0.728454 0.641217
0.46371 0.230558 0.261906 0.958936 0.273273 -0.0759251
0.15803 0.352779 -0.264783 -0.247103 0.950846 -0.186634
0.431232 -0.222098 -0.134189 -0.967165 -0.253835 -0.0125982
0.497299 0.0472493 -0.292904 0.955451 0.292975 -0.0357611
-0.205328 0.144399 0.199663 -0.96764 -0.251604 0.0192114
0.222001 -0.0717868 0.21252 0.000883456 0.0942434 0.995549
0.439994 0.0491687 0.296184 -0.111141 0.179631 0.977436
0.277409 0.0624773 0.290338 -0.00369377 0.124289 0.992239
0.487167 0.1248 0.110956 0.944279 0.321452 -0.0707522
0.0290772 -0.116777 -0.271742 0.00606635 -0.252954 -0.967459
0.514203 0.0112852 -0.0231404 0.983532 0.180734 -0.00100661
-0.0408431 -0.123671 -0.275335 -0.0250949 -0.171509 -0.984863
0.185728 -0.166491 0.206232 0.30157 -0.94714 0.109455
0.509132 0.0203756 -0.0731847 0.95802 0.282482 -0.0490114
0.299941 0.268279 0.255113 -0.0738321 0.221768 0.9723
0.137227 0.105262 -0.313671 0.0879944 -0.182361 -0.979286
0.357474 -0.124551 0.18612 0.265903 -0.948385 0.172803
0.104979 -0.0593218 -0.281763 0.0138668 -0.165954 -0.986036
0.106605 0.0755363 -0.307662 0.0277015 -0.187923 -0.981793
-0.0628315 0.309698 -0.174077 -0.247365 0.94791 -0.200692
-0.147349 0.243745 0.171522 -0.253484 0.944108 -0.210728
-0.221249 0.0940138 -0.0242968 -0.980407 -0.195462 0.0244268
0.443598 0.264006 0.257243 -0.0643188 0.18388 0.980842
0.417937 0.359087 -0.0552201 0.96062 0.271927 -0.0571364
-0.0704744 -0.24791 0.144125 0.234437 -0.950489 0.203987
0.0177152 -0.128043 0.219153 0.000844839 0.139592 0.990209
-0.0805778 0.145313 -0.323995 -0.00877584 -0.13779 -0.990423
0.117524 -0.155845 -0.196045 0.184435 -0.840096 0.51012
0.106848 -0.202338 0.120908 0.233305 -0.946162 0.22438
0.410891 0.0197682 -0.291165 0.0222847 -0.198572 -0.979833
0.202482 0.404392 -0.0523078 -0.259764 0.948517 -0.181212
0.477239 0.175188 0.219731 0.950086 0.307082 -0.0551049
-0.0505948 -0.137759 0.266308 0.0663352 -0.319002 -0.94543
0.51554 -0.0144088 -0.166291 0.960158 0.27738 -0.0340042
0.184924 -0.236292 -0.175632 0.230193 -0.754267 -0.614893
0.440123 0.258529 -0.271746 0.937191 0.345343 -0.0491133
0.443537 0.292764 0.134656 0.965252 0.260644 -0.0188237
-0.235436 0.198496 -0.233009 -0.951383 -0.305059 0.0425349
-0.196505 0.115588 0.238436 -0.957903 -0.282186 -0.052855
0.222767 -0.218981 -0.131103 0.242646 -0.921719 0.302585
-0.209178 0.161969 0.25511 -0.967436 -0.252964 0.00874611
0.425088 -0.150897 0.224574 -0.0140251 0.147441 0.988971
0.457481 -0.190359 0.0997146 -0.968076 -0.236733 0.0823815
0.289774 0.435388 -0.0298537 -0.235934 0.954674 -0.181475
0.159341 -0.06485 0.226693 0.245682 -0.865196 0.437123
-0.0777257 0.103872 -0.31686 0.0208236 -0.179345 -0.983566
0.338488 -0.0988009 -0.208871 0.193903 -0.699909 0.687407
0.379579 0.356413 -0.262891 0.205464 -0.891114 -0.404598
-0.06033 0.234833 0.253508 -0.038456 0.189946 0.981041
0.518012 0.0141285 0.0690394 0.953157 0.300197 -0.0370637
0.416449 -0.137052 0.189521 -0.972711 -0.230893 0.0228222
0.0375628 -0.262079 -0.0908578 0.349602 -0.93044 0.109817
-0.0450852 0.179849 -0.327713 0.0145369 -0.154537 -0.98788
0.230937 -0.0904357 0.287015 0.139868 -0.549716 0.823559
-0.111787 -0.234964 -0.0655533 -0.950411 -0.309324 0.032211
0.288401 -0.0771492 0.241157 -0.197471 0.906214 -0.373872
0.313432 -0.0441277 -0.283454 -0.00793814 -0.143657 -0.989596
0.538633 -0.137075 0.086894 0.965369 0.25961 -0.0257961
-0.119727 0.213209 0.256592 -0.0166339 0.159523 0.987054
0.00552091 0.238173 0.250961 -0.0623487 0.230595 0.97105
0.254179 -0.043103 0.251928 0.162957 -0.726127 -0.66797
0.549573 -0.129371 -0.133863 0.966396 0.256836 -0.0106352
-0.16418 -0.106951 0.0604433 -0.941517 -0.334059 0.0441547
0.333293 -0.0158636 0.304476 -0.0455448 0.195729 0.9796
0.40697 -0.0955479 -0.21843 0.158408 -0.163172 0.973798
0.2667 0.36484 -0.30167 -0.952193 -0.304389 0.0259879
0.286249 0.443468 0.0175387 -0.219085 0.95555 -0.197294
0.299859 0.456386 0.075159 -0.253457 0.94305 -0.215442
0.433858 -0.207179 0.119656 -0.972463 -0.2321 -0.0211213
-0.0543755 -0.074924 0.308835 0.0384386 0.132956 0.990376
-0.207365 0.128371 -0.0890527 -0.984219 -0.176013 0.0182107
0.00248543 0.387729 0.147774 -0.271709 0.949697 -0.155721
-0.183822 0.0567996 0.168745 -0.952873 -0.29846 0.0543602
-0.0559564 0.334122 -0.0528624 -0.273226 0.946404 -0.172242
-0.0473397 0.321511 0.225414 -0.180673 0.83277 0.523309
0.21104 0.428802 0.0669346 -0.255212 0.947164 -0.194285
0.0360493 -0.207535 -0.159827 -0.0564807 0.302521 -0.951468
0.0812518 -0.192265 0.222865 0.263147 -0.948577 0.175941
0.0875308 -0.221035 0.0640797 0.215196 -0.944253 0.249152
0.15991 0.407737 0.0178871 -0.254979 0.949679 -0.181921
-0.220333 0.200869 0.224641 -0.960258 -0.273196 0.0571636
0.400102 0.445054 0.0832423 0.947444 0.311553 -0.0726922
0.403638 0.411705 -0.0994008 0.983264 0.181389 -0.0170429
-0.135199 -0.108835 0.268387 -0.953865 -0.297461 0.0407218
-0.0281737 0.32237 -0.141876 -0.250321 0.948645 -0.193421
0.253665 -0.191389 -0.0310511 0.267614 -0.95051 0.157841
0.418406 0.380739 0.119695 0.965306 0.260416 0.019182
-0.144806 0.186963 -0.279327 -0.00507073 0.131045 0.991363
-0.144941 -0.113001 -0.0998941 -0.972556 -0.232666 0.000930234
-0.297895 -0.0643633 0.0132341 0.307138 -0.884336 0.35159
-0.222856 0.184291 0.0457524 -0.971057 -0.238557 -0.0117638
0.0875028 0.190022 0.265006 -0.0532058 0.221989 0.973596
0.375983 -0.037421 0.292281 0.105198 -0.488801 0.866029
-0.243341 0.240687 -0.145575 -0.966329 -0.256904 0.0144498
0.274751 0.134612 -0.315752 0.0130097 -0.164337 -0.986318
-0.478301 -0.0444966 -0.00721587 -0.224497 0.872924 -0.433134
0.343565 0.0857828 -0.304649 0.0140976 -0.171992 -0.984998
0.073266 0.328221 -0.275175 -0.189397 0.55399 -0.810693
-0.160551 -0.0226135 0.164967 -0.970162 -0.242119 -0.0127924
0.479825 -0.24494 -0.109065 0.256418 -0.948397 0.186528
0.0416724 0.199331 -0.329946 0.0180097 -0.178781 -0.983724
-0.2481 0.300921 0.197037 -0.965816 -0.257665 0.0284206
-0.100859 -0.0505591 -0.28811 0.0312226 -0.193852 -0.980534
-0.0815691 -0.191495 0.308714 0.190151 -0.502952 0.843138
-0.124593 0.020056 -0.302035 -0.0020525 -0.115951 -0.993253
-0.11732 -0.182519 0.168881 -0.946206 -0.32221 0.0295699
-0.0915341 -0.165341 -0.267596 0.015594 -0.156588 -0.987541
0.531202 -0.0588984 -0.14778 0.970473 0.240352 -0.0203352
-0.140105 0.202773 -0.236132 0.0860775 -0.475456 -0.875518
0.100824 0.360985 -0.138236 -0.243936 0.943207 -0.22551
0.436809 0.319254 0.185034 0.96363 0.265601 -0.0295655
0.414765 -0.169982 -0.191842 -0.940831 -0.324252 0.0984739
0.0295897 0.308042 0.185741 -0.178829 0.36026 -0.915551
0.161958 -0.0649287 0.311824 0.0573911 0.174053 0.983062
0.104744 0.286113 -0.311233 -0.169275 0.542643 -0.82273
-0.0601911 0.266969 0.16926 -0.24977 0.961437 -0.115122
-0.124812 -0.169594 0.110823 -0.954954 -0.291991 0.0529521
0.43185 0.204761 -0.323 0.0145106 -0.163952 -0.986362
-0.0540959 0.240807 -0.260478 0.243381 -0.963028 0.11551
0.365628 0.386679 0.166162 -0.242482 0.743495 -0.623231
0.101936 -0.158819 0.267356 0.148994 -0.536861 0.83041
0.436661 0.280562 -0.190611 0.962459 0.26283 -0.0677692
0.466468 -0.142661 0.225412 0.00493796 0.14332 0.989664
-0.0220408 0.101117 0.278026 0.000356901 0.153507 0.988147
-0.27376 -0.0572905 -0.0156741 0.218222 -0.882044 -0.417585
-0.0828188 0.0546534 -0.309122 0.0207101 -0.108437 -0.993888
0.167597 0.419198 0.158655 -0.199243 0.786045 0.58518
0.471589 0.168741 -0.0239642 0.963421 0.265606 -0.0356744
0.460486 0.237623 0.188067 0.963846 0.263584 -0.0390478
-0.195039 0.293586 -0.055021 -0.272801 0.955022 -0.116245
-0.222595 0.292138 -0.0186532 -0.231692 0.948423 -0.216362
0.450771 0.275293 0.191246 0.966787 0.254357 -0.0249951
0.334704 0.424313 -0.148606 -0.280427 0.953336 -0.111857
-0.0964366 -0.247572 0.185903 0.255363 -0.945121 0.203802
0.430452 0.28733 -0.335686 0.963194 0.266765 -0.0330612
0.237737 0.39885 0.215275 -0.198823 0.791405 0.578054
-0.0129241 -0.19003 -0.173012 0.241092 -0.915404 -0.322352
-0.0976155 -0.288837 -0.0536428 -0.943641 -0.328735 0.0383944
0.112731 -0.0852104 0.25992 0.128352 -0.528565 -0.839133
-0.0785686 -0.175987 0.256176 -0.272703 0.835918 -0.476312
0.125093 -0.0948862 0.212796 0.0203453 0.0444456 0.998805
0.122135 0.336428 0.183661 -0.0564409 0.132455 -0.989581
0.459006 0.228992 0.106588 0.962885 0.264817 -0.0521887
0.0384463 0.197326 0.262032 -0.0615162 0.199317 0.978002
0.450263 -0.175963 -0.0697571 -0.970803 -0.236697 0.0389259
0.330358 0.058076 0.293359 -0.0263476 0.181138 0.983105
0.187137 0.356068 0.182061 -0.0813306 0.115258 -0.99
0.00143448 -0.0760057 -0.28055 0.100442 -0.237612 -0.966153
0.497054 0.0772941 -0.0086052 0.966027 0.257808 -0.018068
0.417526 0.357906 -0.133501 0.964073 0.262872 -0.0382311
0.461003 0.198042 -0.10625 0.966257 0.255856 -0.0297352
0.252474 0.421541 -0.0397357 -0.289524 0.948168 -0.130973
0.268272 -0.160517 -0.188878 -0.254417 0.967041 -0.0101476
0.48192 0.131632 -0.0295075 0.964806 0.261734 -0.0253813
0.163665 -0.206228 0.0262116 0.264039 -0.948506 0.174982
-0.194836 0.0452694 -0.148115 -0.126076 0.337828 -0.932726
0.194891 0.368786 -0.240352 -0.249318 0.948599 -0.194937
0.32671 0.449497 -0.000866434 -0.263197 0.948557 -0.175976
0.263514 -0.0684577 0.293716 0.133564 -0.532211 0.836009
-0.110233 0.300859 -0.145409 -0.275107 0.946949 -0.166145
0.506804 0.0188006 -0.256445 0.943822 0.322277 -0.0730598
0.27857 -0.066741 -0.279908 0.0160552 -0.158503 -0.987228
0.271893 0.193733 0.267259 -0.0654387 0.247502 0.966675
-0.0839919 -0.123462 -0.276208 0.00926654 -0.114466 -0.993384
0.13272 0.0305979 -0.299525 0.0767281 -0.221053 -0.972239
0.392657 -0.135264 0.0596326 0.333996 -0.931508 0.144015
0.0360047 -0.239942 -0.219811 0.176383 -0.732297 -0.657747
0.516236 -0.210209 0.0211816 0.230175 -0.948974 0.215563
0.189313 -0.0557938 -0.282105 0.00780784 -0.170896 -0.985258
0.269698 0.0871095 -0.305699 -0.0083918 -0.169552 -0.985485
0.340494 0.470752 0.0869663 -0.327768 0.939387 -0.1006
0.276516 0.458368 0.120741 -0.284764 0.949948 -0.128487
0.228519 0.00858645 0.298226 -0.0160993 0.173211 0.984753
0.44204 -0.00787497 0.25132 0.033459 -0.0840457 -0.9959
0.546057 -0.123506 -0.235035 0.983058 0.182837 0.0129335
0.0867911 0.399545 0.159545 -0.216487 0.746272 0.629453
-0.142241 -0.0845168 0.203231 -0.954977 -0.294323 0.0373097
-0.201269 0.160123 -0.235121 -0.131452 0.590161 -0.796511
-0.125757 -0.193414 -0.140421 -0.968826 -0.247439 0.0122338
0.0611889 0.308428 0.14204 -0.11443 0.695221 0.709629
0.449877 -0.187377 0.232099 -0.028382 0.226458 0.973607
0.176034 -0.228643 -0.117687 0.279167 -0.945904 0.16532
0.12194 -0.182094 0.218131 0.336534 -0.931304 0.139346
0.416963 0.340207 -0.250968 0.966245 0.25643 -0.024784
0.542904 -0.169321 0.000244627 0.968425 0.248164 -0.0238448
0.139571 0.176655 0.267237 -0.0144841 0.174056 0.984629
-0.0928352 -0.140949 0.31938 -0.0866351 0.183714 0.979154
0.113712 -0.181547 -0.162564 -0.0527741 0.0623467 -0.996658
0.291445 -0.152416 0.113384 0.233712 -0.951011 0.202378
0.472896 -0.0851047 0.217347 0.264318 -0.949688 0.168011
0.140095 -0.229045 -0.0554642 0.260276 -0.943708 0.204135
0.503154 0.0518022 -0.0428981 0.968956 0.246879 -0.0132502
-0.345916 -0.0663496 -0.0261385 0.132643 -0.569773 -0.811027
-0.157859 0.164057 -0.247697 -0.260255 0.919038 -0.296035
-0.203701 0.0830945 -0.25936 -0.965156 -0.25988 0.0306033
0.121416 0.39031 -0.0053051 -0.23573 0.945071 -0.226435
0.150064 -0.168333 0.246581 0.244611 -0.94816 0.202876
0.161322 0.0978303 0.282225 -0.0104814 0.173159 0.984838
-0.00570244 -0.273617 -0.08319 0.256 -0.949634 0.180719
-0.113465 -0.208755 0.0263716 -0.96467 -0.261836 0.0292374
0.481727 0.11262 -0.207265 0.972757 0.231812 -0.0027716
0.360538 0.411044 0.227944 -0.0219176 0.187466 0.982027
0.08553 0.308678 0.242321 -0.0758556 0.228602 0.97056
-0.177433 -0.0133945 -0.267118 -0.956829 -0.290191 0.0163745
0.173695 0.150568 0.272726 0.0293173 0.170621 0.984901
-0.100955 -0.276335 -0.0972474 -0.940264 -0.339511 0.0252081
-0.197299 0.0641531 -0.202296 -0.967373 -0.251392 0.0314843
0.123917 0.129685 0.27495 -0.0239703 0.17953 0.98346
0.130274 -0.123486 0.288319 0.154521 -0.53098 0.833177
-0.08588 0.0109517 -0.301083 0.0743946 -0.222987 -0.971979
0.462487 -0.15387 -0.229604 0.226759 -0.865724 -0.44621
-0.138969 0.352261 0.163037 -0.229979 0.962766 -0.142094
-0.225967 0.206158 0.111303 -0.966116 -0.256469 0.0290316
0.360729 0.313396 0.248784 -0.0118689 0.17621 0.984281
-0.239929 0.246827 0.0162648 -0.967425 -0.25271 0.0150224
0.201553 0.0872585 0.282808 -0.120968 0.252531 0.959997
-0.00884714 -0.158696 0.24065 -0.222004 0.972002 0.0769844
0.252888 0.259481 0.254392 -0.0153048 0.166192 0.985975
0.0956968 0.348749 -0.193219 -0.27377 0.952798 -0.131249
-0.113892 -0.230291 -0.110175 -0.964837 -0.261515 0.0264465
0.318885 -0.093777 -0.274159 -0.024065 -0.163891 -0.986185
0.468966 0.142242 -0.31084 0.966992 0.254727 -0.00630526
0.526342 -0.0332685 -0.0207588 0.959004 0.280108 -0.0430268
0.205372 0.0402938 0.292599 -0.0140245 0.131387 0.991232
0.351635 0.407384 -0.254032 -0.24494 0.949119 -0.197931
0.350922 0.024318 0.299355 -0.0405863 0.202887 0.978361
0.355934 0.23699 -0.331319 0.000245929 -0.152333 -0.988329
0.428991 -0.210294 -0.0827125 -0.977024 -0.20569 0.0558145
0.0361906 -0.0737239 0.308595 -0.0444995 0.198028 0.979186
0.420687 -0.0588791 0.295655 0.125252 -0.480646 0.867924
0.249248 -0.0241485 -0.289132 0.0233623 -0.18446 -0.982562
0.380972 -0.151898 -0.0176059 0.280879 -0.947319 0.153926
0.279086 0.223613 -0.3323 -0.000777663 -0.1748 -0.984604
-0.0921583 0.317634 0.213354 -0.201956 0.786478 0.583667
0.232208 -0.170663 0.114833 0.249208 -0.946204 0.206384
0.434135 0.336259 0.234268 0.965654 0.258242 -0.0287128
-0.133154 -0.126576 0.175501 -0.954236 -0.297836 0.0269725
0.0722266 -0.18199 -0.206409 0.120421 -0.325991 0.937672
-0.13042 0.294437 0.240674 -0.0453114 0.286249 0.957083
-0.209056 0.051097 -0.0538341 -0.965752 -0.25929 0.00958437
0.169886 -0.214875 -0.024185 0.221925 -0.944388 0.242654
0.510843 0.0180487 0.302731 0.0185307 0.0909882 0.99568
0.153569 -0.178911 0.185965 0.268728 -0.949831 0.160018
0.534414 -0.127835 0.0446538 0.967685 0.251354 -0.0201766
-0.235275 0.214999 -0.313601 -0.20157 0.566324 -0.799154
0.455831 0.238016 0.0514016 0.965223 0.259937 -0.0278744
0.45237 0.239405 -0.0891355 0.961532 0.273458 -0.0260192
0.392964 0.454726 -0.0576918 0.966813 0.253964 0.0278339
0.429542 0.327962 -0.0807891 0.969979 0.24183 -0.0256632
0.201485 -0.0692349 0.305558 0.221513 -0.589999 0.776424
0.200412 -0.100971 0.23358 -0.302141 0.947506 0.104611
0.539719 -0.0618542 0.163183 0.976083 0.215321 0.0299673
0.419903 0.242947 -0.332138 -0.0115213 -0.175332 -0.984442
0.416326 -0.169257 -0.105319 -0.978892 -0.203334 0.0206421
-0.0770993 0.309551 0.152825 0.215939 -0.815933 0.536306
0.0278558 0.0738192 0.284467 -0.0197841 0.162631 0.986489
0.473776 0.148841 -0.170443 0.96091 0.27324 -0.044641
0.400471 0.242935 0.259225 -0.0362612 0.186169 0.981848
-0.186488 0.333934 0.142648 -0.1619 0.967003 -0.196704
0.0502394 -0.245329 -0.0209906 0.263552 -0.948597 0.175225
0.468636 0.183441 0.0172755 0.96279 0.266323 -0.045904
0.0786075 -0.264989 -0.154701 0.308771 -0.936676 0.16522
-0.23085 0.191941 -0.16286 -0.937152 -0.340896 0.0744044
0.186418 -0.157657 0.250107 0.264116 -0.948505 0.174873
-0.174447 0.326511 0.0768234 -0.228389 0.952121 -0.203234
-0.155914 0.298132 -0.0863209 -0.259218 0.947938 -0.184985
-0.174263 -0.060807 0.0769019 -0.976914 -0.213323 -0.011472
-0.199931 0.0211038 0.0535865 -0.971811 -0.217882 -0.0900613
-0.131103 -0.157735 -0.0673647 -0.968052 -0.249556 0.0244433
0.357566 -0.136609 0.107104 0.195186 -0.963767 0.181811
-0.208506 0.137939 0.0878861 -0.948252 -0.312853 0.0542226
0.23816 -0.108352 -0.27223 0.0237364 -0.181265 -0.983148
-0.115191 -0.162777 0.221403 -0.0743394 0.0297886 0.996788
0.381982 -0.0192641 -0.285135 0.062856 -0.230367 -0.971072
0.405059 0.407217 -0.0567364 0.963249 0.267042 -0.028982
-0.0969073 0.216969 -0.237113 0.135075 -0.488549 -0.862018
0.0499941 -0.187497 0.258788 0.109287 -0.489006 0.865407
0.019174 0.365674 0.012333 -0.180874 0.953898 -0.239506
-0.187976 -0.0319652 -0.0951106 -0.974634 -0.222367 0.025332
-0.203914 0.260821 -0.208252 -0.26723 0.948119 -0.172219
0.292354 0.422567 -0.0929909 -0.326188 0.932839 -0.153015
0.429776 0.335638 0.0954129 0.957503 0.284629 -0.0466339
0.410183 -0.0533663 -0.27896 0.0169944 -0.163078 -0.986467
0.156437 0.314909 -0.302624 -0.136735 0.539451 -0.830841
0.00429855 -0.150237 0.315361 0.091932 -0.266679 0.959391
-0.153452 0.24421 0.249227 -0.0172527 0.164579 0.986213
-0.241649 0.226815 -0.268578 -0.973355 -0.229244 -0.00513666
-0.197314 0.0228312 0.101701 -0.966311 -0.25545 0.0314216
-0.183024 -0.0254048 0.113677 -0.967843 -0.250992 0.0168439
-0.104065 -0.276601 -0.187132 -0.95723 -0.279316 0.0754562
-0.0927049 0.356779 0.126667 -0.246536 0.950859 -0.187316
0.416369 0.00325478 0.211136 0.232559 -0.735701 0.636129
-0.199971 0.0138927 -0.110627 -0.963079 -0.266431 0.038634
-0.0184848 -0.263766 -0.00250558 0.268676 -0.950593 0.155518
0.15228 0.158596 -0.323598 0.0166053 -0.168752 -0.985519
0.455485 0.0168748 0.223144 0.326223 -0.940328 0.0967564
-0.229415 -0.0161738 -0.0362793 -0.0479272 -0.0396834 -0.998062
-0.0959519 -0.305533 -0.146098 -0.973956 -0.224948 0.0284176
-0.0560346 0.323781 -0.0996348 -0.24141 0.950459 -0.195828
-0.108216 -0.224421 0.151721 -0.953048 -0.302681 0.00911797
-0.134464 0.143455 -0.323536 0.0412624 -0.235187 -0.971074
0.298545 -0.157106 -0.245226 0.196658 -0.820438 -0.536849
0.2514 0.435585 0.0395606 -0.270482 0.955663 -0.116396
0.405339 0.39371 0.155501 -0.223008 0.956656 -0.187291
0.466054 -0.162793 -0.190647 0.291789 -0.956089 -0.0274408
0.0105223 -0.270489 -0.225365 0.198884 -0.818234 -0.539387
0.541412 -0.0691087 0.124307 0.95982 0.276088 -0.0502017
0.325871 -0.135328 0.155863 0.258791 -0.949291 0.178531
0.376109 0.461953 -0.00198711 -0.273497 0.948829 -0.157868
-0.228483 0.191467 -0.0851751 -0.967329 -0.252954 -0.0170154
0.207108 0.288339 0.248825 -0.00784925 0.13702 0.990537
0.166666 0.330629 0.149724 -0.239162 0.907895 0.344279
0.535157 -0.146082 -0.06065 0.963091 0.267084 -0.0334855
-0.051155 -0.282807 -0.0622863 0.262062 -0.948338 0.178826
0.541293 -0.105493 -0.179391 0.965979 0.257551 -0.023476
0.365379 -0.074392 0.267418 0.137389 -0.520653 0.842642
0.275857 -0.137216 0.229624 0.20783 -0.955221 0.210617
-0.109834 -0.204232 0.265445 -0.950486 -0.310695 0.00677377
0.128166 -0.207971 0.0714468 0.265375 -0.948262 0.174284
0.263018 -0.117694 -0.205546 0.212512 -0.723261 0.657063
0.295833 0.15773 0.273691 -0.0212458 0.181367 0.983186
-0.102497 0.176719 -0.261577 -0.250098 0.950183 0.186021
0.122788 -0.10343 -0.27627 0.0145378 -0.193774 -0.980939
-0.455718 -0.0789772 0.0394831 0.0913972 -0.0948148 0.99129
-0.114369 -0.20399 0.103954 -0.969478 -0.243752 0.0264237
0.188559 -0.183137 -0.243124 0.14926 -0.824549 -0.545747
0.285651 -0.147811 0.158962 0.264728 -0.948543 0.173739
0.0364589 -0.206749 0.213902 0.298638 -0.940981 0.159278
0.378352 0.435365 0.155493 0.248463 -0.955405 -0.159586
0.424502 0.342793 0.0519496 0.930004 0.362834 -0.0586848
-0.00489911 0.266726 -0.299468 -0.173143 0.545447 -0.820067
0.147206 0.388365 -0.0628043 -0.271773 0.946735 -0.172718
0.239653 0.375301 0.181004 -0.0408945 -0.00184328 -0.999162
-0.182198 0.217306 0.254739 -0.0365764 0.228334 0.972896
-0.0451786 -0.260584 0.0412215 0.279677 -0.948675 0.147637
0.47682 -0.10179 -0.18394 -0.219792 0.83839 -0.498793
-0.164264 -0.0533569 -0.19574 -0.968128 -0.248277 0.0329749
-0.237342 0.232113 -0.062084 -0.95553 -0.29419 0.0203422
0.525811 -0.0353871 -0.0645574 0.975282 0.22054 0.013705
-0.0362708 -0.214753 0.270862 0.283138 -0.916688 0.281986
0.0923696 0.0208912 0.295914 -0.0231451 0.179535 0.983479
-0.051067 -0.252627 0.0956078 0.271209 -0.949573 0.157346
0.142149 -0.0145838 0.302204 -0.0286894 0.187458 0.981853
0.0781286 -0.0884285 0.22842 0.229484 -0.859823 0.456116
0.28878 0.288527 -0.256298 -0.212977 0.769955 -0.601507
-0.035886 0.373247 0.139254 -0.314811 0.941057 -0.12372
0.0490247 0.0898559 -0.311671 0.0419323 -0.181075 -0.982575
0.281408 0.40307 -0.186084 -0.268437 0.948764 -0.166696
0.468082 -0.00994176 -0.286951 0.0847735 -0.245082 -0.965789
0.380311 0.431539 -0.182093 -0.286258 0.943451 -0.167203
-0.236279 0.246864 0.0839049 -0.946669 -0.308867 0.0917534
0.0399721 -0.0313525 0.301717 -0.00223477 0.141217 0.989976
-0.105738 0.317244 -0.0639668 -0.226803 0.952216 -0.204558
0.291185 0.412007 -0.149139 -0.173134 0.957777 -0.229538
-0.16812 -0.10659 -0.0642786 -0.971849 -0.232738 0.0366512
0.424958 0.362926 0.188344 0.96145 0.27336 -0.0298047
-0.184119 0.0653516 0.230843 -0.959811 -0.272558 0.0668989
0.421324 0.387655 0.230906 0.964963 0.261834 -0.0169967
0.419004 0.347184 -0.184504 0.975937 0.216539 -0.025646
0.305059 0.37093 -0.323187 -0.213609 0.706833 -0.674358
0.471055 -0.198382 0.169251 0.265897 -0.948261 0.173492
0.220614 -0.12353 -0.181136 0.244176 -0.940323 -0.237005
0.454306 -0.244856 -0.0575446 0.250741 -0.941975 0.223187
0.0900516 0.38978 0.041805 -0.285372 0.946352 -0.151595
0.407343 0.387449 -0.171497 0.982689 0.18331 -0.0268348
-0.215181 0.125326 -0.182875 -0.975725 -0.218811 0.00902798
0.417131 -0.156559 0.0269818 -0.956984 -0.289388 0.0208695
-0.323667 -0.00445032 0.0121803 -0.23127 0.918127 0.321804
0.396005 0.366743 -0.344239 -0.118627 0.318929 -0.940325
-0.0720863 -0.00256989 0.296423 -0.00358726 0.12186 0.992541
0.166127 -0.185384 -0.171735 -0.230822 0.764174 -0.602296
0.196391 0.0327124 -0.298266 0.0144127 -0.162961 -0.986527
0.535844 -0.142884 -0.194698 0.233767 -0.971118 0.0477764
0.154128 0.0686139 -0.305459 -0.0242155 -0.123433 -0.992057
-0.0861605 0.104455 0.277793 -0.0613741 0.249596 0.966403
0.483407 0.108138 -0.15616 0.969677 0.240969 0.0407411
-0.0517468 0.139908 0.268867 -0.0222671 0.231638 0.972547
-0.132928 -0.118844 0.23057 -0.951956 -0.303901 0.0377489
0.422251 -0.0723246 -0.180119 0.205413 -0.793383 -0.573017
0.077304 -0.171264 -0.263912 0.0143988 -0.224736 -0.974313
0.404449 0.423534 -0.00666984 0.952409 0.293987 -0.0805458
0.324481 0.317952 -0.246228 -0.0436138 0.0648124 -0.996944
0.27277 0.401721 0.171655 0.173348 -0.719598 -0.672406
0.0828587 -0.131403 -0.272079 0.0834923 -0.202795 -0.975655
-0.173817 0.316494 0.224155 -0.144766 0.707843 0.691377
0.433039 0.305632 -0.0422007 0.967509 0.251241 -0.0283746
0.0564762 0.287961 -0.299721 -0.181534 0.547717 -0.816732
0.0035087 0.00577375 -0.298661 0.0146508 -0.174569 -0.984536
0.0634699 -0.147907 0.284424 0.14307 -0.546779 0.824963
-0.233091 -0.0482863 -0.0138535 0.229304 -0.912253 -0.339434
-0.196026 -0.000396583 -0.0643776 -0.975259 -0.217995 0.036703
-0.320838 -0.025406 -0.0322049 -0.0825474 0.348901 -0.933517
0.14077 -0.192949 -0.249454 0.189762 -0.789147 -0.584155
0.236317 0.292957 -0.33565 -0.157445 0.540712 -0.826342
-0.0296836 -0.263325 -0.241329 0.128071 -0.579265 -0.805016
0.330382 0.191611 0.267098 0.0180919 0.124785 0.992019
0.502426 0.0670501 0.0951539 0.953944 0.296284 -0.0469717
0.323677 -0.104799 0.256731 0.181088 -0.54845 0.816339
0.341039 0.27098 0.252802 -0.0354508 0.209574 0.97715
0.205125 0.324073 -0.308339 -0.252041 0.524953 -0.812958
0.0738932 0.351425 0.151554 0.247521 -0.865291 0.435895
-0.0979359 0.182519 -0.330108 -0.0506672 -0.108343 -0.992822
0.515706 -0.0223715 -0.267121 0.962643 0.270768 -0.00150821
0.321102 -0.0683157 0.280466 0.158793 -0.542318 0.825031
0.297051 -0.20284 -0.154038 0.273847 -0.946828 0.168892
0.0726417 0.373425 -0.0232407 -0.193383 0.962893 -0.188254
0.103828 0.403532 0.0773929 -0.280829 0.950409 -0.133633
-0.02127 -0.247128 0.0783304 0.2414 -0.951296 0.191733
0.456477 -0.193584 0.0198013 -0.964268 -0.262854 0.0331044
-0.00914954 -0.166341 -0.266561 0.0244369 -0.181164 -0.983149
-0.00810076 0.338314 -0.0934374 -0.23355 0.946107 -0.224356
-0.203048 0.274068 0.159094 0.160765 -0.883487 0.440006
-0.232453 0.240149 0.196043 -0.965874 -0.258818 0.0100409
0.522787 -0.0136266 0.0225248 0.964908 0.261259 -0.0264053
0.547812 -0.213825 -0.0558434 0.750677 -0.63801 0.171542
0.0805835 0.0328558 -0.301816 0.0569665 -0.206221 -0.976846
-0.00265927 0.0550445 -0.305521 0.0176502 -0.173398 -0.984694
-0.134229 -0.17519 -0.263156 -0.954752 -0.292935 0.0513493
-0.176334 0.0719169 -0.311513 -0.0629153 -0.136964 -0.988576
0.165541 0.26028 -0.246573 -0.219036 0.640883 -0.735726
0.182014 0.199042 0.264142 -0.0179359 0.177267 0.983999
0.391131 0.48395 0.100073 0.970583 0.240418 -0.0129854
0.339039 0.146725 0.277019 -0.0468704 0.22215 0.973885
0.0640789 0.151027 0.269899 0.0296496 0.124779 0.991741
-0.0310127 0.134096 -0.320576 0.0518267 -0.185961 -0.981189
-0.148639 -0.0159642 -0.295128 0.0263381 -0.139114 -0.989926
0.337732 0.00112166 -0.291909 -0.033361 -0.227975 -0.973095
0.243086 0.270888 -0.269885 -0.283842 0.941991 0.179127
0.11069 0.37843 -0.0559083 -0.261162 0.947986 -0.181978
-0.224581 0.186995 -0.0272922 -0.968382 -0.249342 0.00803213
0.420146 0.135614 -0.312388 0.037588 -0.228657 -0.972781
0.0405177 -0.115886 0.309097 0.143103 -0.528306 0.836907
0.447363 -0.147143 0.101315 -0.941659 -0.321916 0.0982294
0.140779 -0.243374 -0.149511 0.224856 -0.939324 0.259056
0.451691 -0.173356 0.0592411 -0.968119 -0.249835 0.0181037
-0.0824944 0.353012 0.167332 -0.192363 0.813884 0.548261
0.444909 0.267469 -0.0451885 0.971497 0.236979 -0.00580112
-0.134262 -0.128534 0.127409 -0.962866 -0.267424 0.0370496
0.164554 -0.193381 0.103344 0.266294 -0.948347 0.172409
0.434863 0.304454 0.0202648 0.930214 0.345225 -0.124587
-0.240493 0.229853 -0.192462 -0.957725 -0.283746 0.0474513
0.23972 0.395484 -0.14991 -0.225763 0.946979 -0.228608
-0.204235 0.0891512 -0.159908 -0.972314 -0.232227 0.0260009
0.124506 0.252167 -0.243845 -0.172079 0.428441 -0.887033
-0.113704 0.217741 -0.277217 0.195888 -0.629431 0.751961
0.256999 0.148589 0.274152 -0.00510484 0.144035 0.989559
-0.251537 0.310174 0.116934 -0.284039 0.947037 -0.149808
0.495069 0.0730293 -0.114158 0.965822 0.257645 -0.0284044
0.066217 -0.211886 0.131377 0.285959 -0.943515 0.167352
0.495355 0.105007 0.214835 0.973747 0.227518 -0.00717977
0.154194 0.295229 -0.259738 0.247688 -0.935211 -0.253043
0.467452 0.162906 -0.229976 0.965028 0.260517 -0.0291719
0.0200941 -0.205095 -0.262369 0.0372447 -0.198906 -0.979311
-0.197854 0.283552 -0.100038 -0.256308 0.949254 -0.182269
-0.176632 -0.0708624 -0.00710366 -0.95439 -0.297691 0.0228024
0.195477 0.147995 -0.319771 -0.0610072 -0.135008 -0.988965
0.25954 -0.14998 -0.263883 0.0183124 -0.190074 -0.981599
0.501717 -0.117683 0.220147 -0.0566757 0.185693 0.980972
0.240275 0.309609 -0.246809 0.138446 -0.557579 -0.818497
-0.187914 0.0225282 -0.301119 -0.975213 -0.219792 0.0255106
0.0465963 -0.144241 0.248587 -0.256633 0.904335 -0.341054
-0.0134326 0.308445 0.139787 0.113659 -0.183185 0.976486
0.522041 -0.035923 -0.229861 0.965956 0.257393 -0.0260441
-0.175595 -0.0872182 -0.103938 -0.97072 -0.239711 0.0155416
0.455836 -0.202116 -0.0405581 -0.954292 -0.297224 0.0313815
0.28149 0.438426 0.211905 -0.138992 0.712137 0.688144
-0.00416573 -0.0436992 0.30442 -0.011328 0.173318 0.984801
-0.0172996 0.346222 -0.0421035 -0.307711 0.942223 -0.132395
0.107735 0.246925 -0.336971 -0.191509 0.556581 -0.80842
-0.104531 0.281963 0.192032 -0.0829777 -0.00873004 -0.996513
0.138545 0.387378 0.193068 -0.247852 0.803694 0.540968
0.363209 0.225694 0.26207 0.0294581 0.105074 0.994028
0.186991 0.431562 0.115678 -0.244527 0.948578 -0.201013
0.452346 -0.0920979 -0.220207 -0.00575776 0.204379 0.978875
0.129685 0.41689 0.149234 -0.213702 0.786274 0.579745
-0.138526 0.240354 -0.317121 -0.159898 0.490133 -0.856856
-0.0932216 -0.297395 -0.224281 0.113718 -0.814541 -0.568851
0.256681 0.104894 0.281364 -0.0227216 0.177378 0.98388
-0.0740569 0.198404 -0.281122 -0.0785541 0.432756 0.898082
0.495988 0.0734809 -0.0743101 0.980468 0.196272 0.0126032
0.457844 -0.193353 -0.145529 0.0776838 -0.230969 -0.969855
0.0646303 0.348468 -0.155245 -0.244749 0.944432 -0.219423
0.363951 0.439906 -0.101098 -0.267778 0.948085 -0.171551
0.229311 0.424286 0.00325218 -0.273421 0.947249 -0.167216
-0.0234951 -0.231855 -0.160567 -0.236555 0.593139 -0.769564
-0.120783 -0.158496 0.284523 -0.957667 -0.28651 0.0280484
0.218588 -0.163724 -0.261357 0.195698 -0.799673 -0.567649
0.496928 -0.147112 -0.156061 0.306543 -0.940251 0.148184
0.0761905 -0.256486 -0.119838 0.294759 -0.943899 0.148905
0.316453 -0.135399 -0.213551 -0.0983096 0.456436 0.884308
-0.16235 -0.0125157 0.29135 -0.944778 -0.326687 0.0258962
0.0887864 0.186382 -0.328383 0.0397185 -0.188587 -0.981253
0.478018 -0.0234341 0.23673 -0.297108 0.902712 -0.311187
0.468199 0.214877 0.225055 0.948965 0.310124 -0.0573366
-0.486481 -0.11492 0.017866 -0.961625 -0.271067 0.0424387
0.363977 -0.171142 -0.0938705 0.258195 -0.948744 0.182264
-0.212972 0.144074 0.0379156 -0.271639 0.910868 0.310696
-0.16952 0.125198 0.270702 -0.0090186 0.164855 0.986277
-0.188074 -0.0444975 -0.143788 -0.956005 -0.28402 0.073392
0.438695 -0.158643 -0.00994291 0.231594 -0.953224 0.194236
0.245288 0.444227 0.0896158 -0.22073 0.957893 -0.183626
-0.124592 0.092586 0.278602 -0.0697272 0.197833 0.977753
0.348836 0.410867 0.130124 0.203685 -0.409385 0.889335
0.164504 0.290941 0.247086 -0.0493431 0.21144 0.976145
0.222194 0.40092 -0.107853 -0.265017 0.958104 -0.108641
0.525368 -0.0921794 0.0901171 0.229485 -0.945147 0.232453
0.067847 0.357862 -0.110546 -0.265268 0.949717 -0.166345
-0.0330062 -0.223176 -0.256449 -0.0679944 -0.133284 -0.988743
0.206912 -0.0622574 0.257644 0.0777155 -0.50425 -0.860054
0.189597 -0.130246 -0.269509 0.036202 -0.221699 -0.974443
0.304919 0.228436 0.261182 -0.0270252 0.210853 0.977144
0.443061 0.251916 -0.228666 0.959161 0.277372 -0.0554515
0.394608 -0.0328809 0.20755 0.00158322 0.255736 0.966745
0.417046 0.33812 -0.30077 0.971134 0.22818 0.069518
0.536625 -0.0606745 0.00875526 0.972271 0.233544 -0.0121254
0.414241 -0.133327 0.138267 -0.961765 -0.271823 0.0334729
0.0104667 0.0940906 -0.312879 0.0437211 -0.20684 -0.977397
0.23599 -0.149526 0.217454 0.278789 -0.948213 0.152213
0.364057 -0.0771566 -0.274784 0.0223796 -0.181275 -0.983178
-0.146566 0.178953 -0.329121 -0.0104642 -0.138691 -0.99028
-0.131642 -0.139597 0.0796397 -0.94123 -0.329594 0.0738535
0.16433 -0.111756 0.238614 -0.223255 0.967573 -0.118154
0.210917 -0.00470771 -0.291034 0.0220176 -0.177998 -0.983784
0.335582 0.366727 0.236807 -0.00362053 0.130455 0.991448
0.42843 0.307451 -0.21535 0.967484 0.251721 -0.0247058
0.114193 0.343459 -0.244178 -0.286302 0.944249 -0.16256
0.0195239 0.382347 0.0993101 -0.260841 0.948767 -0.178332
0.165471 -0.00337645 -0.292622 0.017993 -0.182297 -0.983079
-0.11105 -0.0376387 0.300251 0.00707661 0.161976 0.986769
0.113466 0.354875 0.232706 -0.199755 0.796598 0.570552
0.420713 0.206538 0.265738 -0.029251 0.18114 0.983022
-0.195537 0.172831 -0.277179 -0.0313096 0.232634 0.97206
0.400046 0.404069 -0.298373 0.963158 0.265654 -0.0418863
-0.0480673 0.362964 0.0933507 -0.267888 0.950349 -0.158346
-0.221368 0.107607 0.052404 -0.954024 -0.291924 0.0679566
-0.101147 -0.259075 -0.0198713 -0.967719 -0.250612 0.0267235
-0.276859 0.00226573 0.0220845 -0.187764 0.768066 0.612225
0.193829 0.305131 -0.255088 0.215817 -0.857691 -0.466679
0.330532 -0.140094 -0.179452 -0.23969 0.818417 -0.522247
0.525062 -0.0224299 0.294657 0.153481 -0.419874 0.894511
0.397323 0.443453 0.0335987 0.953104 0.290349 -0.0853808
0.0489656 0.371597 0.189813 -0.221156 0.728552 0.648307
-0.064136 -0.243477 -0.196903 -0.152432 0.64454 0.749221
0.201247 0.386259 0.148587 0.251384 -0.903791 0.346363
0.510559 0.0555722 0.225176 0.985508 0.169519 -0.00611237
-0.230537 0.185705 -0.274987 -0.960801 -0.275672 0.0294451
-0.14612 0.339737 0.118303 -0.249698 0.948566 -0.194614
0.437349 -0.223543 0.0742767 0.21629 -0.948347 0.23207
0.330361 0.375808 0.140718 -0.224702 0.781545 0.581977
0.478502 -0.054249 -0.277392 -0.0254316 -0.137318 -0.990201
0.386518 0.183984 -0.322291 0.0108512 -0.240365 -0.970622
0.51112 0.000249341 -0.209737 0.959245 0.280731 -0.0322366
-0.17276 0.0241506 0.199164 -0.954639 -0.297304 0.0165874
0.25903 -0.210694 -0.18513 0.201042 -0.847734 -0.490846
0.217704 0.358138 -0.28798 -0.158973 0.524445 -0.836472
0.44589 0.133342 0.27976 -0.0892404 0.198922 0.975944
0.453033 0.255851 0.151981 0.965592 0.249894 0.0720019
0.0403295 0.228131 -0.282965 -0.10817 0.47442 0.873627
-0.156853 0.286873 0.18324 0.202017 -0.775468 -0.598196
0.531943 -0.108134 0.182278 0.983757 0.178507 0.0189332
0.444006 0.258244 -0.130332 0.971486 0.234495 -0.0350341
0.0674728 0.232545 -0.338084 0.14306 -0.192359 -0.970841
-0.00747734 -0.104838 0.315202 0.0175437 0.155041 0.987752
-0.134609 -0.154512 -0.159343 -0.961742 -0.262783 0.0774418
-0.121662 -0.194223 -0.0897601 -0.981161 -0.19267 -0.0141741
-0.191376 0.240913 0.189412 -0.18926 0.522751 -0.831211
-0.0843395 0.277073 -0.277659 -0.193591 0.575425 -0.794612
0.454318 -0.0806203 0.258039 0.293166 -0.881577 0.369967
-0.149903 -0.101083 0.107365 0.217593 -0.664993 0.714449
0.0187541 0.358388 -0.037662 -0.278869 0.945331 -0.169061
-0.194424 -0.0345516 -0.0205678 0.200572 -0.811045 -0.549524
0.372877 -0.133812 -0.188582 -0.371368 0.919166 -0.131226
0.00974574 -0.220024 0.178494 0.248115 -0.951601 0.181367
-0.195155 -0.0142318 0.0299335 0.128271 -0.302352 0.944526
-0.212379 0.303609 0.225413 -0.154553 0.641727 0.751199
0.528505 -0.0238593 0.104587 0.950122 0.309173 -0.0410011
0.330938 -0.150577 0.0711918 0.133844 -0.96938 0.205884
0.257462 0.392263 0.134619 0.169767 -0.554481 0.814696
0.15231 0.412563 0.0563513 -0.309754 0.93914 -0.148552
-0.104213 -0.0957517 0.311972 -0.0178431 0.177231 0.984007
0.0043605 0.329041 -0.17325 -0.229705 0.954753 -0.1889
0.149406 0.372991 0.146732 0.263236 -0.867899 0.421259
0.503439 0.0315289 -0.129876 0.982156 0.185773 0.0292873
0.464234 0.0896789 0.288331 -0.0126358 0.162907 0.986561
0.254732 -0.203579 -0.107416 0.228212 -0.952876 0.199869
-0.0956692 -0.132617 0.253462 0.242812 -0.915198 -0.321645
-0.0665278 0.290352 0.244563 0.062968 0.119328 0.990856
0.436332 -0.229018 0.0297632 -0.952725 -0.295686 0.0698934
-0.127591 -0.161002 0.0270131 -0.966313 -0.256006 0.0264529
0.0510743 -0.226125 0.0916903 0.259918 -0.948564 0.180748
0.356103 0.477507 0.18181 -0.28775 0.811797 0.50812
-0.212933 0.0773184 0.0755487 -0.964339 -0.262961 0.0300394
-0.0715844 -0.239862 -0.158298 -0.167549 0.500573 -0.849325
-0.39128 -0.0243823 0.0192082 -0.229321 0.819499 0.525199
0.338156 -0.0233924 0.250844 0.187451 -0.589326 -0.785848
-0.00956528 -0.284688 -0.13409 0.252905 -0.946426 0.200788
-0.107417 -0.234987 0.064361 -0.968901 -0.242775 0.0478647
-0.212422 0.114277 -0.289271 -0.9848 -0.173557 -0.00684436
-0.222913 0.325303 0.170624 -0.283535 0.957704 0.0491054
-0.173901 0.123413 -0.322082 0.0167734 -0.181405 -0.983265
0.266834 0.261504 -0.338953 0.041043 -0.218935 -0.974876
0.431076 0.334276 0.143018 0.9499 0.312043 -0.0178806
-0.129146 -0.126271 0.314001 -0.970526 -0.240302 0.0182668
-0.119261 -0.220039 -0.191387 -0.966531 -0.256009 -0.0166514
0.396557 -0.17346 -0.14907 0.268177 -0.94833 0.169565
0.268203 -0.0545831 0.211202 -0.0268567 -0.0847065 0.996044
0.241107 -0.157705 0.17029 0.27968 -0.949002 0.145513
0.296339 -0.115797 -0.16811 0.148657 -0.539735 -0.828605
0.180348 0.374676 -0.184247 -0.221278 0.948903 -0.224987
-0.197992 0.168402 -0.330289 0.0319423 -0.14585 -0.988791
-0.10998 0.29442 -0.191205 -0.238676 0.933451 -0.267775
-0.00423997 0.228521 -0.284673 0.0338454 -0.012777 0.999345
-0.213264 0.164793 0.122888 -0.944594 -0.323279 0.056862
0.035232 -0.0956226 0.245236 0.290241 -0.94273 -0.164377
0.534061 -0.121701 0.134339 0.955203 0.291272 -0.0524176
-0.123915 0.136731 0.269803 -0.0165125 0.183492 0.982883
0.322463 0.306463 -0.29294 -0.0872273 0.413719 0.906217
-0.246438 -0.0400287 0.0258772 0.183928 -0.567444 0.802607
