ply
format ascii 1.0
comment Created by Open3D
element vertex 100
property double x
property double y
property double z
property double nx
property double ny
property double nz
end_header
-0.123217 -0.183415 0.0247147 -0.964781 -0.261465 0.0288764
0.383061 0.396584 -0.321147 -0.242184 0.769277 -0.591235
0.0596461 0.293704 0.24441 0.0149763 0.152671 0.988164
0.16103 0.18027 -0.326471 0.0114812 -0.217776 -0.975931
0.242311 -0.0479519 0.309626 -0.013482 0.126083 0.991928
-0.212312 0.125714 -0.158454 -0.946328 -0.320437 0.0422277
-0.165048 0.0684495 0.280017 0.00823858 0.109919 0.993906
0.304346 0.163307 -0.320769 0.00918249 -0.106007 -0.994323
-0.222058 0.201173 0.134445 -0.966147 -0.256956 0.0230835
0.418766 0.113605 -0.30884 0.0203237 -0.179425 -0.983562
0.308729 0.404448 -0.206237 -0.276392 0.946261 -0.167922
0.0272616 0.161336 -0.325823 0.0713437 -0.18981 -0.979225
0.326554 0.00217947 -0.29161 -0.0110712 -0.148995 -0.988776
0.0859658 0.267372 -0.242918 0.0867545 -0.525305 -0.84648
0.414783 0.38847 0.0207663 0.964855 0.261432 -0.026596
-0.474147 -0.114177 0.0139176 0.204263 -0.939089 0.276384
0.262972 0.361439 0.138265 -0.142632 0.687968 0.711587
0.389123 0.483199 0.1405 0.960649 0.276174 -0.0296897
0.51674 -0.00673374 -0.100248 0.963175 0.267052 -0.0312662
0.442468 -0.149291 -0.239719 0.175288 -0.76063 -0.625073
-0.0295185 -0.0887542 -0.280123 0.0178104 -0.193444 -0.98095
0.483196 -0.188113 0.187688 0.264754 -0.948966 0.171371
0.0106366 0.366923 0.0245164 -0.273355 0.94752 -0.165778
-0.084523 0.190309 -0.238911 -0.185209 0.632608 -0.752001
-0.165952 -0.055505 0.137512 0.155158 -0.415887 0.896082
0.0383486 0.352528 -0.0948213 -0.255208 0.946791 -0.196101
0.547754 -0.125213 -0.169377 0.982167 0.187473 -0.0141992
0.255645 -0.112446 -0.270829 0.0270718 -0.253501 -0.966956
0.490183 0.0801832 -0.212021 0.962407 0.268308 -0.0422356
0.0839251 -0.210611 0.127357 0.290577 -0.942423 0.165543
0.388187 -0.104175 0.234642 0.253523 -0.95036 0.180396
0.490592 0.11932 0.151998 0.964569 0.262176 -0.029505
-0.22501 0.223288 0.253022 -0.0420388 0.209287 0.97695
0.458621 0.230704 0.076985 0.967974 0.249543 -0.027462
-0.0422541 0.376556 0.149098 -0.177222 0.815476 0.55099
0.496936 -0.0130039 -0.284102 0.0166611 -0.176645 -0.984134
-0.0954569 0.317051 -0.0838425 -0.161903 0.961929 -0.220181
-0.250662 0.294878 0.041566 -0.308475 0.946665 -0.0931012
-0.248617 0.261538 -0.138561 -0.962987 -0.267997 0.0288633
0.329084 0.30029 -0.254605 -0.244427 0.733301 -0.634448
0.403572 0.410609 -0.130847 0.957624 0.281866 -0.0592234
0.14923 0.395989 -0.027639 -0.258962 0.948237 -0.183809
-0.0773012 -0.203568 0.302066 0.209374 -0.636956 0.741923
0.00759346 -0.245639 -0.248788 0.0933321 -0.509984 -0.855106
0.371447 -0.00761545 0.304322 0.000931877 0.2376 0.971363
0.279913 0.434451 0.213494 -0.140349 0.675855 0.723549
-0.137677 -0.107137 0.267527 -0.955443 -0.268106 0.123478
0.18688 -0.233501 -0.147157 0.25894 -0.949636 0.176469
-0.162198 -0.0522177 -0.163129 -0.961063 -0.273387 0.0402256
0.277148 0.437484 0.0172772 -0.262873 0.94844 -0.177083
0.358691 0.317337 0.246797 -0.0832884 0.187344 0.978757
-0.0497325 -0.246224 0.117165 0.219147 -0.948965 0.226804
-0.134749 0.333882 0.0622127 -0.281404 0.947324 -0.152938
0.499004 0.0902253 0.290082 -0.0189484 0.167268 0.985729
0.211765 0.0251684 -0.297391 0.0589254 -0.218642 -0.974024
-0.238429 0.212229 -0.30271 -0.978852 -0.203333 0.0224752
0.149386 0.364176 -0.180338 -0.249597 0.942889 -0.220593
0.232356 0.104733 0.283916 0.018754 0.138261 0.990218
0.10359 0.153327 0.269637 -0.0131234 0.179246 0.983717
0.435291 0.223509 -0.330836 -0.0390462 -0.172648 -0.984209
0.197315 0.351545 -0.287488 -0.141503 0.514647 -0.845645
-0.0347299 -0.296392 -0.158918 0.310029 -0.938871 0.149674
-0.0492966 -0.0447162 0.303351 -0.0350458 0.193314 0.980511
0.443137 0.256445 -0.19885 0.961659 0.271876 -0.0359911
-0.0926072 -0.291142 -0.0452427 -0.963234 -0.266419 0.0346432
0.473747 0.149709 -0.112905 0.949303 0.304531 -0.0779994
0.430657 0.345836 0.149417 0.982881 0.181963 -0.0288952
0.0953048 -0.0288334 0.302592 -0.0811895 0.218523 0.972448
0.528261 -0.0302329 0.0735336 0.971877 0.235296 -0.00952899
0.460867 -0.235258 -0.0267569 0.255657 -0.9494 0.182428
0.0260948 -0.254462 -0.0290103 0.28581 -0.947509 0.143313
0.135904 -0.172346 0.240351 0.276012 -0.949079 0.151876
0.0915246 0.33516 0.13696 -0.0653531 -0.037107 0.997172
-0.327778 -0.00303908 -0.00310917 -0.289017 0.953858 -0.0813852
0.494072 0.0890176 -0.00679092 0.96936 0.245213 0.0145698
-0.175763 -0.0697223 -0.0316439 -0.980737 -0.19531 0.00298848
0.54277 -0.160432 0.0422401 0.965635 0.258414 -0.0277558
-0.071293 0.241758 0.253118 -0.0672047 0.185871 0.980273
-0.210606 0.0754196 0.115685 -0.967679 -0.250525 0.0288764
0.0774193 0.0413017 -0.303021 0.0191018 -0.192038 -0.981202
0.297252 -0.160986 0.0684875 0.30667 -0.939285 0.153938
0.303867 -0.111361 -0.170845 0.104725 -0.545387 -0.831617
-0.0245339 0.313167 -0.203219 -0.284855 0.950298 -0.12566
0.365734 -0.165761 -0.069074 0.285776 -0.952895 0.101606
-0.133559 -0.163673 -0.130752 -0.963345 -0.266153 0.0336048
-0.135663 -0.161248 -0.265546 -0.965093 -0.261096 0.0205875
0.30187 0.207823 0.265412 -0.0347416 0.227154 0.973239
0.551338 -0.220256 -0.0968159 0.88819 -0.454302 0.0687545
0.539018 -0.0497847 0.242015 0.959916 0.27651 -0.0458602
-0.162629 -0.017932 -0.297416 -0.0301681 -0.147253 -0.988639
-0.029466 0.109664 0.275753 -0.013458 0.153656 0.988033
-0.23009 0.128697 -0.0177337 -0.971713 -0.236032 0.00794988
0.108961 -0.140955 -0.266897 0.0372078 -0.198246 -0.979446
0.16506 0.368003 0.2293 -0.200448 0.807173 0.555241
0.281011 -0.141067 0.202471 0.256827 -0.948488 0.185501
0.195705 -0.205739 -0.0200818 0.298115 -0.942397 0.151704
0.445242 0.269361 -0.0794319 0.956532 0.289065 -0.038566
0.0209439 -0.104792 0.228388 0.372661 -0.787083 0.491553
-0.497742 -0.0791194 -0.0162342 -0.9684 -0.248339 0.0230181
-0.150885 0.331752 0.21448 -0.215311 0.753525 0.621162
