ply
format ascii 1.0
comment Created by Open3D
element vertex 830
property double x
property double y
property double z
property double nx
property double ny
property double nz
end_header
0.0853474 -0.250367 -0.190066 0.189597 -0.756786 -0.625562
0.542109 -0.130332 0.153394 0.980196 0.194068 -0.0394213
0.0166905 0.0657674 -0.309981 0.0462434 -0.229349 -0.972245
-0.0942846 -0.136262 -0.274727 0.0159379 -0.131142 -0.991235
-0.222259 0.167239 -0.220336 -0.970468 -0.239377 0.0298411
-0.238532 0.232436 -0.108643 -0.974893 -0.216142 -0.0535407
-0.106799 0.349262 0.111236 -0.316768 0.940937 -0.119563
0.446577 -0.157367 0.0205773 -0.938139 -0.331776 0.0990933
0.191119 0.0744553 0.282231 -0.0457276 0.21236 0.976121
0.214419 -0.153899 0.239406 0.211002 -0.950123 0.22966
0.117979 0.230637 0.256521 0.0407888 0.402363 0.914571
0.280377 0.415777 -0.109138 -0.155636 0.956071 -0.248407
0.411508 0.373014 -0.130313 0.962491 0.268219 -0.0408637
-0.184616 0.265786 0.143359 -0.0182016 -0.167701 0.98567
0.151242 0.354891 0.237042 -0.0237155 0.181227 0.983155
-0.140087 -0.148687 -0.22351 -0.972751 -0.231676 0.00904274
0.054999 0.344528 0.224095 -0.184133 0.802337 0.567759
0.258291 0.313383 0.244471 0.0894096 0.129411 0.987552
0.343838 0.411269 0.225036 -0.0118544 0.109838 0.993879
0.0744199 0.36178 -0.0823026 -0.244316 0.948941 -0.199554
-0.0604026 0.181233 -0.333397 0.00231469 -0.130413 -0.991457
-0.501204 -0.0477888 0.00515422 -0.322582 0.946426 -0.0147961
-0.111161 -0.070108 -0.28742 -0.077695 -0.173434 -0.981776
-0.147982 0.174826 -0.330566 -0.05406 -0.0325685 -0.998006
0.333902 -0.00347953 -0.289327 -0.0227009 -0.17057 -0.985084
0.00436493 0.378393 0.16252 -0.227188 0.75121 0.619733
0.147435 0.154577 -0.321283 0.031445 -0.220448 -0.974892
0.249155 -0.163467 0.13765 0.312618 -0.945533 0.0907637
0.412514 -0.164831 -0.117904 0.142574 -0.934683 0.325639
-0.344739 -0.0655448 -0.0210519 0.15555 -0.649362 -0.744401
0.181661 0.227516 -0.337347 -0.00205759 -0.109268 -0.99401
-0.023786 0.073701 0.287032 0.0808009 0.151571 0.985138
0.416409 0.275141 0.255806 0.089498 0.00440831 0.995977
-0.324188 -0.0250502 -0.0289707 -0.154268 0.429618 -0.889736
0.532516 -0.0777093 -0.164124 0.973657 0.228009 -0.00212555
0.136281 0.201855 -0.331264 0.210143 -0.286528 -0.934742
0.327234 0.469337 0.111551 -0.236652 0.936675 -0.25814
-0.00785054 -0.16627 -0.266125 0.0169326 -0.175572 -0.984321
0.25739 0.317294 -0.283712 0.199103 -0.752057 0.628306
-0.187672 -0.0418604 -0.0858442 -0.96405 -0.264111 0.0292078
0.111994 -0.134141 0.278666 0.24501 -0.659862 0.710318
0.410881 0.389758 0.234918 0.00558535 0.157503 0.987503
0.268893 0.355705 0.23595 -0.0607949 0.22834 0.971681
0.441637 -0.258702 -0.102441 0.194507 -0.958098 0.210274
-0.0175791 0.268095 0.249778 -0.0107579 0.103082 0.994615
0.340679 0.176079 0.265637 0.0984983 0.0780313 0.992073
0.324042 -0.0520662 0.210214 0.0706695 0.438554 0.895922
-0.0476882 -0.25738 0.0871325 0.408187 -0.911994 -0.040626
0.43327 0.28534 -0.160605 0.943559 0.325046 -0.0635821
0.250762 0.0469611 0.290883 0.00919144 0.0490682 0.998753
0.537079 -0.177712 0.156323 0.791052 -0.5948 0.143003
-0.207816 0.273662 0.183952 0.244716 -0.718664 -0.650873
0.442473 0.0144611 0.222395 0.294774 -0.916662 0.269885
0.533991 -0.0345329 0.191896 0.986906 0.146096 -0.0683559
0.150495 0.361481 0.181995 0.0214456 -0.448068 -0.893742
0.219395 -0.164494 0.171707 0.24743 -0.950814 0.186363
-0.423461 -0.0743717 -0.0288463 0.0561514 -0.12714 -0.990294
0.0716235 0.340823 -0.217823 -0.31156 0.947504 -0.0718856
-0.13803 0.0466752 0.285014 -0.0207765 0.149318 0.988571
0.325889 0.459519 0.0621421 -0.160994 0.953701 -0.254037
0.53034 -0.169124 0.227916 0.0120431 0.144776 0.989391
-0.178343 0.0584079 0.247998 -0.995543 -0.0940453 -0.00699703
-0.191195 0.0431034 -0.23112 -0.901063 -0.390236 0.189212
0.0446152 0.308422 0.18069 -0.229445 0.44568 -0.865289
-0.111247 0.105075 0.27564 -0.0417817 0.215096 0.975699
0.4852 0.0446175 0.30081 -0.0225996 0.178157 0.983742
-0.0584499 -0.163311 -0.269924 0.0239666 -0.196149 -0.980281
0.113839 -0.0812261 -0.280147 0.0814867 -0.231257 -0.969474
-0.116302 0.274942 -0.280004 -0.382629 0.909324 -0.163478
-0.103952 0.0981633 -0.316346 0.0076482 -0.160983 -0.986928
0.490981 0.000559333 0.202576 -0.00807999 0.133762 0.990981
0.0236053 0.381542 0.0873658 -0.323908 0.940393 -0.103652
-0.240213 0.271504 0.0251657 -0.97428 -0.208038 0.0865903
-0.179369 0.235618 0.252502 -0.111287 0.366854 0.923598
0.287978 -0.0777616 0.23125 -0.290402 0.933201 0.211665
0.479492 0.147686 0.0641739 0.960108 0.277479 -0.0346058
0.321838 -0.0415996 0.300092 0.181529 -0.557667 0.809972
0.0109254 -0.277649 -0.130592 0.168311 -0.954627 0.24568
0.527835 -0.0235351 0.110897 0.974147 0.225902 0.00253153
0.212565 0.383207 -0.191435 -0.308897 0.942528 -0.127372
-0.0892979 0.216248 -0.317667 -0.169462 0.541851 -0.823213
0.282889 0.425283 -0.0657818 -0.239153 0.951631 -0.192885
0.0103788 -0.0805196 -0.278969 0.0935709 -0.209379 -0.973347
0.0349851 -0.128812 0.301283 0.168336 -0.546169 0.820587
-0.112033 -0.219731 0.0730573 -0.962192 -0.271 0.0273208
-0.10259 -0.272475 -0.131342 -0.987891 -0.154609 0.0129467
-0.241436 0.282499 0.128343 -0.968771 -0.247638 0.0125403
0.115489 -0.249893 -0.138764 0.302994 -0.946379 0.112075
-0.0928769 -0.000359231 0.294406 -0.0774296 0.243853 0.966716
0.120136 -0.00220355 0.301196 -0.0136593 0.140581 0.989975
0.068494 0.235335 0.256444 -0.168787 0.227481 0.959043
0.18577 0.0635237 -0.303475 0.01562 -0.202873 -0.979081
-0.475052 -0.0712763 0.0418889 -0.0976623 0.0347957 0.994611
-0.0289692 -0.202098 0.289484 0.219152 -0.780883 0.584974
0.0235705 0.244549 0.251925 0.102293 0.134517 0.985617
-0.143317 0.344424 0.142132 -0.29631 0.944548 -0.141528
0.409485 0.399759 -0.00785665 0.974408 0.223563 0.0234118
-0.219906 0.182251 0.0137562 -0.993334 -0.0733995 -0.0888847
-0.0456242 -0.234992 -0.200123 -0.117725 0.544588 0.8304
-0.207254 0.146228 0.258257 -0.974012 -0.223557 -0.0363643
-0.102121 -0.212257 0.286874 -0.9654 -0.259428 0.0264651
-0.215015 0.0852698 0.0779046 -0.97157 -0.236744 0.0019569
0.237863 0.446971 0.10292 -0.227559 0.94368 -0.240177
-0.233326 0.193105 -0.270328 -0.930681 -0.354836 0.0890131
-0.139333 -0.131332 -0.0791098 -0.939177 -0.330684 0.0927091
0.408743 -0.0150557 -0.289 0.0333675 -0.194905 -0.980254
-0.0329709 -0.277708 -0.0670409 0.419106 -0.900058 0.119352
0.212459 0.352023 0.138642 -0.140459 0.627507 0.765837
-0.385176 -0.0344885 0.0328932 -0.216328 0.607249 0.764494
0.0954806 -0.0814978 0.241548 0.247121 -0.968331 -0.0355909
0.542004 -0.0778706 0.172394 0.246579 -0.947536 0.203405
0.528659 -0.219489 -0.0436867 0.416083 -0.90857 0.0370968
0.128399 0.309377 -0.301572 -0.275791 0.529185 -0.802435
0.388772 0.490952 0.164713 -0.213156 0.976034 0.043849
-0.0498289 0.321597 -0.128304 -0.225296 0.951432 -0.209808
-0.175542 2.48661e-05 0.148255 0.0734986 -0.0274717 0.996917
0.457586 0.250429 0.259187 0.934341 0.354802 -0.0335184
0.106057 0.413278 0.151388 -0.213227 0.806617 0.551274
-0.126575 -0.125589 0.3155 0.0133841 0.111831 0.993637
0.472758 0.160432 0.0172337 0.954589 0.295623 -0.0369744
0.507063 -0.0764447 0.214491 0.0204239 0.174809 0.984391
0.54547 -0.12086 -0.136342 0.901399 0.426136 -0.0767367
-0.169257 -0.0982888 -0.059013 -0.897848 -0.417734 0.139166
-0.0259186 -0.222259 0.21925 0.239605 -0.952271 0.189129
-0.18083 0.00115704 -0.300014 -0.0319136 -0.176064 -0.983861
0.0580806 0.366793 -0.0368919 -0.251522 0.949505 -0.187557
-0.0718788 -0.247113 -0.159895 -0.184763 0.593213 -0.783557
0.187268 0.361842 -0.279874 -0.268232 0.947716 -0.172878
0.532352 -0.111995 0.192567 0.968197 0.249159 -0.0226745
-0.219188 0.147528 -0.014026 -0.209941 0.972489 -0.100947
0.520892 -0.194832 0.103124 0.287696 -0.953785 0.0867505
0.515056 0.00815493 0.0397425 0.981527 0.190413 -0.0186237
0.0958302 0.387444 0.000648061 -0.29239 0.946503 -0.136531
0.257251 0.435165 0.00677493 -0.301008 0.945888 -0.121201
-0.100475 -0.042655 0.303725 0.030923 0.0639092 0.997477
-0.218219 -0.037135 0.0282952 0.226287 -0.689391 0.688138
-0.213424 0.169082 0.215359 -0.957385 -0.286333 0.0377865
-0.206305 0.0798394 -0.303183 -0.950133 -0.280887 0.135461
0.167835 0.1771 0.265306 0.00395111 0.168051 0.98577
0.249571 -0.152786 0.191235 0.294326 -0.9417 0.163015
0.0953723 0.217105 -0.326983 0.0144298 -0.171159 -0.985138
-0.0184334 0.0342648 -0.302306 0.0251925 -0.177719 -0.983759
0.0689091 0.0652811 -0.305502 0.00850342 -0.325894 -0.945368
0.0721677 -0.162844 0.271483 0.32754 -0.541826 0.774043
0.424295 0.347402 -0.0965177 0.963139 0.265961 -0.0403437
0.299126 0.261136 -0.338853 -0.0643169 -0.0780008 -0.994876
0.00634386 0.113615 -0.318214 -0.00941122 -0.113372 -0.993508
0.519262 -0.144968 -0.17243 0.307811 -0.939706 0.149015
0.440983 0.290643 0.143107 0.876621 0.456378 -0.152495
0.340975 -0.156682 0.024419 0.316384 -0.93981 0.129067
0.185835 0.335161 0.165642 -0.236518 0.920787 -0.31018
0.307186 0.431564 0.217856 -0.0864538 0.546489 0.832992
0.298154 -0.123767 0.248741 0.22743 -0.589978 0.774727
-0.16151 0.286645 -0.150842 -0.298721 0.94688 -0.119101
0.159343 0.402929 -0.0145461 -0.291951 0.94279 -0.160968
-0.150863 0.244517 0.163437 -0.250693 0.964271 0.0856431
0.189207 -0.0560756 0.22456 0.245529 -0.903327 0.351731
-0.0870369 0.189933 -0.277139 -0.101967 0.75624 0.6463
0.00953281 0.0615207 0.286691 -0.0778971 0.243033 0.966885
-0.0373792 -0.142639 0.319712 0.0342002 0.0628853 0.997435
0.421266 0.334139 -0.174362 0.976998 0.212622 0.0163125
-0.100579 0.0406899 0.286285 -0.0274074 0.198391 0.97974
0.471337 0.00206021 0.304071 -0.0187757 0.131299 0.991165
0.0547229 -0.256935 -0.070193 0.240689 -0.944615 0.223094
0.047644 0.190327 -0.329769 0.127873 -0.227171 -0.965423
0.305867 -0.199479 -0.181726 0.184318 -0.812876 -0.552504
-0.111433 -0.218925 0.117558 -0.962061 -0.269562 0.0421251
0.0210676 -0.208268 0.236882 0.235565 -0.949174 0.208751
-0.218009 0.0179137 -0.0199578 -0.209684 0.738271 -0.641084
0.189396 0.309016 -0.266628 0.173389 -0.984172 0.0366367
0.0673719 0.287492 0.247394 -0.016545 0.199592 0.979739
0.276144 0.318645 -0.324181 -0.306085 0.601402 -0.737989
-0.118486 -0.184233 0.124515 -0.884814 -0.464062 -0.0418357
-0.160912 -0.118819 0.0182661 -0.970051 -0.241984 0.0211032
0.189764 0.374616 0.232328 -0.230712 0.864425 0.446701
0.0799898 0.240524 -0.240213 -0.168748 0.479736 -0.861033
0.305096 0.0099054 0.300928 -0.00730688 0.164319 0.98638
-0.165799 0.331955 0.212378 -0.269444 0.638364 0.721035
0.166567 -0.149385 0.259682 0.0755433 -0.546612 0.833972
0.495517 0.0579873 -0.207051 0.964189 0.263362 -0.0313122
0.167494 -0.191718 0.0899255 0.228373 -0.944445 0.236367
0.0342037 -0.222519 0.152014 0.108322 -0.965207 0.237997
-0.0118008 0.215108 0.257602 -0.0587111 0.35435 0.933268
0.382215 0.428171 0.170208 0.173783 -0.712858 -0.679436
0.391138 0.475268 0.0561649 0.951756 0.301972 -0.0545299
0.210679 -0.128981 -0.173765 0.114944 -0.793652 -0.597415
0.171459 -0.220658 -0.0692846 0.209439 -0.954657 0.21158
-0.00665471 -0.288176 -0.171477 0.155541 -0.969792 0.187909
-0.137482 -0.0263412 -0.292932 -0.0365847 -0.120582 -0.992029
0.3749 0.226449 0.259609 -0.0486218 0.201037 0.978376
0.283211 0.453439 0.0954717 -0.2396 0.947829 -0.210266
0.439991 0.272638 -0.24223 0.979223 0.202775 -0.00223544
0.0993714 0.329907 0.237198 -0.061528 0.213417 0.975022
0.264796 0.363479 -0.311977 -0.927755 -0.371487 0.0356195
-0.194173 0.295334 -0.0474439 -0.251686 0.949638 -0.186659
0.286118 -0.12902 -0.165784 -0.0436777 -0.163639 -0.985553
-0.0574694 0.0430304 -0.307727 0.00368776 -0.169448 -0.985532
0.260911 0.45851 0.15092 -0.317921 0.946305 0.0585942
-0.00729002 0.206191 -0.273115 -0.228432 0.831307 0.506703
0.471977 -0.253808 -0.134444 0.299576 -0.944365 0.135753
0.208095 0.0163403 0.297838 -0.0257646 0.226754 0.973611
-0.035934 -0.204583 -0.261067 0.0121445 -0.170971 -0.985201
0.355968 -0.160926 -0.0198986 0.271642 -0.946725 0.172982
0.273376 -0.0429033 0.254336 0.0940984 -0.458801 -0.883542
0.505411 0.0635599 0.152007 0.973424 0.227215 0.0286238
0.303944 0.128587 0.278702 0.0691269 0.100287 0.992554
-0.00189473 -0.166201 0.313487 0.0858993 -0.357939 0.929785
0.417026 -0.118411 -0.268846 0.0559768 -0.281239 -0.958004
0.0742051 0.32307 0.138713 -0.0222122 0.388542 0.921163
-0.151237 -0.0441608 0.212977 -0.982478 -0.184967 -0.0228775
-0.177652 -0.0120347 -0.246714 -0.977575 -0.210583 -0.00129756
0.0208996 0.00878125 -0.300844 -0.176414 -0.118065 -0.97721
0.195116 0.383908 -0.150805 -0.0608884 0.927931 -0.367744
0.276069 -0.163868 0.0859051 0.26188 -0.945499 0.193522
0.487794 -0.112098 -0.264063 0.274782 -0.507762 -0.816501
0.11679 -0.205783 0.119666 0.0988012 -0.965044 0.24275
0.354333 0.207133 -0.324286 0.0263433 -0.0925073 -0.995363
-0.189871 0.0405119 -0.273684 -0.960726 -0.2719 0.0554593
0.426446 -0.199258 -0.131624 -0.992399 -0.121295 0.0207795
0.269889 0.445608 0.0606348 -0.378984 0.92435 -0.0441471
-0.0223446 -0.255584 0.0482173 0.307962 -0.941713 0.135408
-0.00451317 0.284823 0.1476 -0.212108 0.789616 0.575775
-0.21476 0.146847 -0.0796315 -0.965061 -0.260296 0.030057
0.224218 0.391455 0.15385 0.275678 -0.942232 0.190264
0.360679 -0.0147428 0.249786 0.172124 -0.702054 -0.691009
-0.0635023 -0.307356 -0.184595 0.261521 -0.960249 -0.0976108
-0.09649 0.317024 -0.0864679 -0.3126 0.939106 -0.142696
-0.142346 -0.0923458 0.181323 -0.953587 -0.29297 0.0695789
0.399085 0.413159 -0.17327 0.98118 0.191125 0.0275073
0.0137711 0.334787 0.22878 -0.188896 0.84387 0.502197
0.496395 0.0883996 -0.0479484 0.972153 0.232924 -0.0257803
0.252141 0.353024 0.162504 -0.21437 0.821049 -0.529079
0.313698 0.424552 -0.124128 -0.245605 0.951651 -0.184495
-0.278234 -0.0438664 0.0292797 0.275105 -0.430246 0.859771
0.206648 0.398464 0.205441 -0.188806 0.814766 0.548187
0.467646 0.187287 0.0860445 0.98543 0.170029 0.00419877
-0.203747 0.327195 0.191576 -0.230057 0.937907 0.259624
0.110014 0.355919 0.142597 0.251443 -0.762717 0.595852
0.0263206 0.30833 0.139783 -0.039708 0.267994 0.962602
0.469254 0.211032 0.209086 0.981645 0.190512 -0.00887429
-0.0379745 0.354817 0.180449 -0.148287 0.846494 0.511331
-0.00345475 -0.254928 0.011551 0.2473 -0.947261 0.203812
-0.0609499 -0.0967888 -0.277949 0.136336 -0.258059 -0.956461
0.516105 0.011606 0.303633 0.0325594 0.045725 0.998423
0.00755478 0.368036 0.0304524 -0.307514 0.95109 0.0293847
0.482333 -0.021491 0.234432 -0.254144 0.902745 -0.347078
0.371703 -0.164302 -0.0695858 0.2525 -0.947837 0.194549
0.383905 0.388355 0.157284 -0.188709 0.936409 -0.295849
0.545684 -0.152518 0.11611 0.965762 0.257981 0.0273702
-0.216111 0.301122 0.0132625 -0.251523 0.950788 -0.18094
0.204763 0.300116 0.247907 -0.0156889 0.147882 0.988881
0.399456 0.446597 0.0280515 0.996848 0.0680239 0.0408198
0.213949 -0.208077 -0.0626698 0.402767 -0.915103 0.019093
0.275002 -0.17436 0.0407418 0.256348 -0.918321 0.301617
0.0757992 0.343465 0.181175 0.153755 -0.646292 -0.74744
0.5461 -0.193979 -0.0721853 0.983819 0.137667 0.114664
0.265375 0.167235 0.268863 -0.019222 0.232977 0.972292
0.0217218 0.344698 -0.12616 -0.23948 0.936798 -0.255065
-0.229528 0.258633 -0.203043 -0.224863 0.941914 -0.249468
0.152556 0.337337 0.139995 -0.152502 0.491419 0.857467
-0.198669 0.131164 0.176382 -0.966652 -0.254564 0.0279463
-0.168873 0.014669 0.273046 -0.956245 -0.288933 0.0459628
-0.0702202 0.327888 0.197055 -0.258632 0.825387 0.501842
0.182858 -0.181945 -0.174422 -0.299524 0.867102 -0.398019
-0.209703 0.104421 -0.215555 -0.985411 -0.169936 0.00931465
0.156685 -0.0691592 0.251991 0.200558 -0.809793 -0.551373
0.478518 0.179257 0.174298 0.997839 0.0650439 0.00933547
0.123502 -0.232563 -0.0562555 0.333783 -0.934524 0.123509
0.0186888 0.182029 0.264517 0.00999395 0.145747 0.989271
-0.230843 0.196616 -0.0291934 -0.975006 -0.220765 -0.0250083
0.392613 -0.142699 -0.230092 0.213117 -0.825423 -0.522741
0.402478 0.185693 0.270168 -0.0199785 0.13063 0.99123
-0.0360291 -0.143246 0.215889 0.0177359 0.090407 0.995747
-0.11973 -0.175564 0.182401 -0.976721 -0.213569 -0.0201129
-0.121729 -0.18695 0.0389522 -0.964379 -0.262846 0.0297491
0.310358 -0.159289 0.0595483 0.36971 -0.923333 0.103785
0.28369 -0.0777363 -0.275652 0.0193744 -0.180159 -0.983447
-0.232687 0.225303 0.0141337 -0.96283 -0.265658 0.0488395
0.32139 -0.133144 0.189299 0.235204 -0.951442 0.198587
0.444825 0.239262 -0.137353 0.980105 0.193995 0.041964
-0.0885627 -0.261685 0.10024 0.267487 -0.948428 0.170103
0.354332 0.269754 0.257745 -0.0167281 0.228801 0.97333
0.40825 -0.0349933 0.309518 -0.00494834 -0.161714 0.986825
-0.0599428 0.344793 0.000942717 -0.294815 0.942622 -0.15668
0.440916 -0.0692642 0.282595 0.268214 -0.751652 0.602561
0.135449 -0.231156 -0.198028 0.0351788 -0.866092 -0.498645
0.451031 0.258661 0.114978 0.969371 0.244944 -0.0179272
-0.198004 -0.00686278 -0.116405 -0.931471 -0.363291 -0.0195546
0.346104 0.111107 0.283349 0.0139367 0.175808 0.984326
-0.158053 -0.0436998 0.166525 -0.946841 -0.289294 0.140719
0.136912 0.0646159 -0.304563 0.0156295 -0.205781 -0.978473
-0.233663 0.202281 -0.190677 -0.972933 -0.231054 -0.00379557
-0.14794 0.300926 -0.0955478 -0.282654 0.946068 -0.158309
0.0253634 -0.117433 -0.27857 0.0248274 -0.101799 -0.994495
0.332074 0.306423 -0.253168 -0.0917738 0.525279 -0.845967
-0.200608 0.0397602 0.141473 0.0179603 0.193786 0.980879
-0.193477 0.0935279 0.197858 -0.942509 -0.33416 0.00372525
0.541767 -0.0694448 0.0950499 0.926186 0.376106 -0.0268891
0.528657 -0.113806 0.0746362 0.939875 0.295925 -0.170482
0.360635 0.0318995 -0.294398 -0.0706053 -0.100221 -0.992457
0.489576 -0.129069 0.219898 -0.0748998 0.204598 0.975976
-0.187962 -0.00417225 0.087742 -0.949168 -0.277572 0.148441
0.329241 0.387531 0.132411 -0.0724948 0.342334 0.936777
0.132357 -0.0830605 0.216436 0.204679 -0.399562 0.893564
-0.186428 0.248064 -0.293439 -0.0622271 0.773173 -0.631135
0.4452 0.260435 -0.193854 0.952663 0.303341 -0.0204158
0.349418 -0.0519858 0.249471 -0.171214 0.638266 -0.750535
-0.188407 0.202449 -0.324151 -0.141569 0.313706 -0.938907
-0.201515 0.0894852 0.119455 -0.130274 0.57193 0.809892
0.487564 0.0816172 -0.302692 0.97958 0.16562 -0.113988
0.3161 -0.0427254 -0.282284 0.0163599 -0.168979 -0.985484
0.427897 0.334542 0.0879924 0.967303 0.251724 -0.0310021
0.0569645 -0.21701 -0.17321 -0.247508 0.904383 -0.347607
0.335549 0.157512 -0.32118 -0.0293948 -0.12648 -0.991534
0.153414 0.42036 0.118659 -0.200811 0.936265 -0.288242
-0.198605 0.00861604 -0.0631955 -0.98443 -0.170509 0.0427148
0.345703 -0.167971 -0.207334 0.20172 -0.759111 -0.618918
0.322158 0.0821081 -0.302381 0.068884 -0.380955 -0.922024
0.234928 0.434827 0.0677601 -0.226914 0.936058 -0.268898
-0.0204732 0.147903 -0.323319 -0.0256766 -0.117952 -0.992687
0.359187 0.106252 -0.305852 0.0292458 -0.293369 -0.955552
-0.122935 -0.198587 -0.216434 -0.943106 -0.315197 0.105841
-0.140342 0.232584 -0.318791 -0.150643 0.483061 -0.862531
-0.109197 0.277421 0.246817 0.0433165 0.159692 0.986216
0.543219 -0.174521 0.0211315 0.94521 0.31714 -0.0774682
-0.167346 -0.036779 -0.203186 -0.973507 -0.220286 -0.0613049
0.0448562 0.375051 0.011369 -0.270769 0.950151 -0.154587
0.0641342 -0.213764 0.126281 0.25645 -0.948921 0.183797
-0.093802 -0.253152 0.155128 0.160481 -0.960298 0.228196
-0.300552 -0.0140217 0.0279969 -0.102863 0.628441 0.771026
-0.130243 -0.143773 0.105299 -0.88621 -0.420087 0.195341
0.149896 -0.0170769 -0.289115 0.0370338 -0.243042 -0.969309
0.0874663 0.0209732 0.290471 -0.0350965 0.00121891 0.999383
0.409785 0.0281707 -0.292828 0.259306 -0.216231 -0.941278
0.0677954 0.348798 -0.150678 -0.257936 0.94801 -0.186404
-0.135108 -0.177326 -0.262702 -0.899098 -0.427555 0.0939137
0.444009 -0.161499 -0.156895 0.218041 -0.951567 0.216743
0.399108 0.457549 0.191281 0.886561 0.461964 -0.0244505
0.434763 -0.203815 0.118981 -0.935478 -0.350839 0.0423366
0.0399336 0.0885524 0.284148 -0.0374484 0.25489 0.966245
0.400352 0.113059 -0.307039 -0.125003 -0.118945 -0.985001
0.439063 -0.243878 -0.0576255 -0.962687 -0.244881 -0.115182
0.435927 0.0245887 0.306421 -0.0895477 0.241495 0.966262
0.238083 0.209671 0.266373 -0.0213447 0.0823418 0.996376
0.402212 -0.176633 -0.178294 0.212138 -0.950014 0.229064
0.279145 0.381677 -0.278729 -0.269289 0.947889 -0.170267
-0.103862 0.321543 -0.0410665 -0.110983 0.962859 -0.246142
-0.234619 0.243491 0.146188 0.151894 -0.0880828 0.984464
0.427661 0.306209 -0.211542 0.980195 0.192608 0.0460456
-0.186961 0.030718 -0.169503 -0.951601 -0.300105 0.0662808
-0.135366 0.0214898 -0.302497 -0.0388401 -0.107097 -0.99349
0.225839 0.110819 0.281247 -0.0694239 0.201675 0.976989
0.538432 -0.0768421 -0.109584 0.985586 0.167525 0.0235556
-0.0727922 -0.249811 -0.252009 0.234461 -0.410408 -0.881245
0.399792 0.144401 0.279475 -0.000508578 0.164151 0.986435
0.214614 0.31857 -0.313058 -0.16632 0.540777 -0.824559
-0.247443 0.260878 -0.162239 -0.165268 0.964321 -0.206813
0.19882 -0.0947244 0.255981 -0.144716 0.632935 -0.760559
0.474885 0.134887 -0.158905 0.967564 0.251554 -0.0232627
0.269063 -0.142671 -0.214837 -0.0855271 0.382521 0.91998
0.222126 -0.133259 -0.268759 -0.123202 -0.102599 -0.987064
0.419427 -0.119236 0.116227 -0.960537 -0.275891 0.0353922
0.441906 -0.192257 0.228391 0.280096 -0.945255 0.167451
0.508713 0.0284269 -0.0492807 0.933563 0.349217 -0.0806659
0.0126405 -0.266734 -0.226751 0.197804 -0.71304 -0.672642
0.315778 -0.149266 -0.195886 -0.165528 0.98618 0.00703232
-0.00355253 -0.219864 -0.155395 -0.220668 0.446339 -0.86723
-0.210965 0.193223 0.25675 -0.0254895 0.193101 0.980848
-0.21562 0.142948 -0.188305 -0.982171 -0.187872 -0.00671078
0.5133 -0.0215327 -0.236055 0.980199 0.197999 -0.00249232
-0.13023 -0.172346 -0.0575545 -0.987738 -0.152039 -0.0354681
0.0062536 -0.0699902 0.310989 -0.0182576 0.14598 0.989119
-0.0192149 -0.233035 -0.25602 0.0370103 -0.159684 -0.986474
-0.042927 0.239603 -0.245319 0.183237 -0.754244 -0.630507
-0.0669655 -0.241423 0.192748 0.220687 -0.954884 0.198732
0.476263 -0.00518711 -0.285363 0.00685598 -0.0831025 -0.996517
0.132281 -0.120652 0.241287 -0.286449 0.955429 0.0714272
0.129997 0.379808 -0.0764688 -0.211234 0.957064 -0.198517
0.315656 0.226949 -0.330917 0.0468495 -0.240535 -0.969509
0.150707 -0.148067 -0.168793 0.144542 -0.6971 -0.702253
-0.175904 0.18818 -0.22932 0.0970094 -0.0578812 -0.993599
0.471028 0.149208 -0.229185 0.980274 0.19737 0.0104027
-0.166728 -0.00429426 0.223129 -0.956742 -0.275926 0.0922455
-0.109561 0.318687 0.229695 0.986835 0.155373 0.0448973
0.512747 -0.234416 -0.139246 0.0207894 -0.187774 -0.981992
-0.0604178 -0.207402 -0.162947 0.185978 -0.659426 -0.728402
0.350766 0.428658 -0.158374 -0.248815 0.947824 -0.199298
0.169252 0.31821 -0.30366 -0.164561 0.534629 -0.82891
-0.34579 -0.0224841 0.0291767 -0.131021 0.62546 0.769177
0.305193 0.0748555 0.287571 -0.0245496 0.100188 0.994666
0.380696 0.316876 0.244398 0.0308819 0.153175 0.987716
0.466443 0.184661 -0.0450583 0.96582 0.257743 -0.0275852
0.492666 -0.0606084 0.275008 0.216057 -0.73686 0.640591
0.281395 0.435143 -0.0256844 -0.271385 0.950849 -0.149119
-0.116007 0.174457 -0.252682 -0.298069 0.934426 -0.194945
0.270689 0.451173 0.197169 -0.207764 0.849658 0.48468
0.425522 0.214184 -0.324386 -0.0331784 -0.137922 -0.989887
0.276351 0.283787 -0.260733 -0.342091 0.907306 -0.244478
-0.202642 0.0327173 0.0561303 -0.985096 -0.165888 -0.0454634
0.37489 0.381463 0.23335 -0.10735 0.221907 0.96914
0.409638 0.368705 -0.183483 0.998259 0.0217536 0.05483
-0.470447 -0.0729095 -0.0319031 -0.0401612 0.238596 -0.970288
0.544827 -0.098824 -0.0775518 0.979132 0.20037 -0.0339545
0.0470326 -0.125175 0.260055 -0.169207 0.299705 -0.938907
0.369906 0.359333 -0.275275 0.369244 -0.926994 0.0658867
0.450588 0.110755 0.28273 -0.0104074 0.173641 0.984754
0.337791 0.331944 -0.291723 0.188077 -0.495821 0.847814
0.143764 0.252673 -0.337455 0.0389811 -0.226525 -0.973225
-0.226791 0.1015 -0.0903536 -0.917833 -0.389432 0.0769731
0.238971 0.408597 -0.0897136 -0.322641 0.937932 -0.127226
-0.0235344 0.0777948 -0.313317 -0.137207 -0.0572608 -0.988886
-0.18161 0.308861 -0.0114534 -0.287106 0.945665 -0.152604
0.489471 -0.158801 -0.194326 0.252351 -0.967357 0.0232171
0.365359 -0.133277 0.13003 0.351244 -0.926664 0.133867
-0.0905531 0.293118 -0.213225 -0.345431 0.937531 -0.0413884
-0.204419 0.0851943 -0.174203 -0.9164 -0.398058 0.0419553
0.509667 0.0123322 -0.116303 0.984052 0.175249 -0.0304875
0.480462 -0.0986175 -0.186735 -0.28557 0.908049 -0.306426
0.3535 -0.139039 -0.249519 0.251459 -0.798583 -0.54684
-0.158346 -0.0803726 -0.243815 -0.938558 -0.321428 0.125671
-0.197476 0.258593 -0.24558 -0.346367 0.927467 -0.140838
-0.0336158 0.326419 0.216622 -0.191813 0.789998 0.582332
0.049273 0.386723 0.0619256 -0.207435 0.958495 -0.195595
0.271497 -0.110961 -0.270431 0.0760739 -0.230972 -0.969982
-0.0900051 -0.183819 -0.266115 0.0162917 -0.174739 -0.98448
-0.102678 -0.253062 -0.0550852 -0.95986 -0.264403 0.0935964
0.468157 0.214131 0.258537 0.956944 0.28749 -0.0401006
0.294909 0.206925 0.264357 -0.000534738 0.175645 0.984453
0.255699 0.172384 -0.325283 0.0276087 -0.18769 -0.98184
-0.076581 0.289163 0.187123 -0.0523307 0.0630662 -0.996636
0.198708 0.431414 0.0899929 -0.200167 0.952725 -0.228578
0.450925 0.246784 0.0275614 0.927824 0.372448 -0.0206139
0.439081 0.0828304 -0.303829 0.0267787 -0.262024 -0.96469
0.0727243 -0.245993 -0.0311613 0.159902 -0.932995 0.322417
0.48328 0.121681 -0.0273701 0.962307 0.270265 -0.030366
0.0531262 0.388049 0.164958 -0.269487 0.738452 0.618114
-0.0185521 0.352385 -0.00199323 -0.251493 0.950493 -0.182523
-0.14235 -0.0808825 0.22798 -0.978557 -0.205925 -0.0046284
-0.0655703 -0.170136 0.239755 -0.256461 0.96577 0.0389276
0.103142 0.243278 -0.279858 -0.147666 0.631766 0.760964
0.385727 0.238579 -0.329611 0.0122127 -0.343282 -0.939153
-0.116195 0.302442 -0.134459 -0.258313 0.947494 -0.188492
0.371348 -0.0173443 -0.289284 0.0179768 -0.177771 -0.983908
0.43944 -0.0179287 0.250913 -0.274748 0.431443 -0.859285
0.505482 0.0287134 -0.249823 0.965551 0.258937 -0.0257442
0.10561 0.272092 0.249853 -0.0967541 0.286937 0.953051
0.185188 -0.0725707 0.306877 0.328881 -0.636311 0.697815
0.460467 0.224459 0.0731008 0.952284 0.300612 -0.052804
0.522798 -0.207535 0.0118733 0.274025 -0.957764 0.087172
-0.241692 0.238058 -0.251522 -0.953429 -0.274683 0.124587
0.191015 -0.163602 0.205976 0.17962 -0.936243 0.301969
0.301663 0.413705 0.155249 0.265844 -0.961789 -0.0654883
0.424874 0.353945 0.166038 0.936962 0.340425 -0.07882
-0.207811 0.091936 -0.258164 -0.943734 -0.323304 0.0695721
-0.129554 -0.138858 0.163784 -0.979334 -0.136008 -0.149689
0.456305 0.213237 -0.226786 0.954077 0.296208 -0.0447028
0.44354 -0.166724 -0.202525 0.276703 -0.941858 -0.190627
0.245038 -0.115642 -0.192245 0.258082 -0.965595 0.0319544
0.45327 0.257306 0.172861 0.932789 0.298284 -0.202314
-0.0313974 -0.271695 -0.233303 0.109965 -0.583326 -0.80476
0.371008 0.302005 -0.344635 0.0460786 -0.234223 -0.97109
0.464355 0.205167 -0.0082874 0.963942 0.263908 -0.034194
0.266417 0.221349 -0.328385 0.0292853 -0.325055 -0.945242
0.17854 -0.123891 -0.272456 -0.012438 -0.0527969 -0.998528
-0.0816725 -0.217537 -0.199407 0.143008 -0.500737 0.853704
0.455644 -0.182295 0.163248 0.0875115 -0.23712 -0.967531
0.0769622 -0.0256876 0.304633 0.0180843 0.162318 0.986573
-0.000182905 0.238222 -0.318807 -0.171806 0.540267 -0.823769
0.390255 -0.110224 0.216818 0.178543 -0.939336 0.292864
-0.313066 -0.0681312 0.00694313 0.246707 -0.937491 0.245452
-0.109431 -0.182843 0.237134 -0.245788 0.766872 0.592871
0.124867 0.353385 -0.222273 -0.213333 0.944466 -0.249945
-0.205299 0.0469142 0.0942729 -0.961278 -0.271522 0.0471268
0.420508 0.0622007 0.294834 -0.0812694 0.265589 0.960655
0.13657 -0.171982 0.250132 0.267883 -0.949564 0.162994
-0.244554 0.304107 0.220745 -0.244188 0.723812 0.645344
0.2192 -0.209586 -0.192632 0.31442 -0.710294 -0.62978
0.0576389 -0.020879 -0.289976 0.0647571 -0.20777 -0.976032
-0.228068 0.204447 0.127519 -0.941083 -0.333321 0.057093
0.162381 0.11076 0.279456 -0.0144671 0.164663 0.986244
0.11175 0.385823 0.19308 -0.184082 0.821486 0.539699
0.148228 -0.1877 0.172615 0.26185 -0.948023 0.180794
0.135754 0.304861 0.244699 0.0984687 0.16548 0.981285
0.262821 -0.0421825 0.216346 0.273958 -0.601905 0.750105
0.53078 -0.107009 0.123358 0.998645 0.0519637 0.0029104
0.160607 0.393073 -0.0535002 -0.212949 0.930614 -0.297673
-0.280789 -0.0499632 -0.0276841 0.2601 -0.655678 -0.708826
0.444444 -0.165053 -0.0666481 0.240959 -0.948957 0.203516
-0.0419989 -0.0200467 0.296364 0.0324879 0.108007 0.993619
-0.38417 -0.0886762 -0.0145391 0.225638 -0.815669 -0.532702
0.457333 0.212204 -0.174225 0.992907 0.0750107 0.0922495
-0.205212 0.0427025 -0.112353 -0.944475 -0.326125 0.040117
0.424029 -0.158185 0.171662 -0.981278 -0.191774 0.0177627
0.0830872 -0.19638 -0.207966 -0.132048 0.433084 0.891629
0.542147 -0.148585 0.199748 0.923328 0.375547 -0.0801903
0.210402 0.187487 -0.323807 0.0179957 -0.160496 -0.986872
0.446241 0.161295 0.273409 0.0336241 0.0730316 0.996763
0.501428 0.0910602 0.183478 0.957683 0.285836 -0.033795
-0.23294 0.18231 -0.330382 -0.0739305 0.171805 -0.982353
0.351618 -0.128104 -0.171311 -0.193396 0.528707 -0.826478
0.502052 -0.183421 0.181817 0.324601 -0.94141 0.0915532
0.152463 0.41014 0.0327129 -0.263014 0.948203 -0.178141
-0.199024 0.00341418 0.0301704 -0.0622642 0.300764 0.951664
-0.138671 -0.0994789 0.148029 -0.969175 -0.246096 0.0116615
-0.00291998 0.3792 0.118297 -0.342911 0.932715 -0.1116
-0.00524884 0.0106125 0.291697 -0.0187733 0.185822 0.982404
-0.0745945 0.25264 0.250003 -0.066729 0.322299 0.944283
0.500654 -0.191719 0.139315 0.309786 -0.949429 0.0511556
-0.0662796 0.0791162 0.280671 -0.0594907 0.205475 0.976853
-0.0839446 0.304453 -0.168042 -0.231681 0.944876 -0.231374
0.366275 0.0594306 0.294001 -0.00544542 0.148504 0.988897
0.0927639 -0.248671 -0.0904329 0.266267 -0.948957 0.169063
0.296692 0.363696 0.150268 -0.239131 0.94618 0.218081
-0.189 -0.0227646 -0.0268781 0.0574792 -0.646929 -0.760381
-0.178376 -0.0485761 0.0114235 -0.99068 -0.134526 0.0213304
0.238765 -0.21498 -0.147725 0.294048 -0.951883 0.086337
0.0291277 -0.186567 0.278123 0.986262 0.16518 -0.0015035
0.392823 0.473812 0.103093 0.95033 0.302989 -0.0712114
-0.154379 0.0900421 0.275643 -0.0097663 0.165784 0.986114
0.418067 0.348083 -0.332272 0.981665 0.188027 -0.031297
0.176034 -0.112805 0.282121 0.14653 -0.508394 0.848566
-0.197003 0.27454 -0.165519 -0.247368 0.922633 -0.295902
-0.181885 0.116203 -0.319557 0.0174786 -0.21604 -0.976228
0.53741 -0.073406 0.041145 0.938016 0.34442 -0.0387483
0.453154 -0.0433184 -0.279881 -0.0874366 -0.154996 -0.984038
0.0562319 -0.202036 0.209769 0.240717 -0.937083 0.252844
0.369541 0.414553 -0.25205 -0.291367 0.954697 -0.0604967
-0.212964 0.0742665 -0.00690621 -0.975767 -0.214583 -0.0428161
0.0439584 -0.276197 -0.188705 0.374732 -0.922167 -0.0958337
-0.399788 -0.0705778 0.0351611 0.139197 -0.346968 0.92749
-0.0472384 0.211154 -0.284031 -0.0256029 0.177705 0.983751
-0.449733 -0.0354789 0.00671606 -0.203553 0.978993 0.0117814
0.398009 -0.112261 0.170371 0.259141 -0.946107 0.194233
0.309895 0.11601 -0.313855 0.00762218 -0.171767 -0.985108
0.300823 0.414275 -0.178389 -0.233556 0.954415 -0.185859
-0.160508 0.19573 0.257349 -0.0987026 0.289084 0.952202
0.293875 0.327622 -0.293231 0.159959 -0.621184 0.767166
0.343891 0.425772 0.152362 0.321634 -0.944565 -0.0659403
0.184761 0.268663 -0.24205 -0.147133 0.432229 -0.88968
0.149376 0.248655 -0.262764 -0.234856 0.965159 -0.115377
0.51069 0.0516449 0.190116 0.988709 0.138106 -0.0581511
-0.402729 -0.0338391 -0.0184138 -0.398274 0.749903 -0.528226
0.530118 -0.125871 -0.0385487 0.980666 0.192084 0.0373891
0.518248 -0.0221093 -0.185234 0.965291 0.25945 -0.0299894
0.241775 0.28272 -0.287731 -0.111377 0.507426 0.854467
0.34178 0.450737 -0.0300131 -0.278092 0.952464 -0.124407
-0.00127789 -0.23843 0.0888742 0.283273 -0.944439 0.166707
-0.0449966 0.313288 -0.176942 -0.267004 0.958106 -0.103638
-0.0498142 0.295262 -0.268797 -0.164628 0.938193 -0.304454
0.160315 -0.0806368 -0.282209 0.0793458 -0.237227 -0.968209
0.229829 -0.0893354 0.286711 0.270093 -0.616996 0.739166
0.000982075 -0.110246 0.257163 0.200992 -0.767277 -0.609006
-0.0925989 0.204322 0.260619 -0.00837878 0.176176 0.984323
0.175884 0.321998 0.241409 0.0109796 0.126076 0.99196
0.182482 0.111314 -0.313964 -0.0223855 -0.134026 -0.990725
-0.355833 -0.0137645 -0.0156236 -0.258468 0.845682 -0.466922
0.197956 0.437382 0.131201 -0.264256 0.948622 -0.174026
0.547343 -0.174104 0.0697823 0.950507 0.30808 -0.040302
0.232883 0.349632 0.238961 0.00704646 0.0815055 0.996648
0.404976 0.334908 -0.248674 -0.0731549 0.151272 -0.985781
-0.223362 0.19236 -0.0702925 -0.959586 -0.253456 -0.122291
0.432951 0.336505 0.211308 0.986668 0.162658 0.00539226
0.12511 0.366338 -0.174056 -0.449482 0.888114 0.0960153
0.113866 0.395656 0.029382 -0.215916 0.953591 -0.209868
-0.0177554 0.309106 0.190147 0.000143274 -0.164919 -0.986307
0.449854 0.224283 -0.298779 0.970488 0.240746 -0.0139522
-0.0828848 -0.124602 0.321449 0.0299744 0.0914097 0.995362
0.462988 0.205161 0.0296317 0.94769 0.315394 -0.0490852
0.211808 -0.219221 -0.105574 0.264467 -0.949099 0.171082
0.222239 0.37608 -0.244122 -0.322152 0.93971 -0.114728
-0.0263801 0.156898 0.267606 0.0514794 -0.014753 0.998565
-0.0905016 0.359253 0.14835 -0.266049 0.948872 -0.169882
-0.0818662 -0.182876 0.318529 0.152333 -0.375242 0.914324
0.0418985 -0.248518 -0.00672333 0.243077 -0.934849 0.258788
-0.226086 0.317328 0.103215 -0.250327 0.947319 -0.199809
0.546304 -0.210054 -0.143017 0.0375391 -0.233035 -0.971744
-0.0389403 0.364624 0.104756 -0.258943 0.947408 -0.188063
0.0225937 0.137753 0.27223 -0.0951814 0.253299 0.962694
0.138785 0.0541117 0.287774 -0.00692733 0.145118 0.98939
0.285082 0.0443781 -0.299971 0.00770768 -0.161871 -0.986782
0.216862 0.164034 0.272697 -0.0499576 0.178864 0.982605
0.206982 -0.148831 -0.209942 0.0332791 -0.00920714 0.999404
-0.231714 0.229028 0.0545249 -0.970852 -0.239133 0.0162139
-0.115466 -0.170524 0.290246 -0.954347 -0.297066 0.0312118
-0.117241 0.05225 -0.31001 -0.00275244 -0.160877 -0.986971
0.116321 -0.219483 0.0445175 0.297343 -0.945406 0.133394
0.462787 -0.147977 -0.244 0.196336 -0.687047 -0.699584
0.249017 -0.159079 -0.17033 -0.26714 0.693079 -0.669535
0.0207827 0.261874 -0.250159 0.231411 -0.900331 -0.368582
-0.145111 -0.0937097 -0.28207 0.00891401 -0.134445 -0.990881
0.488839 0.109836 -0.0861813 0.917599 0.388306 -0.085038
0.148041 0.262949 0.252379 -0.0907454 0.260788 0.961122
0.386447 -0.0948614 -0.172642 0.163086 -0.432787 -0.886622
0.422549 -0.114528 -0.20781 -0.173228 0.803351 0.569754
0.32914 -0.175359 -0.0626206 0.240697 -0.951103 0.193565
0.458778 0.181553 -0.279113 0.944606 0.32052 -0.0706065
0.211833 0.415245 0.00575969 -0.316522 0.941085 -0.119052
-0.150572 -0.0999631 -0.123837 -0.985102 -0.159337 -0.064694
-0.236928 0.29147 -0.0140734 -0.278946 0.947197 -0.158136
0.150632 0.349846 -0.27616 -0.437115 0.896283 -0.0748877
0.16628 -0.167002 -0.210406 -0.00910208 0.158479 0.98732
0.521713 0.0132147 0.0959533 0.964705 0.261767 -0.0286857
0.0280631 -0.0383379 -0.293599 0.126492 -0.200856 -0.97142
-0.108008 -0.216626 0.199663 -0.97049 -0.241064 0.00607026
0.48848 0.0966465 -0.130111 0.929235 0.363101 -0.0684153
0.228118 -0.188106 -0.00956274 0.31511 -0.945352 0.0837536
0.0924888 0.0876436 0.283492 0.121765 0.167651 0.978298
0.0571223 0.251955 -0.286603 0.073468 -0.158018 0.984699
0.0895045 -0.0598243 0.304613 -0.128212 0.231446 0.964362
0.368957 -0.175463 -0.11787 0.317705 -0.934513 0.160466
0.283172 0.285549 0.24775 -0.0331293 0.304168 0.952042
0.243361 0.418855 0.184692 -0.179424 0.846887 0.500589
-0.184605 0.287715 -0.113544 -0.311055 0.946354 -0.0875169
0.26606 0.127017 -0.315504 -0.0246676 -0.126669 -0.991638
0.506849 0.0336464 -0.164865 0.966674 0.255844 -0.0091904
-0.177687 -0.0476969 0.119264 -0.973293 -0.228666 -0.0202962
-0.168087 0.206464 -0.26412 0.045191 -0.877401 0.477624
0.484031 0.135009 0.117312 0.966297 0.256266 -0.0244348
-0.208399 0.0759337 -0.131816 -0.12601 0.484963 -0.865409
0.336304 -0.120265 -0.21649 0.125129 -0.00454153 0.99213
0.0593756 -0.167785 -0.184615 0.280972 -0.959462 -0.0220566
-0.05416 0.186457 0.259509 0.0660097 0.0305851 0.99735
0.49194 0.0244278 0.24182 0.17822 -0.786493 -0.591326
0.320503 0.435264 -0.0767563 -0.229982 0.954909 -0.187771
-0.118943 -0.214928 -0.155314 -0.973263 -0.228117 -0.0268848
0.489126 0.114419 0.0280507 0.964489 0.262435 -0.0298007
0.0969652 -0.119843 -0.273644 -0.156583 -0.15421 -0.975552
-0.226901 0.308829 0.0649032 -0.250756 0.947415 -0.19881
0.35101 0.334949 0.242906 -0.0518245 0.367304 0.928656
0.065903 0.398528 0.119416 -0.266108 0.950506 -0.160388
0.465347 0.179501 -0.153314 0.95352 0.297412 -0.048424
-0.0779907 0.29702 0.143573 0.158026 -0.43452 0.886691
-0.231642 0.260383 0.245248 0.0331588 0.111219 0.993243
0.143745 -0.191658 -0.246872 0.221001 -0.865033 -0.450419
0.0849918 0.273224 -0.267393 0.351098 -0.935998 0.0252508
-0.0210041 0.202613 -0.331925 -0.00563806 -0.151234 -0.988482
-0.135597 0.334269 0.0765778 -0.289676 0.94719 -0.137547
0.501768 -0.07103 -0.272004 -0.00108698 -0.0739871 -0.997259
0.170279 -0.239968 -0.166882 0.31429 -0.94194 0.118195
0.38571 0.443229 -0.11537 -0.270787 0.949096 -0.160905
0.408214 0.406539 -0.114319 0.953977 0.29593 -0.0485009
0.225361 -0.0443026 0.311229 -0.0419318 0.350343 0.935682
0.138068 -0.120828 -0.27197 0.0175596 -0.147277 -0.988939
0.164966 0.39875 0.191618 -0.21294 0.778391 0.590562
0.190015 0.00907241 -0.294409 0.0419929 -0.188773 -0.981123
0.463036 -0.0307106 0.300943 0.243334 -0.366979 0.897839
0.252866 0.373213 0.130947 -0.0416825 0.151765 0.987537
-0.137085 0.233134 0.253715 -0.0052939 0.176526 0.984282
-0.0839875 -0.0803037 0.30978 0.004224 0.159992 0.987109
-0.110191 -0.245606 -0.221207 -0.967395 -0.248479 -0.0490393
0.424588 0.341099 0.0323556 0.924917 0.380138 -0.00477477
-0.118666 0.263609 0.1839 -0.214766 0.514277 -0.830298
-0.132064 -0.145139 0.0365029 -0.978073 -0.207106 -0.0219025
-0.228865 0.232416 0.205315 -0.977803 -0.209432 0.00622101
0.251728 -0.159693 -0.260393 0.189642 -0.786317 -0.587998
0.0907603 -0.166953 -0.268145 0.00464761 -0.267534 -0.963537
0.451238 -0.167689 0.0726867 -0.90753 -0.334166 0.254407
0.467306 0.169382 -0.203612 0.96665 0.255623 -0.0156154
-0.175061 -0.0137995 -0.166251 -0.961963 -0.271108 0.033572
0.374072 0.406541 -0.293342 -0.265207 0.933166 -0.242623
0.456129 -0.103131 0.219758 -0.0459398 0.195072 0.979712
0.496512 0.0963571 0.0700521 0.967558 0.242148 0.0720835
-0.11765 0.349543 0.193777 0.955767 0.291799 -0.0369277
0.371838 -0.142033 0.0496712 0.253089 -0.949753 0.184158
0.257091 0.285558 -0.340298 0.0513865 -0.213054 -0.975688
0.534261 -0.0868971 -0.208783 0.965201 0.249827 0.0772904
0.102011 0.266871 -0.326604 -0.0527282 0.55742 -0.828555
-0.0748142 0.208971 -0.233422 0.0964059 -0.0846957 -0.991732
0.397112 0.386968 -0.331803 -0.255243 0.653182 -0.712885
0.303421 -0.189378 -0.0934735 0.310197 -0.936604 0.162947
0.0111951 0.338584 0.162116 0.230447 -0.968075 0.0986195
0.348722 0.000346005 0.305405 0.0221561 0.0867478 0.995984
0.274226 -0.200391 -0.117214 0.120398 -0.953587 0.275999
0.393029 0.460627 -0.0259285 0.968014 0.250003 -0.0211745
-0.0512201 0.254232 -0.302268 -0.218906 0.572358 -0.790245
0.266694 -0.00366 0.300242 0.0208376 0.142868 0.989522
0.00217303 0.306435 -0.27452 -0.280817 0.94822 -0.148391
0.214025 -0.180081 -0.239369 0.22756 -0.780041 -0.582883
0.0801943 -0.106657 0.30657 0.105928 -0.521774 0.846481
0.132998 -0.0494358 0.306153 0.0304889 0.125652 0.991606
-0.086488 -0.271301 0.0590933 0.224781 -0.945477 0.235685
0.169423 -0.108375 0.227212 -0.221125 0.850179 0.477808
0.412946 0.371304 -0.228445 0.9948 0.100891 -0.0138964
-0.190497 0.0805897 0.165566 -0.962829 -0.264745 0.0535752
0.486041 -0.236151 -0.0626739 0.259357 -0.946184 0.193569
0.49469 0.109324 0.236695 0.964282 0.263147 -0.0302253
0.0289361 -0.225538 0.114965 0.271274 -0.9501 0.154016
0.18638 0.422627 0.165973 -0.211571 0.749939 0.62676
-0.0204114 -0.231595 0.169649 0.372967 -0.926466 0.0505616
0.39224 0.434143 0.224588 -0.0472733 0.314595 0.948048
0.0855033 -0.128467 0.229235 -0.193784 0.788597 0.583577
0.0453598 -0.197363 -0.258238 -0.080408 -0.095358 -0.99219
-0.153707 0.062915 -0.309407 -0.0211368 -0.002959 -0.999772
0.238129 0.400281 -0.135451 -0.309798 0.949584 -0.0481096
-0.142484 -0.0896619 0.308226 -0.0443257 0.192155 0.980363
0.535376 -0.13234 0.0325551 0.965076 0.254449 0.0623166
0.442516 -0.224793 0.0575439 0.215699 -0.950248 0.224727
0.0263486 0.358216 0.197961 -0.205408 0.818009 0.537279
0.526035 -0.0210532 0.152737 0.963489 0.26534 -0.0358252
0.426618 0.308764 -0.123135 0.967634 0.251949 0.0143829
0.328159 0.368938 0.23619 -0.0421911 0.2534 0.966441
0.275657 0.324663 -0.252011 0.17299 -0.71309 -0.679394
0.477651 0.17205 0.127628 0.967976 0.248659 0.034514
-0.20129 0.295475 0.230765 -0.0606484 0.415488 0.907575
0.329792 0.457002 0.208562 -0.193947 0.727955 0.657622
0.452296 -0.0936468 -0.271935 0.044092 -0.191637 -0.980475
0.532049 -0.139838 -0.0865621 0.959089 0.281687 -0.0282935
0.4044 0.401375 -0.0602597 0.965471 0.258813 -0.0296812
0.389381 0.0652051 -0.302122 -0.0148539 -0.0712363 -0.997349
-0.21852 0.18749 0.177273 -0.959511 -0.275002 -0.0609343
0.525299 -0.0584266 -0.232947 0.981459 0.171986 0.0846083
0.303948 -0.171014 -0.000448725 0.204476 -0.943125 0.262114
0.413317 0.320557 -0.286083 -0.202935 0.793347 0.573949
0.496804 -0.0570548 -0.176008 0.13194 -0.575471 -0.807109
-0.212676 0.0671091 -0.0620309 -0.971143 -0.23837 -0.00775915
0.314732 -0.0754667 0.275689 0.0762393 -0.45477 0.88734
-0.240151 0.0163415 0.0164844 -0.193046 0.775303 0.601365
-0.0239387 -0.285867 -0.107851 0.200457 -0.958513 0.202659
-0.160744 -0.104879 0.0989628 -0.916568 -0.371289 0.148484
-0.114494 -0.216236 -0.100741 -0.960593 -0.275055 0.0400671
0.402104 0.452941 0.138211 0.991564 0.127784 -0.021725
0.003176 -0.153313 0.242545 -0.254867 0.963906 -0.0769963
-0.0981521 -0.279062 -0.174795 -0.947293 -0.272628 0.168255
0.0889664 0.397133 0.0700342 -0.319251 0.937825 -0.136244
0.314092 0.259678 0.257163 -0.0188767 0.188929 0.981809
0.350731 0.460196 0.0206956 -0.271818 0.946753 -0.17255
-0.122213 0.324986 0.0157254 -0.301959 0.943744 -0.134791
0.265089 -0.214921 -0.177955 0.193576 -0.819312 -0.539681
-0.146699 0.286635 0.237299 -0.0263023 0.225449 0.9739
-0.164325 0.151052 0.261973 -0.0376827 0.301431 0.952743
0.22978 0.0696474 -0.30448 0.0430167 -0.226089 -0.973156
-0.0382545 -0.0589635 -0.287214 0.188243 -0.22449 -0.956122
0.54568 -0.185499 -0.0218011 0.969429 0.244689 -0.018304
0.482144 0.161287 0.224133 0.94185 0.312806 -0.122766
0.511689 0.0393343 -0.00073212 0.966303 0.25739 -0.00289905
0.0462573 0.239417 -0.329343 -0.0835253 0.501361 -0.861197
0.0442556 -0.0931271 0.318469 -0.0695468 0.190309 0.979258
0.51604 0.0396252 0.270059 0.951313 0.295811 -0.086597
0.442646 0.274759 0.0735959 0.968682 0.226762 0.101166
0.405875 -7.58662e-05 0.239666 0.165595 -0.93931 -0.30046
0.152536 -0.175292 0.208149 0.308691 -0.947632 0.0818794
0.261863 -0.105196 0.267314 0.1042 -0.496229 0.861916
-0.127195 0.143093 0.271463 -0.0680785 0.209604 0.975413
0.361933 0.483583 0.133676 -0.340595 0.939404 0.0389335
0.261364 0.389711 -0.235015 -0.163621 0.963591 -0.211471
-0.483144 -0.115043 0.00598074 0.196586 -0.980406 0.0126029
-0.223835 0.172251 -0.118909 -0.953989 -0.288796 0.0806349
-0.0612135 0.331049 -0.0462772 -0.342659 0.932854 -0.111215
0.190213 -0.175049 0.141867 0.225076 -0.949645 0.217979
-0.140945 -0.136704 -0.178196 -0.970242 -0.241398 -0.0189058
0.53903 -0.169524 -0.11047 0.959676 0.276718 -0.0494819
0.489635 0.063052 -0.254773 0.984293 0.176224 0.0106285
0.411299 -0.0760493 -0.203995 0.228327 -0.818165 0.527705
-0.180764 -0.0566831 0.0731683 -0.976366 -0.215854 0.0108234
0.429374 -0.207032 -0.0827874 -0.893088 -0.44721 0.0489555
0.230984 0.256624 0.255569 -0.023025 0.185655 0.982345
0.111094 -0.161983 -0.16937 0.184334 -0.737306 -0.649923
0.307477 0.39911 -0.256521 -0.248047 0.948012 -0.199364
0.15813 0.375116 -0.139029 -0.181534 0.942005 -0.282261
-0.148498 -0.0540551 0.254098 -0.968733 -0.247988 -0.00767966
-0.22193 0.178814 0.0773428 -0.965603 -0.259488 0.0166326
0.218369 -0.178418 0.0881299 0.299102 -0.950186 0.0876657
0.301667 0.452295 0.0312261 -0.239989 0.94811 -0.208552
0.216182 0.110938 -0.312005 0.0129015 -0.124788 -0.992099
-0.124353 0.294354 -0.179935 -0.184523 0.949555 -0.253567
-0.222416 0.273836 -0.128035 -0.26793 0.949721 -0.161998
-0.0788015 0.23239 -0.270747 0.0709904 -0.839126 0.539284
-0.00211884 0.231925 -0.240043 -0.0872113 -0.00216482 -0.996187
-0.0604852 -0.268317 0.0206448 0.24842 -0.951782 0.179994
0.525949 -0.0283338 -0.011217 0.885334 0.426805 -0.184449
0.50149 0.0603937 -0.102227 0.976179 0.208241 -0.0609107
0.0323183 0.333323 -0.176676 -0.30935 0.943309 -0.120296
-0.0945122 -0.298222 -0.0950439 -0.970414 -0.23986 0.027652
0.181163 -0.203933 0.00856687 0.316658 -0.947095 0.0523423
0.532474 -0.0606381 -0.0410431 0.987857 0.155347 -0.00251792
0.276358 -0.179047 -0.0216043 0.130841 -0.961042 0.243474
0.485467 -0.182438 0.217768 0.376062 -0.924333 0.0646966
0.44232 0.298954 0.192024 0.955666 0.287959 -0.0615011
0.0130003 -0.267376 -0.075468 0.332232 -0.937942 0.0994317
0.439265 -0.232892 0.0178108 -0.947196 -0.296217 0.12278
0.496171 0.0784326 0.00655641 0.930071 0.34113 -0.136374
0.168255 0.385922 -0.100726 -0.276527 0.948481 -0.154651
0.0566822 0.124807 -0.315688 0.047373 -0.181788 -0.982196
-0.244427 0.270498 -0.0876351 -0.30641 0.944361 -0.119563
-0.0854895 -0.156185 0.271342 0.0632178 -0.12388 -0.990281
0.197461 0.154127 -0.323466 0.235889 -0.242636 -0.941002
0.319477 0.394626 -0.292572 -0.295982 0.927751 -0.227318
0.291724 0.171236 -0.31807 0.1185 -0.231247 -0.965651
0.490958 0.135879 0.185159 0.970393 0.240485 -0.0224783
0.272577 0.39335 0.173709 0.101289 -0.468487 -0.877645
0.510374 0.0663447 0.236783 0.9695 0.244934 -0.00871897
-0.237629 0.234676 -0.0648988 -0.914737 -0.382439 0.130373
0.219954 -0.055554 0.249628 0.153777 -0.648494 -0.745526
0.44918 -0.162375 0.117903 -0.960957 -0.275412 0.0266387
-0.00795313 0.324063 -0.159844 -0.284453 0.946002 -0.155456
0.487704 -0.191188 -0.14734 0.199101 -0.201226 -0.959097
0.311754 -0.0371691 0.258077 0.0831273 -0.375965 -0.922898
0.449917 0.249242 -0.057898 0.961355 0.272106 -0.0418865
0.162494 -0.219313 -0.0317148 0.433219 -0.896582 0.0919929
-0.0940662 0.344224 0.0458832 -0.365036 0.918171 -0.153982
0.123002 0.164325 0.266892 -0.00722168 0.102014 0.994757
0.363352 0.306747 -0.282025 -0.154665 0.908009 0.389356
0.239436 0.391634 0.223561 -0.15663 0.839112 0.52092
-0.0700302 0.144054 0.270719 0.0592443 0.123783 0.990539
0.391105 0.451192 -0.0722781 0.959618 0.278255 -0.0413201
-0.0347931 0.312259 0.148791 0.1002 -0.542646 0.833963
0.26958 -0.0646203 0.292575 0.175505 -0.545492 0.819534
-0.208027 0.148008 0.112916 -0.93148 -0.357452 0.0676228
0.238934 0.00351318 -0.294719 -0.0458492 -0.156608 -0.986596
0.159776 0.0196934 0.296621 0.00525163 0.0932619 0.995628
-0.0158965 -0.265864 -0.0237774 0.157467 -0.938656 0.306805
0.0185462 0.23836 -0.288264 0.0489698 -0.0623172 0.996854
0.351693 -0.188935 -0.168818 0.294805 -0.945502 0.138263
0.412102 0.404858 0.0911928 0.973412 0.226724 0.0326419
0.167212 -0.163935 -0.266954 0.00388747 -0.163278 -0.986572
-0.0531323 -0.275781 -0.0152297 0.260829 -0.949052 0.176831
0.263046 -0.183793 -0.223159 0.207316 -0.817189 -0.537793
-0.152477 -0.141068 -0.0458663 -0.959569 -0.274901 0.0604627
-0.0663812 -0.125974 0.235636 0.209775 -0.8506 0.482156
0.343925 0.266731 -0.337718 0.0329097 -0.329123 -0.943714
0.460653 -0.207309 -0.0436752 -0.967516 -0.251603 0.0246516
0.278277 -0.138617 0.212748 0.259714 -0.949018 0.178646
-0.0921565 -0.289632 -0.232922 0.270977 -0.510536 -0.816042
0.477071 -0.232723 -0.0200641 0.427479 -0.903996 -0.00722514
0.489027 0.149642 0.265551 0.930722 0.27217 -0.244296
0.0424322 -0.155041 -0.26431 -0.0823985 -0.159757 -0.983711
0.411438 -0.0934418 0.24829 0.221293 -0.932896 0.284139
0.491953 0.111571 0.289949 -0.0178279 0.177208 0.984012
-0.0424966 0.0347921 0.292124 0.0102791 0.117482 0.993022
0.100666 0.315565 0.170242 -0.152662 0.82811 -0.539378
