ply
format ascii 1.0
comment Created by Open3D
element vertex 500
property double x
property double y
property double z
property double nx
property double ny
property double nz
end_header
0.460285 0.186856 -0.236098 0.964515 0.262349 -0.0297312
-0.136131 0.175425 -0.238456 -0.203472 0.666727 -0.71699
-0.0867707 0.184308 -0.268971 -0.217069 0.852106 0.476232
0.0786157 0.0465237 0.289452 -0.0178337 0.177216 0.98401
-0.115468 0.169849 -0.329088 0.0178336 -0.177216 -0.98401
-0.225025 -0.0446723 -0.0154181 0.230956 -0.892966 -0.386356
0.491348 -0.144266 -0.233702 0.211113 -0.834013 -0.509758
0.290552 0.13922 -0.316213 0.0178337 -0.177216 -0.98401
-0.0968084 0.284305 0.141984 0.047718 -0.0623253 0.996915
0.357963 0.407518 -0.273431 -0.263421 0.948563 -0.175607
0.547192 -0.126988 -0.186061 0.964516 0.26234 -0.0297635
-0.45814 -0.0942063 0.0347317 0.166099 -0.515278 0.840773
-0.192715 0.0956668 0.197793 -0.964516 -0.262341 0.0297662
0.459328 0.235903 0.165153 0.964516 0.262341 -0.0297662
-0.0274807 0.320039 -0.167772 -0.263421 0.948563 -0.175607
-0.215695 0.0794776 0.0103898 -0.964516 -0.262341 0.0297666
0.325811 0.193086 -0.325275 0.0178337 -0.177216 -0.98401
0.446447 0.288689 0.213012 0.964516 0.262341 -0.0297662
-0.0785659 -0.0919183 0.311536 -0.0178337 0.177216 0.98401
0.525464 -0.0183046 0.0677347 0.964516 0.262341 -0.0297662
-0.226604 0.214169 0.144073 -0.964516 -0.26234 0.0297644
-0.0766141 -0.141575 0.266893 0.082276 -0.405776 -0.910262
0.391945 0.451531 0.218647 -0.0995644 0.46582 0.87926
-0.273185 -0.0120262 -0.0330987 -0.122139 0.343396 -0.931215
0.313522 0.285176 -0.342083 0.0178337 -0.177216 -0.98401
-0.227469 0.0218052 -0.0133221 -0.256322 0.903379 -0.34381
0.177459 0.267662 0.251417 -0.0178337 0.177216 0.98401
0.544369 -0.161281 0.219658 0.92243 -0.376789 0.0845759
-0.174197 0.01689 -0.302605 0.0178337 -0.177216 -0.98401
-0.131034 -0.179731 -0.230757 -0.964516 -0.262341 0.0297662
0.250292 -0.15105 -0.264666 0.0178337 -0.177216 -0.98401
0.195515 0.413126 0.000544423 -0.263421 0.948563 -0.175607
0.511565 0.042032 0.149155 0.964516 0.262341 -0.0297662
0.0159474 -0.213864 0.204953 0.263421 -0.948563 0.175607
0.177802 -0.0769346 0.306415 0.173656 -0.545424 0.819973
0.0327026 -0.260246 -0.0707196 0.263421 -0.948563 0.175607
-0.0259956 -0.268849 -0.0291375 0.263421 -0.948563 0.175607
0.535591 -0.126246 0.14446 0.964516 0.26234 -0.0297661
0.42633 0.321454 -0.150072 0.964516 0.262341 -0.0297662
-0.447827 -0.0388802 0.0176943 -0.230956 0.892965 0.386358
0.423054 0.361596 0.0975625 0.964515 0.262344 -0.0297721
-0.133381 -0.034676 0.300234 -0.0178337 0.177216 0.98401
-0.282131 -0.0546586 0.0223602 0.219212 -0.732872 0.644084
0.0657859 0.0151712 -0.297946 0.0178337 -0.177216 -0.98401
-0.134262 0.245039 0.249842 -0.0178338 0.177216 0.98401
-0.0498604 0.324486 -0.110177 -0.263421 0.948563 -0.175607
0.158305 0.211465 0.261191 -0.0178337 0.177216 0.98401
0.341995 -0.187711 -0.14287 0.263421 -0.948563 0.175607
0.442078 0.284424 0.0338305 0.964516 0.262341 -0.0297662
0.405748 0.41231 -0.0162411 0.964516 0.26234 -0.029766
-0.231434 0.137341 0.0103644 -0.964516 -0.26234 0.0297652
0.407712 0.414625 0.0677807 0.964516 0.262341 -0.0297662
0.19726 -0.00807943 -0.291376 0.0178337 -0.177216 -0.98401
0.385956 0.182153 -0.322216 0.0178337 -0.177216 -0.98401
0.460835 -0.0756048 0.264124 0.244531 -0.845097 0.475411
0.450946 -0.0653253 -0.208223 0.238697 -0.818254 0.522957
0.5053 0.0219 -0.231294 0.964516 0.262341 -0.0297661
0.440224 0.25324 -0.301081 0.964516 0.262341 -0.0297663
-0.2189 0.153192 -0.14371 -0.964516 -0.26234 0.029766
-0.106521 0.0222385 0.290471 -0.0178337 0.177216 0.98401
0.183892 -0.199068 0.0329464 0.263421 -0.948563 0.175607
0.491037 -0.194722 0.149322 0.263421 -0.948563 0.175607
-0.155332 0.123631 0.271325 -0.0178338 0.177216 0.98401
0.0930609 -0.0731384 0.311265 -0.0178336 0.177216 0.98401
-0.318487 -0.0559722 -0.0284875 0.118755 -0.531755 -0.838531
0.495255 -0.0675743 -0.27526 0.0178337 -0.177216 -0.98401
-0.112463 0.242139 -0.3214 -0.168723 0.525722 -0.833756
0.147395 -0.181244 0.183977 0.263421 -0.948563 0.175607
0.323027 0.406722 -0.225323 -0.263421 0.948563 -0.175607
0.14906 0.114486 -0.314323 0.0178337 -0.177216 -0.98401
0.213609 0.323864 -0.308898 -0.173656 0.545424 -0.819973
0.287435 0.411452 -0.146383 -0.263421 0.948563 -0.175607
0.439491 -0.243935 -0.040601 -0.964516 -0.26234 0.029766
0.474217 0.16284 0.00367652 0.964516 0.262341 -0.0297662
0.147222 0.395375 -0.0228994 -0.263421 0.948563 -0.175607
0.490455 0.10069 -0.0178931 0.964516 0.262341 -0.0297662
0.0897633 -0.11129 0.215751 -0.0211162 0.189027 0.981745
0.0194663 -0.251064 -0.00126494 0.263421 -0.948563 0.175607
0.541661 -0.0588218 0.249718 0.259257 -0.919737 0.294735
-0.0119797 0.175139 0.264647 -0.0178337 0.177216 0.98401
0.508586 0.0175195 -0.163438 0.964516 0.262341 -0.0297662
0.0994615 -0.182932 0.246758 0.263421 -0.948563 0.175607
0.0976806 0.377306 -0.0461837 -0.263421 0.948563 -0.175607
0.505832 -0.210613 0.0412922 0.263421 -0.948563 0.175607
0.169859 0.0417946 -0.300855 0.0178337 -0.177216 -0.98401
0.488719 0.0881316 -0.184838 0.964516 0.262341 -0.0297662
0.339015 0.423236 -0.160106 -0.263421 0.948563 -0.175607
-0.0113502 -0.285127 -0.139038 0.263421 -0.948563 0.175607
0.522569 -0.0376837 -0.196871 0.964517 0.262334 -0.0298003
-0.244414 -0.00726379 0.0319983 -0.0439736 0.270783 0.961636
0.141188 0.0516273 0.289667 -0.0178336 0.177216 0.98401
0.213213 0.391815 -0.141117 -0.263421 0.948563 -0.175607
0.21656 -0.0815048 -0.277803 0.0178337 -0.177216 -0.98401
-0.400324 -0.0655047 0.0376763 0.0733369 -0.157898 0.984728
0.0396694 -0.099017 0.25432 0.201026 -0.802781 -0.561366
0.122267 0.169384 -0.324696 0.0178337 -0.177216 -0.98401
0.533933 -0.130046 0.0572411 0.964516 0.26234 -0.0297661
0.462666 -0.209468 -0.144437 0.0178337 -0.177216 -0.98401
0.373925 -0.0481917 0.215054 -0.182984 0.745477 0.640921
-0.115972 0.271252 0.190549 -0.0858837 0.205136 -0.974958
-0.0459794 0.205621 -0.332574 -0.173656 0.545424 -0.819973
0.543735 -0.18235 0.124078 0.73861 -0.660998 0.132429
0.460063 0.202666 -0.10394 0.964516 0.262341 -0.0297662
-0.213708 0.322346 0.124046 -0.263421 0.948563 -0.175607
-0.159739 0.291446 -0.123823 -0.263421 0.948563 -0.175607
-0.234714 0.250057 -0.234925 -0.263421 0.948563 -0.175607
-0.332996 -0.0095769 0.0180469 -0.21707 0.852109 0.476226
0.362744 0.339143 -0.347214 -0.0656971 0.129276 -0.98943
-0.155718 -0.100559 0.108648 0.203471 -0.666726 0.716991
0.0518125 0.256556 0.25114 -0.0178337 0.177216 0.98401
-0.33914 -0.0710079 0.0231264 0.226275 -0.76325 0.605185
0.0626814 -0.226282 0.0677711 0.263421 -0.948563 0.175607
0.295156 -0.168923 0.028881 0.263421 -0.948563 0.175607
-0.175057 -0.0173026 -0.225697 -0.964516 -0.262341 0.0297661
0.472064 -0.0209924 0.244356 -0.211607 0.700678 -0.681375
0.308323 0.379944 0.132617 -0.106853 0.490954 0.864608
0.208994 0.0898427 -0.308799 0.0178337 -0.177216 -0.98401
-0.224572 0.268917 0.243519 -0.0499457 0.292 0.955113
-0.107198 -0.224108 0.150514 -0.964516 -0.262341 0.0297661
-0.00279413 -0.143888 0.318002 0.0656971 -0.129276 0.98943
-0.109551 0.313172 -0.0817527 -0.263421 0.948563 -0.175607
0.390502 0.272072 0.254484 -0.0178336 0.177216 0.98401
0.274172 0.33258 -0.315927 -0.173656 0.545424 -0.819973
0.34352 -0.077353 0.271041 0.173656 -0.545424 0.819973
0.437228 0.124994 -0.310993 0.0178337 -0.177216 -0.98401
0.263731 -0.0410584 0.217101 0.211603 -0.700662 0.681393
0.321819 0.453931 0.0314952 -0.263421 0.948563 -0.175607
0.0087949 0.370538 0.0505929 -0.263421 0.948563 -0.175607
0.339222 -0.0184642 0.246343 0.192245 -0.775097 -0.601885
-0.176962 0.0347116 0.171014 -0.964516 -0.262341 0.029766
-0.241042 0.233038 -0.157467 -0.964516 -0.262341 0.0297662
0.543864 -0.0805984 0.11493 0.964516 0.26234 -0.0297661
0.310027 -0.0657081 0.217185 -0.182984 0.745477 0.640921
0.470891 0.168379 -0.0552936 0.964516 0.262341 -0.0297662
-0.0118645 -0.0416353 -0.289123 0.0178337 -0.177216 -0.98401
0.045249 0.354543 -0.0904892 -0.263421 0.948563 -0.175607
-0.209976 0.296314 -0.022172 -0.263421 0.948563 -0.175607
0.0912764 0.385829 0.00946123 -0.263421 0.948563 -0.175607
0.0952866 0.214718 0.259463 -0.0178337 0.177216 0.98401
0.0223135 -0.197263 0.272893 0.253113 -0.886688 0.386935
-0.169418 -0.0446019 -0.283572 -0.964516 -0.262341 0.0297662
-0.0791177 -0.0898015 -0.281667 0.0178337 -0.177216 -0.98401
-0.158401 -0.0323305 0.181572 -0.964516 -0.262341 0.029766
-0.222348 0.175977 -0.0546152 -0.964516 -0.262341 0.0297661
-0.118234 -0.204808 -0.0369927 -0.964516 -0.262341 0.0297661
0.417157 0.398165 0.228764 0.964516 0.262341 -0.0297662
0.508331 0.0269391 0.241862 0.182986 -0.745482 -0.640915
0.0967492 -0.00573106 0.299192 -0.0178336 0.177216 0.98401
0.205123 -0.169479 0.160929 0.263421 -0.948563 0.175607
-0.206477 0.0980131 -0.227464 -0.964516 -0.26234 0.0297664
0.48656 0.135611 0.163667 0.964516 0.262341 -0.0297662
0.427303 0.0557585 0.294108 -0.0178337 0.177216 0.98401
-0.1466 0.331164 0.0710104 -0.263421 0.948563 -0.175607
0.0638743 0.164228 0.267987 -0.0178337 0.177216 0.98401
-0.0861019 -0.147522 -0.271398 0.0178337 -0.177216 -0.98401
0.396387 -0.00926787 0.250359 0.118754 -0.531751 -0.838534
-0.0636448 0.133859 0.271145 -0.0178338 0.177216 0.98401
0.140383 0.405727 0.0432819 -0.263421 0.948563 -0.175607
-0.202795 0.166894 0.262674 -0.0178337 0.177216 0.98401
0.226629 0.310383 0.244615 -0.0178337 0.177216 0.98401
0.10505 0.347401 -0.218774 -0.263421 0.948563 -0.175607
0.456379 0.192784 -0.310415 0.964516 0.262341 -0.0297663
0.170743 0.373908 0.141913 0.219215 -0.732881 0.644073
-0.244207 0.22898 -0.295766 -0.964516 -0.26234 0.0297673
0.15224 0.252913 -0.281224 -0.173268 0.714003 0.678364
-0.122521 -0.175296 0.0841823 -0.964516 -0.262341 0.0297661
0.473423 0.136535 -0.253889 0.964516 0.262341 -0.0297661
-0.132319 -0.164654 -0.13952 -0.964516 -0.262341 0.029766
0.140082 0.380566 -0.0921787 -0.263421 0.948563 -0.175607
-0.177828 -0.07033 -0.0829299 -0.964516 -0.26234 0.0297655
0.0459637 0.242826 -0.237314 -0.0216256 -0.0338639 -0.999192
-0.117679 -0.214877 -0.107763 -0.964516 -0.262341 0.0297661
-0.193274 -0.0130331 -0.0784432 -0.964516 -0.262341 0.0297661
-0.0100519 0.23387 0.254105 -0.0178337 0.177216 0.98401
0.284121 0.0366966 0.294946 -0.0178336 0.177216 0.98401
0.288049 -0.102219 -0.272776 0.0178337 -0.177216 -0.98401
0.505565 0.071468 0.214171 0.964516 0.262341 -0.0297636
0.121554 -0.0746521 0.248027 0.230956 -0.892966 -0.386356
-0.0997233 -0.245495 0.204213 -0.964516 -0.262341 0.0297661
-0.0535407 -0.0196988 0.298983 -0.0178338 0.177216 0.98401
-0.200277 0.00412551 -0.154135 -0.964516 -0.26234 0.0297662
-0.109084 -0.160009 0.322101 0.0274638 0.0124392 0.999545
0.0918498 0.27353 -0.246712 0.173268 -0.714002 -0.678366
-0.182298 0.246965 -0.296517 -0.233596 0.795373 -0.559299
0.12819 -0.250915 -0.163554 0.263421 -0.948563 0.175607
0.37139 0.45226 -0.0518935 -0.263421 0.948563 -0.175607
-0.210558 0.148546 0.0856745 -0.964516 -0.26234 0.0297657
0.115512 0.317181 0.149232 -0.224291 0.873621 0.431833
0.0378309 -0.207241 -0.159244 -0.110322 0.298025 -0.948161
0.437601 -0.142731 0.0753158 0.263421 -0.948563 0.175606
-0.0588594 0.35953 0.166068 -0.198877 0.796046 0.571628
0.142836 -0.120499 0.284843 0.173656 -0.545424 0.819973
0.00322694 -0.147279 0.224722 -0.163126 0.680771 0.714102
-0.0331974 0.0614925 -0.308082 0.0178337 -0.177216 -0.98401
-0.115548 0.0835866 0.279258 -0.0178338 0.177216 0.98401
0.354292 0.344517 -0.254396 0.173271 -0.714014 -0.678351
0.276635 0.394419 0.176591 0.0822855 -0.405809 -0.910246
0.384969 0.492152 0.154921 -0.260928 0.964343 0.0442558
-0.101848 -0.278193 -0.152809 -0.964516 -0.262341 0.0297661
0.44189 0.27222 -0.0798022 0.964516 0.262341 -0.0297662
-0.191603 -0.00151777 0.077202 -0.964515 -0.262343 0.0297661
0.0277554 -0.279262 -0.196446 0.252188 -0.948782 -0.190298
0.427319 0.324642 -0.0899344 0.964516 0.262341 -0.0297662
-0.100731 -0.218394 -0.2589 0.0178337 -0.177216 -0.98401
0.261402 -0.207896 -0.131007 0.263421 -0.948563 0.175607
0.305397 0.433982 -0.0516302 -0.263421 0.948563 -0.175607
0.251662 0.421258 -0.0397528 -0.263421 0.948563 -0.175607
0.264056 0.177674 0.269193 -0.0178336 0.177216 0.98401
-0.037167 -0.297793 -0.189405 0.25572 -0.956277 -0.141925
-0.0265286 -0.136532 -0.272298 0.0178336 -0.177216 -0.98401
0.274951 0.0994851 0.283472 -0.0178336 0.177216 0.98401
-0.499704 -0.0704614 -0.0153678 -0.964512 -0.262358 0.0297537
0.313298 0.441872 0.213758 -0.134367 0.58478 0.799986
-0.110715 -0.225079 0.0279769 -0.964516 -0.262341 0.0297661
0.16221 -0.221345 -0.202282 0.198877 -0.796046 -0.571628
-0.222702 0.0991319 -0.0434462 -0.964516 -0.262341 0.0297655
0.37669 -0.0899064 -0.210903 0.194832 -0.631123 0.750815
0.439822 0.306827 0.158195 0.964516 0.262341 -0.0297662
0.445616 0.0451157 -0.296455 0.0178337 -0.177216 -0.98401
-0.123961 -0.163525 0.141276 -0.964516 -0.262341 0.0297662
-0.0646953 0.300099 -0.219654 -0.263421 0.948563 -0.175607
0.203208 0.359868 0.181022 -0.0733401 0.15791 -0.984726
-0.135178 -0.108902 0.25922 -0.964516 -0.262341 0.0297661
0.444007 0.25759 -0.14016 0.964516 0.262341 -0.0297662
0.323124 -0.184228 -0.197987 0.198877 -0.796046 -0.571628
0.184125 -0.164343 0.22017 0.263421 -0.948563 0.175607
0.500323 -0.0909193 -0.179173 -0.203472 0.666727 -0.71699
-0.208985 0.0422356 -0.100438 -0.964516 -0.262341 0.0297659
-0.237636 0.227919 -0.0922004 -0.964516 -0.26234 0.0297661
-0.247811 0.277811 0.017822 -0.964516 -0.262341 0.0297662
0.121291 0.293576 0.245733 -0.0178337 0.177216 0.98401
-0.00799983 0.0108503 -0.298505 0.0178337 -0.177216 -0.98401
-0.248455 0.298924 0.183011 -0.964517 -0.26234 0.029762
-0.150944 -0.124179 -0.0865507 0.201026 -0.802784 -0.561361
0.269275 0.0448388 -0.299601 0.0178337 -0.177216 -0.98401
-0.0866171 -0.282892 -0.014058 0.263421 -0.948563 0.175607
-0.107026 0.29782 -0.168467 -0.263421 0.948563 -0.175607
0.0868639 0.228582 -0.335999 0.0178337 -0.177216 -0.98401
0.441714 -0.0356948 0.301404 0.114321 -0.313343 0.942734
0.432853 -0.148617 0.225157 -0.0178337 0.177216 0.98401
-0.0580436 0.327539 0.210902 -0.198877 0.796046 0.571628
0.371481 0.0446608 0.295095 -0.0178336 0.177216 0.98401
0.39031 0.392378 -0.326493 -0.2051 0.673486 -0.710177
0.205212 0.251306 -0.337946 0.0178337 -0.177216 -0.98401
0.490267 0.108758 0.0471048 0.964516 0.262341 -0.0297662
0.302356 -0.188775 -0.0891583 0.263421 -0.948563 0.175607
-0.217604 0.128684 -0.317713 -0.964516 -0.26234 0.0297659
0.497322 0.0642652 -0.116413 0.964516 0.262341 -0.0297662
0.374354 -0.142186 0.0544997 0.263421 -0.948563 0.175607
-0.0436265 -0.225945 0.229058 0.263421 -0.948563 0.175607
-0.229069 0.185769 -0.186092 -0.964516 -0.26234 0.0297661
0.0962362 -0.238043 -0.0460897 0.263421 -0.948563 0.175607
-0.142709 -0.13187 -0.187224 -0.964516 -0.262341 0.0297661
0.244833 0.388113 -0.208546 -0.263421 0.948563 -0.175607
-0.137362 0.31891 -0.00904006 -0.263421 0.948563 -0.175607
0.28652 0.453613 0.0827277 -0.263421 0.948563 -0.175607
0.42017 0.365405 0.0376544 0.964516 0.262341 -0.0297662
0.422063 0.352188 -0.0174773 0.964516 0.262341 -0.0297662
0.356256 -0.0414896 -0.282477 0.0178337 -0.177216 -0.98401
0.0797064 -0.244095 -0.199304 0.198877 -0.796046 -0.571628
-0.120749 0.276159 -0.264885 -0.263421 0.948563 -0.175607
0.435757 0.277307 -0.233706 0.964516 0.262341 -0.0297662
0.0820335 0.394092 0.0679607 -0.263421 0.948563 -0.175607
0.250581 0.178896 -0.324083 0.0178337 -0.177216 -0.98401
-0.202577 0.271453 -0.167559 -0.263421 0.948563 -0.175607
0.471995 0.193881 0.205261 0.964516 0.26234 -0.0297667
0.470007 0.158196 -0.173671 0.964516 0.262341 -0.0297662
0.295484 -0.146121 0.151555 0.263421 -0.948563 0.175607
-0.0342104 0.277705 0.151654 -0.209308 0.828475 0.519441
0.196177 -0.135646 -0.268421 0.0178337 -0.177216 -0.98401
0.376427 -0.0296568 0.295798 0.173656 -0.545424 0.819973
-0.18987 0.0406492 -0.194923 -0.964516 -0.26234 0.0297666
0.26405 0.259987 0.254369 -0.0178336 0.177216 0.98401
0.531005 -0.136956 -0.0985354 0.964516 0.26234 -0.0297661
0.254985 0.435838 0.0340174 -0.263421 0.948563 -0.175607
0.145162 -0.219118 -0.0172596 0.263421 -0.948563 0.175607
0.0340031 0.0656444 -0.307612 0.0178337 -0.177216 -0.98401
-0.161569 0.024242 0.289112 -0.0178337 0.177216 0.98401
-0.112636 0.32989 0.190898 0.964517 0.262338 -0.0297677
-0.125015 0.347128 0.124862 -0.263421 0.948563 -0.175607
0.0704724 -0.23546 0.00650837 0.263421 -0.948563 0.175607
0.269436 -0.183501 -0.217679 0.198877 -0.796046 -0.571628
0.314717 0.227824 0.26108 -0.0178336 0.177216 0.98401
0.37005 -0.13013 0.126079 0.263421 -0.948563 0.175607
0.0738225 0.323283 -0.279681 -0.173656 0.545424 -0.819973
0.415572 -0.138955 0.010125 0.263421 -0.948563 0.175607
0.324213 0.158108 0.273807 -0.0178336 0.177216 0.98401
0.544147 -0.206446 9.66136e-05 0.631733 -0.760835 0.148473
-0.0281875 -0.196242 -0.166478 0.201026 -0.802784 -0.561361
-0.0495121 -0.240094 -0.197007 -0.163126 0.680772 0.714101
-0.171096 -0.0882919 -0.023099 -0.964516 -0.262341 0.0297663
-0.199706 0.171213 -0.230086 -0.0733373 0.1579 -0.984728
-0.0051564 -0.067968 0.308553 -0.0178338 0.177216 0.98401
-0.185914 -0.0469304 -0.138705 -0.964516 -0.26234 0.0297661
0.0451305 -0.0618212 -0.284454 0.0178337 -0.177216 -0.98401
0.536712 -0.0730538 0.18438 0.263421 -0.948563 0.175607
0.507391 -0.240326 -0.138069 0.0178337 -0.177216 -0.98401
0.379323 -0.164265 -0.206234 0.198877 -0.796046 -0.571628
0.0611398 -0.203578 -0.258634 0.0178337 -0.177216 -0.98401
0.248336 -0.0535224 0.30705 0.173656 -0.545424 0.819973
-0.139512 -0.102651 0.173878 -0.964516 -0.262341 0.0297635
-0.0976406 -0.209369 0.303388 0.196696 -0.63877 0.74383
0.144058 0.423784 0.135301 -0.263421 0.948563 -0.175607
0.407952 -0.0774281 0.282659 0.21301 -0.706582 0.67481
0.231595 0.00647005 0.299438 -0.0178336 0.177216 0.98401
0.227438 -0.138129 0.255198 0.173656 -0.545424 0.819973
0.0652406 0.349428 0.151734 0.252848 -0.885347 0.390165
0.28147 -0.160425 0.0953121 0.263421 -0.948563 0.175607
0.0179833 0.0630868 0.28537 -0.0178337 0.177216 0.98401
0.348448 -0.171967 -0.0675062 0.263421 -0.948563 0.175607
0.531831 -0.13154 -0.0240347 0.964516 0.26234 -0.0297661
0.351763 0.392986 0.174281 -0.144837 0.431473 -0.890423
0.488646 0.0814423 -0.246181 0.964516 0.262341 -0.0297661
-0.208907 0.0653607 0.105899 -0.964516 -0.26234 0.0297659
0.225995 0.225222 0.25994 -0.0178336 0.177216 0.98401
0.394855 -0.103762 0.231302 0.263421 -0.948563 0.175607
-0.0603992 -0.291087 -0.0976499 0.263421 -0.948563 0.175607
0.379013 0.258102 -0.33602 0.0178337 -0.177216 -0.98401
0.111095 -0.171147 -0.207677 0.110319 -0.298015 0.948165
0.248986 0.353438 0.145208 -0.224291 0.873621 0.431833
0.53586 -0.0644858 -0.00240801 0.964519 0.262332 -0.0297625
0.061044 -0.125797 -0.272644 0.0178337 -0.177216 -0.98401
0.202757 -0.0591856 0.217595 0.194835 -0.631136 0.750804
-0.0652559 -0.0155909 -0.294781 0.0178336 -0.177216 -0.98401
0.409013 0.393331 -0.0777205 0.964512 0.262356 -0.0297691
0.338225 -0.126179 0.195162 0.263421 -0.948563 0.175607
-0.0918072 0.0611651 -0.309086 0.0178336 -0.177216 -0.98401
0.266889 -0.0417827 -0.284044 0.0178337 -0.177216 -0.98401
0.362326 -0.155453 0.000876862 0.263421 -0.948563 0.175607
-0.157401 -0.0795859 -0.202506 -0.964516 -0.262341 0.0297661
0.503628 0.0497561 -0.0399547 0.964516 0.262341 -0.0297662
0.524353 -0.000495219 0.188716 0.964519 0.26233 -0.0297619
0.398784 0.416371 -0.206107 0.964516 0.26234 -0.029766
-0.0324308 0.202551 -0.242726 -0.211606 0.700673 -0.681381
0.20259 0.163367 0.270656 -0.0178336 0.177216 0.98401
-0.238981 0.240323 -0.0264779 -0.964516 -0.26234 0.0297661
0.463361 0.207169 0.0426048 0.964516 0.262341 -0.0297662
0.385153 0.0118673 -0.291563 0.0178337 -0.177216 -0.98401
-0.0421482 -0.186202 0.307554 0.168722 -0.52572 0.833757
0.0600234 0.349498 -0.139903 -0.263421 0.948563 -0.175607
0.427364 0.356205 0.189699 0.964516 0.262341 -0.0297662
0.0197489 -0.00507135 0.297677 -0.0178337 0.177216 0.98401
0.100868 -0.065351 -0.282809 0.0178337 -0.177216 -0.98401
-0.174027 0.194582 -0.276359 0.144835 -0.431467 0.890426
0.236272 -0.218739 -0.180143 0.198877 -0.796046 -0.571628
0.135933 0.108121 0.279397 -0.0178336 0.177216 0.98401
0.00454533 -0.182227 -0.263505 0.0178336 -0.177216 -0.98401
0.246615 0.381007 0.232258 -0.0178337 0.177216 0.98401
0.427389 0.139642 0.279003 -0.0178337 0.177216 0.98401
0.402096 -0.165107 -0.110924 0.263421 -0.948563 0.175607
-0.201643 0.0729361 -0.29186 -0.964516 -0.262341 0.0297661
-0.133011 -0.111953 -0.278654 0.0178337 -0.177216 -0.98401
0.318799 0.0111514 -0.292637 0.0178337 -0.177216 -0.98401
0.494791 0.0997349 0.11417 0.964516 0.262341 -0.0297662
-0.176416 -0.0597043 0.0564726 -0.964516 -0.262341 0.0297662
0.508985 -0.22943 -0.0650818 0.263421 -0.948563 0.175607
0.452601 -0.1853 -0.0322392 -0.964516 -0.262341 0.0297662
0.14273 -0.113254 -0.273423 0.0178337 -0.177216 -0.98401
0.0684038 0.355026 0.216616 -0.198877 0.796046 0.571628
-0.227473 0.171899 -0.277258 0.0733401 -0.15791 0.984726
0.184493 -0.233238 -0.152525 0.263421 -0.948563 0.175607
0.477755 0.161426 0.105856 0.964516 0.262341 -0.0297662
0.529676 -0.0260226 0.136217 0.964523 0.262318 -0.0297578
0.434448 -0.205808 0.132007 -0.964516 -0.26234 0.029766
0.517 0.00643345 0.0114998 0.964516 0.262341 -0.0297662
0.451169 -0.165361 -0.187704 0.264019 -0.959029 0.102749
0.352386 0.382409 0.233922 -0.0178336 0.177216 0.98401
0.151448 0.218945 -0.333092 0.0178337 -0.177216 -0.98401
0.340117 0.472238 0.102932 -0.263421 0.948563 -0.175607
0.458921 -0.216416 0.080315 0.263421 -0.948563 0.175607
0.0510725 0.146204 -0.321811 0.0178337 -0.177216 -0.98401
0.183166 -0.104942 0.244477 -0.259159 0.919165 -0.296603
-0.125856 -0.170507 0.0183433 -0.964516 -0.262341 0.0297661
-0.223601 0.189495 0.0239221 -0.964516 -0.262339 0.0297661
0.158332 0.00246075 0.298832 -0.0178336 0.177216 0.98401
0.183658 -0.170842 -0.208265 -0.0946828 0.448926 0.888539
0.0654567 0.403369 0.142936 -0.263421 0.948563 -0.175607
-0.152941 -0.0449837 0.246982 -0.964516 -0.262341 0.0297677
0.168078 0.368098 -0.201526 -0.263421 0.948563 -0.175607
-0.171701 0.0215453 0.225447 -0.964516 -0.262341 0.0297662
0.404919 0.200336 0.267665 -0.0178337 0.177216 0.98401
-0.00980912 0.343025 -0.070119 -0.263421 0.948563 -0.175607
0.174614 0.299646 -0.254158 0.217071 -0.852111 -0.476222
-0.0985886 -0.291126 -0.232503 0.16626 -0.691078 -0.703398
-0.0320727 -0.224836 -0.256495 0.0178337 -0.177216 -0.98401
0.366536 -0.0999303 -0.271766 0.0178337 -0.177216 -0.98401
0.298839 -0.0228813 0.305943 -0.0178336 0.177216 0.98401
-0.1385 -0.14446 -0.0270426 0.255384 -0.95561 -0.146931
-0.118972 -0.21966 -0.191817 -0.964516 -0.26234 0.0297666
0.40645 -0.153283 -0.0535887 0.263421 -0.948563 0.175607
0.390369 0.445266 -0.11814 -0.263421 0.948563 -0.175607
-0.148956 0.110832 -0.319066 0.0178336 -0.177216 -0.98401
0.228395 0.268749 -0.258073 -0.252848 0.885345 -0.390169
0.318993 -0.104767 -0.208369 0.203471 -0.666726 0.716991
0.0115703 0.279253 -0.295784 -0.173656 0.545424 -0.819973
0.547438 -0.197359 -0.0984044 0.964516 0.26234 -0.0297661
-0.16107 -0.117813 0.0416146 -0.964516 -0.26234 0.0297678
0.14817 0.307352 -0.306023 -0.173656 0.545424 -0.819973
0.200093 0.0899871 0.283826 -0.0178336 0.177216 0.98401
-0.168885 0.304174 0.23306 -0.111443 0.506726 0.854874
0.175966 -0.225304 -0.0968808 0.263421 -0.948563 0.175607
0.491078 0.0373759 0.298575 -0.0178337 0.177216 0.98401
0.285903 -0.0884256 0.275878 0.173656 -0.545424 0.819973
-0.06007 0.350444 0.0453498 -0.263421 0.948563 -0.175607
-0.380812 -0.080336 -0.0206122 0.17327 -0.714011 -0.678355
0.246724 -0.201006 -0.071771 0.263421 -0.948563 0.175607
0.445276 -0.258839 -0.128371 0.263421 -0.948563 0.175607
0.130432 0.364377 0.225174 -0.198877 0.796046 0.571628
0.454453 0.231183 -0.0344058 0.964516 0.262341 -0.0297662
0.387011 0.0916574 -0.305899 0.0178337 -0.177216 -0.98401
0.27875 0.24681 -0.335804 0.0178337 -0.177216 -0.98401
-0.179437 -0.0409305 0.12404 -0.964517 -0.262339 0.0297666
0.0778887 -0.200229 0.18569 0.263421 -0.948563 0.175607
0.165839 -0.0607091 -0.282467 0.0178337 -0.177216 -0.98401
0.527362 -0.0458332 -0.11337 0.964516 0.262341 -0.0297662
0.00259662 0.120327 -0.318029 0.0178337 -0.177216 -0.98401
0.480698 0.12459 -0.123425 0.964516 0.262341 -0.0297662
0.46999 0.185303 0.271552 -0.0178337 0.177216 0.98401
-0.223503 0.10481 -0.10689 -0.211605 0.70067 -0.681385
0.422334 0.314403 -0.34172 0.964516 0.262341 -0.0297663
0.0387507 0.294805 0.155342 -0.242546 0.924945 0.292657
0.416092 0.351947 -0.213067 0.964518 0.262334 -0.0297645
0.509342 0.0419428 0.0763127 0.964516 0.262341 -0.0297662
-0.0617349 0.214047 0.256738 -0.0178337 0.177216 0.98401
-0.024592 0.351162 -0.00399013 -0.263421 0.948563 -0.175607
-0.0656585 0.284827 0.24392 -0.0178337 0.177216 0.98401
0.414642 -0.115871 0.175754 -0.263421 0.948563 -0.175607
0.199194 0.399106 -0.0807065 -0.263421 0.948563 -0.175607
0.497222 -0.164259 -0.151953 0.0178337 -0.177216 -0.98401
-0.180909 0.172426 -0.330523 -0.00159065 -0.106965 -0.994262
0.512428 -0.0392777 0.28779 0.178485 -0.564797 0.805697
0.127021 0.3641 -0.161534 -0.263421 0.948563 -0.175607
-0.126398 -0.147543 0.203164 -0.964516 -0.262341 0.029766
-0.243064 0.278395 -0.0693287 -0.263421 0.948563 -0.175607
0.324326 0.320206 0.244616 -0.0178336 0.177216 0.98401
0.0380159 0.332477 -0.198832 -0.263421 0.948563 -0.175607
0.381884 0.433798 0.13864 0.238695 -0.818242 0.522976
0.0184 0.386096 0.120221 -0.263421 0.948563 -0.175607
0.250473 0.322321 -0.261287 0.242547 -0.924947 -0.292651
0.389318 0.473919 0.0382097 -0.263421 0.948563 -0.175607
0.21099 -0.200697 -0.0164983 0.263421 -0.948563 0.175607
0.0264161 -0.249188 -0.242908 0.134367 -0.58478 -0.799986
0.200246 0.147798 -0.319395 0.0178337 -0.177216 -0.98401
0.123276 -0.241104 -0.103186 0.263421 -0.948563 0.175607
-0.0592374 0.279788 -0.280432 -0.173656 0.545424 -0.819973
0.0194405 -0.228264 0.121928 0.263421 -0.948563 0.175607
0.456987 0.236785 0.0970965 0.964516 0.262341 -0.0297662
-0.206546 0.311348 0.0538939 -0.263421 0.948563 -0.175607
0.249766 -0.151131 0.193069 0.263421 -0.948563 0.175607
0.440377 -0.00146915 0.206194 0.122139 -0.343396 0.931215
0.488624 0.135436 0.228986 0.964516 0.262341 -0.0297654
-0.0572213 0.140398 -0.322728 0.0178337 -0.177216 -0.98401
-0.202041 0.124345 0.148328 -0.964516 -0.262341 0.0297661
0.293511 0.388073 -0.281785 -0.263421 0.948563 -0.175607
0.486286 -0.183684 0.216071 0.263421 -0.948563 0.175607
0.203008 0.437354 0.120172 -0.263421 0.948563 -0.175607
-0.168205 0.246902 0.14959 -0.141645 0.609292 0.780192
0.539471 -0.084983 -0.0660391 0.964516 0.262341 -0.0297662
0.459918 0.242426 0.241777 0.964516 0.262341 -0.0297662
0.296468 0.285862 -0.26492 -0.263784 0.952686 -0.151019
0.413805 -0.119572 -0.18355 -0.248745 0.865109 -0.43556
-0.0505113 -0.253221 0.0920535 0.263421 -0.948563 0.175607
-0.0111939 0.309412 -0.249607 -0.263421 0.948563 -0.175607
0.185344 -0.186274 0.09988 0.263421 -0.948563 0.175607
0.285015 -0.134053 0.232447 0.263421 -0.948563 0.175607
-0.185603 0.33556 0.183236 -0.252188 0.948782 0.190298
0.262246 -0.122724 -0.208712 0.185708 -0.593953 0.782772
-0.153809 0.277657 -0.207203 -0.263421 0.948563 -0.175607
0.19016 0.362847 -0.263013 -0.263421 0.948563 -0.175607
0.0756056 -0.138031 0.287419 0.173656 -0.545424 0.819973
0.300995 -0.177849 -0.0280968 0.263421 -0.948563 0.175607
-0.169549 0.298171 -0.0727804 -0.263421 0.948563 -0.175607
0.0489252 -0.269373 -0.144355 0.263421 -0.948563 0.175607
0.0139564 0.324657 0.23819 -0.0178337 0.177216 0.98401
0.332955 0.0983596 0.284726 -0.0178336 0.177216 0.98401
0.393527 0.333285 -0.296359 -0.00468375 0.129724 0.991539
0.428585 -0.0935301 -0.271794 0.0178337 -0.177216 -0.98401
-0.111051 -0.185268 0.252622 -0.259159 0.919165 -0.296603
0.110375 0.395226 0.175236 -0.198877 0.796046 0.571628
-0.11372 0.00869201 -0.300032 0.0178336 -0.177216 -0.98401
0.0316641 0.202389 -0.332282 0.0178337 -0.177216 -0.98401
0.0973625 0.0979834 -0.312288 0.0178337 -0.177216 -0.98401
-0.211816 0.166565 0.203713 -0.964516 -0.262341 0.0297662
-0.030457 -0.234932 0.16076 0.263421 -0.948563 0.175607
0.238365 -0.181733 0.0448741 0.263421 -0.948563 0.175607
0.124784 -0.206464 0.0816624 0.263421 -0.948563 0.175607
0.0150031 0.222574 -0.282184 -0.0946907 0.448953 0.888524
0.00935639 -0.206992 -0.20569 0.0216255 0.0338642 0.999192
-0.228232 0.213878 0.0887655 -0.964516 -0.26234 0.0297661
0.512461 0.0121595 -0.0850948 0.964516 0.262341 -0.0297662
0.324844 0.475389 0.161559 -0.258635 0.961468 0.0932039
0.14181 -0.179488 -0.162634 -0.122139 0.343396 -0.931215
0.00474126 0.362585 0.183941 -0.198877 0.796046 0.571628
0.448114 -0.14972 0.135933 -0.964516 -0.26234 0.029766
0.15303 -0.186253 -0.254345 0.198877 -0.796046 -0.571628
-0.184877 0.0737079 0.258214 -0.964516 -0.262341 0.0297661
-0.225955 0.240269 0.193692 -0.0982292 0.25191 -0.962752
-0.0492759 0.0548378 0.285637 -0.0178338 0.177216 0.98401
0.212935 -0.137279 -0.167589 0.118754 -0.531753 -0.838532
0.23413 0.435246 0.162561 -0.198877 0.796046 0.571628
