ply
format ascii 1.0
comment Created by Open3D
element vertex 100
property double x
property double y
property double z
property double nx
property double ny
property double nz
end_header
0.538381 -0.147492 0.0476247 0.964516 0.26234 -0.0297661
0.426017 -0.14458 0.0827048 0.263421 -0.948563 0.175607
-0.183254 0.0698159 0.276524 -0.964516 -0.262341 0.0297661
0.460255 0.0387787 0.297764 -0.0178337 0.177216 0.98401
0.0432566 0.0988434 0.279389 -0.0178337 0.177216 0.98401
0.156656 0.339949 -0.286137 -0.173656 0.545424 -0.819973
-0.0161026 0.152466 -0.324157 0.0178337 -0.177216 -0.98401
-0.224591 0.115136 0.0363752 -0.964516 -0.262341 0.0297667
0.502524 0.0483059 -0.0885105 0.964516 0.26234 -0.0297654
0.263484 0.0465941 -0.300022 0.0178337 -0.177216 -0.98401
0.428759 0.350304 0.182884 0.964516 0.262344 -0.0297572
0.461857 0.197127 -0.0946251 0.964516 0.262341 -0.0297662
0.139957 0.395306 0.185417 -0.198877 0.796046 0.571628
0.137115 0.371358 -0.137466 -0.263421 0.948563 -0.175607
0.176119 0.38117 0.161551 0.255383 -0.955609 -0.146936
-0.168979 0.243521 0.184625 -0.219212 0.73287 -0.644087
-0.212655 0.164577 0.159015 -0.964516 -0.262341 0.0297662
0.272693 0.458499 0.129862 -0.263421 0.948563 -0.175607
0.446328 0.287365 0.197477 0.964516 0.262341 -0.0297654
0.263322 0.360076 0.23633 -0.0178336 0.177216 0.98401
-0.0894363 0.229615 -0.265258 0.259159 -0.919165 0.296603
-0.116347 -0.183246 0.214165 -0.964516 -0.262341 0.029766
-0.0592966 -0.252502 0.109118 0.263421 -0.948563 0.175607
0.459759 0.200663 -0.131458 0.964516 0.262341 -0.0297662
0.0702337 0.22255 -0.335214 0.0178337 -0.177216 -0.98401
0.442511 0.262047 -0.149351 0.964516 0.262341 -0.0297662
0.478066 0.1713 0.27422 -0.0178337 0.177216 0.98401
-0.327245 -0.0458765 -0.0329533 0.0211159 -0.189027 -0.981745
0.374985 0.404288 0.230391 -0.0178336 0.177216 0.98401
-0.215654 0.179239 0.191033 -0.964516 -0.262341 0.0297662
0.508325 0.0640903 0.23855 0.964516 0.262341 -0.0297654
0.105606 -0.257852 -0.16715 0.263421 -0.948563 0.175606
0.0755314 -0.0872126 0.249547 0.230956 -0.892966 -0.386356
0.318387 0.374715 -0.322372 -0.213009 0.706578 -0.674814
0.42209 0.378618 0.216325 0.964516 0.262341 -0.0297662
-0.0505049 -0.25821 0.0650926 0.263421 -0.948563 0.175607
0.342236 -0.156791 0.0237863 0.263421 -0.948563 0.175607
-0.0349505 -0.256412 0.0514759 0.263421 -0.948563 0.175607
-0.169966 -0.0756197 0.125206 -0.964516 -0.262341 0.0297656
-0.0461653 0.305483 0.240553 -0.0178337 0.177216 0.98401
-0.0070214 -0.125588 0.265807 0.0439751 -0.270788 -0.961634
0.320157 0.437078 -0.057047 -0.263421 0.948563 -0.175607
0.447908 -0.155511 0.078236 -0.964516 -0.262341 0.0297662
0.10256 0.180831 0.265698 -0.0178337 0.177216 0.98401
0.423333 0.343396 -0.0538161 0.964516 0.262341 -0.0297662
-0.217595 0.147029 -0.155737 -0.964516 -0.26234 0.029766
-0.0265035 0.0752282 0.282377 -0.0178337 0.177216 0.98401
0.415038 0.0439918 0.296005 -0.0178337 0.177216 0.98401
0.360737 -0.119024 -0.268432 0.0178337 -0.177216 -0.98401
0.171907 0.334116 0.171427 -0.232776 0.791737 -0.564773
0.339801 0.286049 0.251048 -0.0178336 0.177216 0.98401
-0.00535172 0.164776 -0.326179 0.0178337 -0.177216 -0.98401
-0.449372 -0.0920162 0.0343418 0.166099 -0.515278 0.840773
0.404833 0.0509875 -0.298252 0.0178337 -0.177216 -0.98401
0.507149 -0.127568 -0.25002 0.16626 -0.691079 -0.703397
0.116182 0.363577 -0.148099 -0.263421 0.948563 -0.175607
0.501398 0.0298382 -0.287762 0.964516 0.262341 -0.0297663
0.085187 0.28077 -0.310366 -0.173656 0.545424 -0.819973
0.26907 0.323406 -0.254143 0.192247 -0.775102 -0.601879
-0.233278 0.204344 -0.158756 -0.964516 -0.262342 0.0297669
0.232749 -0.164534 0.1462 0.263421 -0.948563 0.175607
0.0761901 -0.212715 -0.189961 -0.242546 0.924946 0.292654
0.156647 0.000191721 -0.293602 0.0178337 -0.177216 -0.98401
0.447883 -0.165376 -0.00950556 -0.964516 -0.262341 0.0297662
-0.0130818 -0.175996 0.308078 0.158556 -0.485388 0.859801
-0.0128564 -0.0436304 -0.288781 0.0178337 -0.177216 -0.98401
0.44424 -0.220976 0.0777077 0.263421 -0.948563 0.175607
0.157449 0.249367 -0.256099 -0.256322 0.903377 -0.343816
-0.202266 0.0447153 0.139136 -0.964516 -0.26234 0.0297661
0.0121956 0.332609 0.176287 0.201023 -0.802774 -0.561376
-0.0773074 0.282664 -0.274692 -0.173656 0.545424 -0.819973
0.0472072 0.175554 0.265645 -0.0178337 0.177216 0.98401
0.260043 0.382904 0.131134 0.073337 -0.157899 0.984728
0.236743 0.130482 -0.315615 0.0178337 -0.177216 -0.98401
0.237655 -0.164741 0.137725 0.263421 -0.948563 0.175607
0.528074 -0.00629541 0.258152 0.964516 0.262341 -0.0297655
0.357981 -0.0392165 0.293345 0.173656 -0.545424 0.819973
0.075302 0.383179 0.0191062 -0.263421 0.948563 -0.175607
0.492606 0.0395167 -0.294595 0.0178337 -0.177216 -0.98401
0.254727 0.0288995 0.295818 -0.0178336 0.177216 0.98401
0.286253 0.0223383 -0.295241 0.0178337 -0.177216 -0.98401
-0.205213 0.093618 -0.225262 -0.964516 -0.262341 0.029766
0.501102 0.036768 -0.236296 0.964516 0.262341 -0.0297661
0.51905 -0.0273969 -0.220231 0.964516 0.262342 -0.0297536
-0.178571 -0.0716674 -0.118781 -0.964516 -0.262341 0.0297667
0.440371 -0.0991271 -0.17216 -0.122142 0.343408 -0.93121
-0.0320328 -0.296668 -0.17168 0.264019 -0.959029 0.102745
0.53949 -0.070733 0.0601447 0.964516 0.26234 -0.0297661
-0.0502535 0.319898 0.163367 0.263594 -0.963237 0.051883
0.525266 -0.0431329 -0.157487 0.964513 0.26235 -0.0297809
-0.142393 0.216169 -0.259802 0.263784 -0.952686 0.151019
0.170174 0.271862 -0.289353 -0.0211186 0.189037 0.981743
-0.0228578 0.224149 -0.283808 0.0347201 -0.0142674 0.999295
0.254084 0.236483 0.258421 -0.0178336 0.177216 0.98401
0.215103 -0.199367 -0.015483 0.263421 -0.948563 0.175607
-0.0766062 0.198499 -0.235743 -0.133657 0.387926 -0.911948
0.146379 -0.0882575 0.261965 0.00467719 -0.1297 -0.991542
-0.0169506 -0.267812 -0.0371031 0.263421 -0.948563 0.175607
0.169993 -0.189459 0.105702 0.263421 -0.948563 0.175607
-0.0125675 -0.041582 -0.289145 0.0178337 -0.177216 -0.98401
