ply
format ascii 1.0
comment Created by Open3D
element vertex 500
property double x
property double y
property double z
property double nx
property double ny
property double nz
end_header
0.429697 0.329576 0.0136295 0.924448 0.367274 -0.102498
0.138233 -0.189903 0.159217 0.235332 -0.948954 0.210012
0.288395 0.451153 0.194048 -0.200187 0.771646 0.603728
-0.061417 0.0232903 0.291657 -0.0163858 0.176772 0.984115
0.236715 -0.0635253 0.210604 0.211696 -0.249844 0.944861
-0.140251 0.181971 -0.228969 -0.111752 0.318091 -0.941451
0.385957 -0.0520902 -0.279044 0.00103788 -0.164184 -0.986429
0.217836 -0.191285 -0.220066 0.207741 -0.788216 -0.579275
0.51886 -0.0555154 -0.222396 0.0446123 -0.368429 0.928585
0.177579 0.331305 0.169711 -0.251805 0.885586 -0.390297
-0.0514607 0.313674 -0.161936 -0.15638 0.965748 -0.207063
0.484812 0.109483 -0.23309 0.972061 0.234647 -0.00622035
0.0106575 0.130219 -0.320988 0.0544688 -0.237141 -0.969947
0.135241 0.190604 -0.326757 0.0687065 -0.211761 -0.974903
0.344841 -0.107779 -0.214235 0.11322 -0.334337 0.935628
0.251963 0.309996 -0.244123 0.0580739 -0.43274 -0.899646
0.544662 -0.169847 0.0226765 0.963597 0.253919 0.083707
0.137259 -0.0700854 -0.278849 -0.0230738 -0.054506 -0.998247
-0.031008 0.112387 -0.317562 0.0103022 -0.16944 -0.985487
-0.152423 -0.0539693 0.226826 -0.970574 -0.24078 0.00347374
0.0408654 0.296815 0.157158 -0.259791 0.913526 0.313017
-0.00734839 0.156049 0.267806 -0.0734225 0.298111 0.951703
0.509227 -0.216461 -0.00139777 0.198496 -0.957985 0.207038
-0.175172 0.0251035 0.196479 -0.965751 -0.257866 0.0288011
0.146711 -0.0748493 0.255444 0.166676 -0.675282 -0.718479
0.0293869 0.341596 -0.15197 -0.354065 0.930867 -0.0901374
-0.103789 0.192697 0.259476 -0.0264582 0.226941 0.973549
0.082185 0.0407266 -0.301696 0.0271771 -0.189199 -0.981563
0.0695031 0.0591516 -0.302916 -0.0550392 -0.0127746 -0.998402
0.187521 -0.192097 0.0624024 0.290323 -0.95588 0.044788
-0.193324 0.298397 0.23589 -0.10794 0.530339 0.840886
0.485915 0.100525 -0.184842 0.942075 0.332918 -0.0407557
-0.18091 -0.0783137 -0.108032 -0.997571 -0.069048 -0.00917166
0.495416 0.114167 0.272375 0.933419 0.33504 -0.128364
-0.21065 0.241617 0.251763 0.00185948 0.150342 0.988632
0.305538 0.441498 0.0221636 -0.284081 0.947909 -0.144102
0.398848 0.418683 -0.243022 0.971202 0.228208 0.0684621
-0.147991 0.281794 0.242581 -0.0116963 0.166632 0.98595
-0.118891 -0.178273 0.187129 -0.963041 -0.267672 0.0300706
0.086213 0.267092 -0.285622 0.280229 -0.52701 0.802329
0.319103 0.443331 -0.0109055 -0.275703 0.952249 -0.131189
0.467377 0.165182 -0.261254 0.978732 0.173806 -0.108975
0.0677401 0.326377 0.184813 -0.0138145 0.193987 -0.980907
0.493986 0.127334 0.245262 0.962173 0.270747 -0.03032
-0.234399 -0.00366156 -0.035096 -0.0290641 0.204624 -0.978409
0.280881 -0.143384 0.182886 0.242104 -0.936612 0.253268
-0.0101978 -0.120894 0.221366 0.147619 -0.43138 0.890011
0.408974 -0.100335 0.236283 0.338142 -0.936246 0.0954071
-0.137538 -0.121684 0.140888 -0.996537 -0.0788136 0.0264878
0.217547 -0.174062 -0.202423 -0.183316 0.744874 0.641528
0.35573 -0.17725 -0.192637 0.222189 -0.71138 -0.666762
0.545837 -0.167848 0.131854 0.961173 0.251674 -0.113162
0.408462 -0.166676 -0.125876 0.276127 -0.959186 0.0609595
0.252494 0.319676 -0.319698 -0.123401 0.548661 -0.826888
-0.225093 0.277481 0.242139 0.041363 0.279154 0.959355
0.191771 -0.169766 0.198837 0.233373 -0.935117 0.266633
0.221412 0.225557 0.259428 0.0126719 0.126394 0.991899
-0.0250816 0.255646 0.248866 -0.092418 0.209333 0.973467
0.430461 -0.218222 -0.105499 -0.956677 -0.289915 0.0267869
0.277547 0.419444 -0.0990198 -0.268843 0.957146 -0.107679
0.427054 0.347816 0.145217 0.974428 0.21802 -0.0543835
0.0565155 -0.140337 0.243291 -0.254508 0.960702 -0.110802
-0.0477475 -0.218769 -0.156282 -0.00378398 -0.0707681 -0.997486
0.49402 -0.210015 0.0530466 0.271202 -0.946941 0.172486
0.37543 0.466163 0.0291179 -0.296555 0.945073 -0.137451
0.390095 0.392382 0.159849 -0.14023 0.796153 -0.588622
-0.0516635 0.350627 0.0490713 -0.251494 0.95053 -0.182328
0.0954754 0.140486 -0.321986 0.0359296 -0.247833 -0.968136
0.251477 0.296871 -0.292511 -0.0248528 0.140181 0.989814
-0.124698 -0.144738 0.224535 -0.959018 -0.281546 0.0318839
0.421517 0.349918 -0.0846171 0.946816 0.309715 -0.0872683
0.243027 0.406158 -0.104685 -0.237225 0.936495 -0.258265
-0.183188 0.32212 0.218395 -0.185779 0.774222 0.605035
-0.0474049 0.22636 0.254278 -0.0119222 0.316534 0.948506
-0.348103 -0.0298486 -0.0333242 -0.130532 0.352972 -0.926484
0.431989 -0.057167 0.294658 0.0986434 -0.523956 0.846014
0.473895 0.0590069 -0.301285 0.111469 -0.196565 -0.974134
0.330834 0.122058 0.282107 -0.0545801 0.185935 0.981045
-0.104623 -0.264758 -0.0885032 -0.962109 -0.271068 0.0294847
-0.117311 -0.199322 0.207567 -0.983537 -0.179149 -0.0236718
0.362257 0.398176 -0.305008 -0.348614 0.879954 -0.322723
0.30904 0.23784 0.258802 0.0740944 0.127867 0.98902
0.200951 0.337131 0.162213 -0.306818 0.949143 -0.0706451
0.181774 -0.190481 0.0958475 0.318775 -0.941947 0.105446
0.390989 0.445675 -0.0723754 0.910052 0.352597 -0.217902
-0.0232972 -0.24539 0.0931091 0.246013 -0.9486 0.199088
-0.0575696 -0.201393 -0.186011 0.222177 -0.886171 0.406617
-0.248353 0.294778 0.200825 -0.965343 -0.259496 0.0278461
0.437079 -0.0238825 0.20956 -0.0922103 0.46242 0.881853
-0.187387 0.0635667 0.133279 -0.082135 0.405681 0.910317
-0.0263978 -0.275913 -0.0758245 0.253333 -0.950153 0.181745
0.0814217 -0.0127424 -0.293757 0.0181824 -0.204455 -0.978707
0.110272 0.237454 0.255257 -0.0188154 0.177973 0.983856
0.0559853 -0.120872 -0.277202 0.0825535 -0.300186 -0.950302
0.000789176 -0.260612 -0.241041 0.142543 -0.671882 -0.726812
0.401438 0.415171 -0.0464372 0.91779 0.368951 -0.146751
-0.109352 -0.240422 -0.109618 -0.918093 -0.388287 0.0796161
0.515328 -0.0964744 0.21872 -0.0241284 0.336097 0.941518
0.107112 0.0835698 -0.3112 0.0243697 -0.315312 -0.948675
-0.152876 0.330587 0.209663 -0.218292 0.76352 0.607771
-0.0930691 0.135639 0.271837 -0.0216086 0.0855091 0.996103
0.387584 0.488457 0.122014 0.97753 0.208355 -0.0319939
-0.0365722 -0.196698 -0.168886 0.208207 -0.885919 -0.414485
-0.178157 -0.0212114 0.150033 0.118603 -0.180415 0.976414
0.443384 -0.195729 0.224129 0.262996 -0.94849 0.176635
0.141666 0.414205 0.096844 -0.159815 0.940612 -0.299512
0.406335 0.410274 -0.00999611 0.942382 0.287301 -0.171386
0.077943 0.046629 -0.300517 0.00189273 -0.154164 -0.988043
-0.11131 -0.206348 0.135101 -0.976809 -0.214057 -0.00489392
0.296472 -0.0384271 0.303339 0.188919 -0.548208 0.814725
-0.194197 0.166148 0.263265 0.00268519 0.127662 0.991814
0.165022 0.379472 0.148364 0.265634 -0.905936 0.329726
0.0159769 -0.199102 0.270447 0.312692 -0.920035 0.236134
-0.116902 -0.18036 0.123035 -0.991828 -0.123211 -0.0330954
-0.236956 0.142953 -0.0115696 -0.922019 -0.357541 0.148476
0.417092 -0.136823 0.0653467 -0.317541 0.940001 -0.124762
-0.198186 0.0688543 -0.253472 -0.916482 -0.395305 0.0615963
-0.156782 0.250572 -0.301351 -0.276713 0.764778 -0.581846
-0.0760402 -0.242261 0.199102 0.117692 -0.942114 0.313959
0.501358 0.0756715 0.0981696 0.932771 0.325426 -0.155038
0.410635 0.395375 -0.0593723 0.961543 0.272506 -0.0342957
0.425931 0.316503 -0.222311 0.975812 0.218495 -0.00715987
-0.491231 -0.0667877 0.0416729 -0.132366 0.512562 0.848386
-0.0589755 0.32613 -0.0959455 -0.264702 0.948365 -0.174745
-0.158708 -0.0240776 0.234673 -0.963027 -0.267258 0.0339432
0.00719756 0.342964 -0.0726921 -0.247915 0.943566 -0.219592
0.35884 0.433947 -0.11361 -0.0818506 0.94688 -0.310995
0.434168 -0.208221 -0.076085 -0.040589 0.33844 0.940112
0.192645 0.00828591 0.299449 -0.02469 0.187043 0.982041
0.151253 0.253771 -0.279692 -0.229303 0.80788 0.542909
-0.240224 0.240612 -0.0203363 -0.991243 -0.118978 0.0572771
0.199804 -0.112073 -0.275024 -0.0978006 -0.142487 -0.984953
0.278091 0.0644293 0.285273 0.141907 0.144133 0.979331
-0.191986 0.255784 0.143881 0.0237806 0.0201214 0.999515
0.334647 0.409752 0.129266 0.14302 -0.430745 0.891069
0.0180025 -0.272827 -0.115439 0.123188 -0.959002 0.255224
-0.0974462 -0.277961 0.0276269 -0.966156 -0.256569 -0.0267552
0.540625 -0.0714486 0.074508 0.964666 0.248731 0.0869078
-0.207509 0.0176235 0.0197339 -0.133258 0.625809 0.768509
0.262701 -0.143373 0.202601 0.392401 -0.912283 0.117305
0.22933 -0.173425 -0.181675 -0.259122 0.952377 -0.160731
-0.18573 0.0664995 0.280617 -0.968349 -0.248477 0.0236513
-0.489063 -0.103401 0.0290685 -0.895565 -0.435769 0.0898233
-0.131639 0.299924 -0.111959 -0.264623 0.948438 -0.174471
0.190479 0.355607 0.236703 -0.0637881 0.238452 0.969057
0.531307 -0.0936231 0.191341 0.980817 0.190943 0.0392359
0.523654 -0.0360269 -0.107735 0.995247 0.0973761 0.000977925
0.273781 0.452377 0.115676 -0.246885 0.936431 -0.249289
-0.0368083 -0.245595 0.120613 0.244557 -0.948707 0.200366
-0.214186 0.138123 -0.156583 -0.966697 -0.255885 0.00452747
0.06287 0.38623 0.0836759 -0.310268 0.941814 -0.129304
0.0285251 0.180498 -0.327094 0.122156 -0.193445 -0.973477
0.346825 0.151041 0.276736 0.0109346 0.152927 0.988177
0.355656 0.430288 -0.143168 -0.271416 0.948439 -0.1637
0.419572 0.356668 -0.207974 0.975993 0.216837 -0.0204723
0.069253 -0.213316 0.151522 0.245289 -0.947709 0.204161
0.0122823 -0.101178 0.240263 0.225806 -0.963684 0.142567
0.427903 0.296804 0.247187 -0.0217853 0.0995338 0.994796
-0.196281 0.00972185 -0.0481698 -0.969402 -0.244757 0.0188146
0.251655 -0.127577 0.254543 0.450848 -0.484819 0.749458
0.454926 0.19753 -0.28203 0.967324 0.252689 -0.0208057
0.0550266 0.317388 0.135983 -0.0311686 0.260519 0.964966
0.19204 0.427754 0.0957443 -0.334918 0.933478 -0.12825
0.286374 -0.0863823 -0.277552 -0.053663 -0.126033 -0.990574
0.428609 -0.0378325 0.231467 -0.355994 0.934355 0.0158031
0.194484 0.364413 -0.272255 -0.264295 0.950499 -0.163398
-0.235759 0.23457 0.101398 -0.943024 -0.323063 0.0796033
-0.11023 -0.257365 -0.15107 -0.95506 -0.291225 0.0552168
-0.192058 0.226965 -0.318944 -0.327501 0.584456 -0.742398
-0.228252 0.193213 -0.256067 0.263953 -0.964535 0.00143378
0.449717 0.24336 -0.04543 0.986559 0.163147 0.00920243
0.543494 -0.203817 0.0200664 0.724881 -0.687061 0.0499391
0.0499791 -0.00310436 0.302987 -0.00386374 0.132822 0.991132
0.289774 0.461848 0.118606 -0.26841 0.947724 -0.172553
-0.211058 0.173502 -0.280278 0.0913403 -0.0840964 0.992262
-0.17184 -0.0671552 0.0721039 -0.977403 -0.211303 0.00578836
-0.224268 0.32394 0.182604 -0.288333 0.935958 0.202105
0.517148 0.0400175 0.248996 0.979352 0.187147 0.0764604
0.360059 0.253768 0.256593 0.0615832 0.0857599 0.994411
-0.0564643 0.272036 0.154001 -0.211394 0.834352 0.509086
0.393951 0.452028 -0.0541708 0.961949 0.270873 -0.0358019
-0.182444 0.0459802 0.172073 -0.972766 -0.231699 0.00653599
0.448026 -0.213203 -0.0697589 -0.143213 0.195834 0.970123
0.457793 -0.182181 0.149854 -0.981441 -0.188557 -0.0349198
-0.00364965 0.0563787 -0.30837 -0.0537369 -0.119284 -0.991405
0.491162 -0.210533 0.0521442 0.298909 -0.950376 0.0862489
0.445871 -0.233539 -0.0444323 -0.329491 0.935236 -0.129492
-0.0768106 0.26828 0.248926 -0.074318 0.217964 0.973123
0.451643 0.172269 -0.319717 0.0475667 -0.325928 -0.944197
0.461771 -0.251962 -0.128284 0.190417 -0.962411 0.193665
-0.21779 0.308441 0.0657043 -0.163154 0.934652 -0.315921
0.479799 -0.232384 -0.0452507 0.227115 -0.942311 0.245904
0.407163 -0.154746 -0.208957 0.271152 -0.891713 -0.362387
0.346237 0.403603 -0.262896 -0.261931 0.947734 -0.182187
0.357929 -0.120039 0.208466 0.281033 -0.949042 0.142619
-0.157246 0.322372 0.0337413 -0.229233 0.94605 -0.228999
0.0564614 0.214934 -0.336791 0.0118407 -0.173065 -0.984839
0.448395 0.235323 -0.1618 0.987926 0.140811 -0.0646089
0.179596 -0.0566666 -0.283724 0.0383228 -0.239513 -0.970137
-0.0438975 0.311838 0.18637 0.118767 -0.530772 -0.839151
-0.241399 0.221129 -0.220512 -0.962803 -0.245938 -0.111914
0.354853 0.0296238 -0.293268 0.0361283 -0.25631 -0.965919
-0.120357 -0.164564 0.199586 -0.895613 -0.358941 0.262751
0.0298603 0.165386 0.267427 -0.0202379 0.145016 0.989222
0.152012 -0.162173 -0.209468 0.0742772 -0.184266 0.980066
-0.426181 -0.0996105 0.0145968 0.385702 -0.873803 0.296147
0.133788 0.254752 -0.285228 -0.0692034 0.382266 0.921457
-0.222615 0.192298 0.135003 -0.958929 -0.280543 0.0418439
0.399312 -0.047471 0.229467 -0.326718 0.941309 -0.0848058
0.0404565 0.324704 -0.235277 -0.265666 0.949074 -0.169354
0.322496 -0.147366 0.100763 0.28884 -0.957313 -0.0110544
0.221586 -0.162567 0.15695 0.268549 -0.950586 0.155778
0.448029 -0.16071 0.157581 0.0913624 -0.188813 -0.977754
0.444278 0.276085 -0.0538457 0.926544 0.319407 -0.198735
-0.00196171 -0.229812 0.149635 0.18356 -0.938621 0.292054
0.132671 -0.180945 -0.209815 -0.0241083 0.249775 0.968004
0.457619 -0.210947 0.0206638 -0.300845 0.945149 -0.12722
0.50018 -0.186812 0.186054 0.332257 -0.939445 0.0839519
0.293811 0.405737 0.167181 0.187403 -0.776735 -0.601301
-0.00111691 -0.235179 -0.181538 -0.127843 0.991789 -0.00338011
0.397474 -0.0151192 -0.28749 0.0356133 -0.191924 -0.980763
0.286108 0.456157 0.0836818 -0.256169 0.949273 -0.182369
0.407527 -0.126301 0.0805009 0.209556 -0.950527 0.229315
0.185969 -0.159768 -0.209598 0.0697978 0.0177221 0.997404
0.118647 -0.0276919 -0.289935 0.178868 -0.255348 -0.95016
-0.0206608 -0.115327 0.225895 0.235917 -0.809555 0.537554
-0.119925 0.204719 -0.234684 0.06978 -0.393381 -0.916724
-0.184669 0.199359 -0.246403 0.212736 -0.899105 -0.382563
0.444814 0.253358 -0.174877 0.981535 0.182396 0.0576297
0.399163 -0.148007 -0.0134239 0.297055 -0.94458 0.13974
0.337032 -0.176298 -0.0718703 0.261538 -0.94798 0.181468
0.116801 -0.0654274 -0.285377 -0.153589 -0.0888125 -0.984136
0.361599 -0.130096 -0.176761 -0.102105 0.766012 -0.634666
0.454642 0.265068 0.257791 -0.114834 0.218079 0.969151
0.0336715 0.07546 -0.309504 0.121592 -0.223829 -0.967014
0.0204948 -0.273958 -0.137207 0.162655 -0.966272 0.199654
-0.112575 -0.213391 0.0109213 -0.95277 -0.27069 0.137683
0.0409847 -0.217009 0.165078 0.290424 -0.941944 0.16851
0.524119 -0.235309 -0.138367 0.051935 -0.332179 -0.941786
0.333914 0.472906 0.172365 -0.233025 0.951463 0.201041
-0.20119 0.0650893 -0.288192 -0.980109 -0.197758 -0.0166992
0.535588 -0.14677 -0.0423795 0.907807 0.388558 -0.157825
0.331338 -0.0194948 0.249335 0.122512 -0.713169 -0.690203
0.441374 -0.23748 -0.141227 0.128922 -0.389171 -0.912099
0.462815 0.181571 -0.0654926 0.956894 0.285042 -0.0557135
0.144544 -0.01963 -0.289441 0.0140838 -0.124983 -0.992059
-0.178479 -0.00387294 -0.276956 -0.922532 -0.333243 0.194639
-0.197194 0.28703 -0.0851762 -0.205081 0.954293 -0.217409
-0.206 0.0344195 -0.1525 -0.0778301 0.193034 -0.9781
0.224725 -0.0469466 0.225697 0.288971 -0.888897 0.355469
-0.12437 -0.19009 -0.210173 -0.969662 -0.24386 0.016942
0.232133 0.0765111 0.287465 -0.0659412 0.196384 0.978307
0.265517 0.334445 -0.31245 -0.229015 0.566563 -0.791554
0.506772 -0.186904 0.193532 0.278274 -0.948063 0.154079
0.0172229 -0.0669455 -0.28669 0.0939922 -0.218718 -0.971251
0.229622 -0.169817 0.106487 0.185671 -0.962664 0.196986
-0.449062 -0.0964606 -0.0237543 0.151048 -0.686202 -0.711556
-0.1688 0.017664 0.238509 -0.964806 -0.2614 0.0286264
-0.0243931 0.346189 -0.012555 -0.246601 0.94955 -0.193759
-0.205364 0.0257425 -0.124218 -0.977801 -0.208571 0.0200956
0.369468 -0.141993 0.0682529 0.26345 -0.948559 0.175582
0.278973 -0.00399523 -0.289669 0.0277133 -0.187026 -0.981964
0.166285 0.0221815 -0.297727 -0.0171025 -0.101181 -0.994721
0.24547 0.448711 0.144024 -0.225939 0.850751 0.474526
0.0825344 -0.209336 -0.167156 -0.12867 0.594718 -0.793571
-0.116766 0.226235 0.255881 0.0777269 0.0635109 0.99495
-0.209007 0.0554011 -0.0961109 -0.959839 -0.279112 0.028377
0.11773 -0.106551 0.300699 0.24332 -0.595088 0.765941
0.385704 -0.133443 0.0761051 0.374718 -0.92301 0.0873975
0.533862 -0.0350019 0.170548 0.970201 0.241703 -0.0169896
-0.249264 0.302364 0.125097 -0.951087 -0.297766 0.0822778
0.398042 0.464258 0.116205 0.927761 0.372989 -0.0117811
0.307125 0.390399 0.179596 -0.101132 0.1188 -0.987755
0.339317 -0.098626 -0.211881 0.317159 -0.646771 0.693612
0.333818 0.295593 -0.27123 -0.253207 0.964856 -0.0702753
0.489617 -0.00600462 0.251886 -0.0857294 0.205088 -0.974982
0.37804 -0.0535032 0.22124 -0.267564 0.861016 0.432506
-0.0817813 0.250299 -0.301425 -0.280032 0.585802 -0.760538
0.340463 -0.158356 0.0360237 0.27014 -0.947461 0.171294
0.531704 -0.181487 -0.15001 0.00970482 -0.145515 -0.989308
0.366009 -0.146473 0.0281878 0.349566 -0.936878 -0.0079466
-0.111024 -0.210225 0.138941 -0.953058 -0.301556 0.0272796
0.0873629 0.245685 0.254074 -0.0349717 0.17798 0.983412
-0.0472368 -0.0473191 -0.287702 0.0563703 -0.315117 -0.947377
-0.0961853 0.321566 0.202439 -0.203539 0.779395 0.592549
0.380486 0.43055 0.226918 -0.0784678 0.273657 0.958621
0.434112 0.287449 -0.120967 0.94831 0.310768 -0.0642815
0.436549 0.295334 -0.0430066 0.982371 0.186782 0.00770583
-0.160422 0.321527 0.0465287 -0.295929 0.942428 -0.155743
0.190383 0.3435 -0.289216 -0.232534 0.573488 -0.785519
0.0758713 0.203361 0.260591 0.017186 0.103993 0.99443
0.173716 0.0331105 -0.299832 -0.183358 -0.0814265 -0.979668
0.435007 -0.0795576 -0.177984 0.065861 -0.440523 -0.895322
0.062992 -0.221047 0.0861484 0.190628 -0.950058 0.247083
0.284587 -0.136973 0.229534 0.254065 -0.949875 0.182177
-0.147096 -0.102323 0.118991 -0.960334 -0.276446 0.0365433
0.527304 -0.0460487 -0.155705 0.950777 0.299977 -0.0777024
0.539333 -0.100262 -0.24 0.955945 0.289876 -0.0462826
0.51101 0.0346528 0.129917 0.991635 0.0682261 0.109569
-0.48698 -0.0880491 0.0394492 0.0157193 -0.121295 0.992492
0.00759681 0.297869 -0.274655 -0.163312 0.53989 -0.825741
0.235261 -0.0508944 0.254701 0.10501 -0.516346 -0.849917
-0.116898 -0.182033 0.150803 -0.963596 -0.265142 0.0344
0.547018 -0.223818 -0.0913922 0.506473 -0.821541 0.261831
0.31623 0.393576 0.131423 -0.0450515 0.170841 0.984268
-0.223953 0.319001 0.132186 -0.240608 0.950034 -0.198853
0.249401 0.296159 -0.246237 -0.114863 0.137155 -0.983867
-0.175296 0.0343861 0.226252 -0.984816 -0.165745 -0.051635
0.494286 0.114533 0.24371 0.972871 0.228177 0.0381659
-0.238775 0.239459 0.0274965 -0.968944 -0.230443 -0.0896888
0.190649 0.0459999 0.292892 -0.104884 0.277925 0.95486
0.295182 0.176631 0.27438 -0.118408 0.283936 0.951504
-0.21343 0.263313 0.191557 0.05371 -0.482434 -0.874284
0.0847386 0.330187 0.133536 0.0360916 -0.0251858 0.999031
0.304167 -0.127582 0.223953 0.259788 -0.949136 0.177908
-0.156323 0.336653 0.108568 -0.322658 0.938358 -0.124002
0.33109 -0.132995 0.170728 0.21314 -0.951494 0.221878
0.461309 -0.188181 0.0595959 -0.940247 -0.338718 0.034733
0.0373304 0.0587671 -0.307303 0.0449844 -0.246694 -0.968049
0.181779 -0.10221 0.222951 -0.220856 0.78647 0.576791
0.395551 0.432856 -0.128224 0.958185 0.283339 -0.0400035
0.417165 0.378801 0.13414 0.916016 0.391445 -0.0876696
-0.124734 0.199193 -0.281024 0.0745856 -0.184158 0.980063
-0.144157 0.300803 -0.107187 -0.237165 0.951917 -0.193925
0.279358 0.404775 -0.178059 -0.313106 0.943534 -0.108203
-0.181446 -0.0587328 -0.115438 -0.957739 -0.281144 0.0607738
0.0395173 0.368655 0.194543 -0.193117 0.798196 0.570604
0.173104 -0.0836759 0.262489 -0.00103533 -0.0883831 -0.996086
-0.166929 -0.0526136 -0.283911 -0.959325 -0.273331 0.0706036
-0.168791 0.0524081 -0.309077 -0.104996 -0.109659 -0.988408
0.22964 -0.0650405 0.258722 0.253433 -0.315262 -0.914539
0.119404 0.078145 -0.309699 0.0222452 -0.138254 -0.990147
-0.1216 0.259325 -0.303062 -0.244091 0.797679 -0.551477
0.336124 -0.113534 0.248196 0.0872816 -0.520035 0.849674
0.542873 -0.173011 0.0340515 0.989507 0.141652 0.028465
0.482124 0.136733 -0.103019 0.972412 0.23287 0.0136659
-0.173044 -0.0114248 -0.187722 -0.963462 -0.264427 0.0426503
0.247787 0.0493876 0.294926 -0.0585164 0.264793 0.962528
0.182449 -0.214448 -0.0555424 0.330144 -0.933739 0.138334
-0.181466 -0.0308696 -0.0410568 -0.978086 -0.185699 -0.0941434
0.485047 -0.0697521 0.266464 0.221521 -0.774562 0.592438
-0.00797524 0.315455 0.241822 0.0291622 0.152147 0.987928
0.0751886 -0.109403 0.307257 0.362035 -0.546597 0.755091
0.461122 -0.192469 0.122012 -0.985332 -0.170607 -0.00367982
-0.19431 0.0495755 0.142684 -0.0339606 0.259822 0.965059
-0.168494 0.282434 0.151145 0.183005 -0.593957 0.783406
0.0582004 0.220402 -0.265524 -0.224088 0.964907 0.136888
0.50091 0.0712584 0.0626797 0.963908 0.26427 -0.0323012
0.266036 0.327961 -0.266986 0.255708 -0.966753 -0.00170286
-0.129125 -0.144951 0.186734 -0.970787 -0.239571 0.0133216
0.386103 0.431098 0.222744 -0.115637 0.319552 0.940487
0.351817 -0.0912945 -0.186147 0.220868 -0.975162 -0.0166227
-0.185941 0.0245063 -0.29328 -0.977985 -0.177065 0.110422
0.503702 -0.208858 0.0425936 0.229421 -0.955645 0.184684
-0.140829 0.250435 -0.305574 -0.198559 0.723063 -0.66163
0.232033 -0.150327 0.234329 0.175593 -0.960494 0.215912
0.192987 0.289832 0.250163 -0.0387045 0.195096 0.98002
-0.0765508 -0.269214 0.0455218 0.350197 -0.934443 0.0646396
-0.237644 0.217852 -0.136574 -0.975944 -0.186521 -0.112882
-0.0988552 0.291731 -0.206267 -0.168258 0.940907 -0.293909
0.182241 0.316001 0.244081 0.000425802 0.166358 0.986065
-0.0214001 -0.017528 0.29844 -0.076505 0.181652 0.980382
-0.125386 0.297915 -0.145424 -0.358535 0.927829 -0.102885
0.122956 0.413533 0.108706 -0.229791 0.942287 -0.243498
0.01034 -0.18223 -0.172743 0.19835 -0.862449 -0.465659
0.235369 0.379076 0.231231 -0.0495139 0.189738 0.980585
0.402471 0.0215979 0.297274 -0.0322433 0.188326 0.981577
0.155229 -0.188292 0.147155 0.276078 -0.950652 0.14157
-0.0922319 0.297824 -0.189676 -0.341207 0.939983 -0.00299973
0.394271 0.432307 -0.170106 0.977336 0.211655 0.00412248
0.0465309 0.110277 -0.31814 0.0786219 -0.232665 -0.969374
-0.187526 0.165023 -0.330805 -0.0426731 -0.104139 -0.993647
0.364263 -0.144656 0.0433025 0.360561 -0.924635 0.122663
0.232344 -0.186152 0.0238351 0.28639 -0.954036 0.0882929
-0.087266 0.294288 0.240903 0.00942291 0.123792 0.992264
-0.200757 0.296163 -0.0415606 -0.330027 0.937222 -0.112681
0.306531 0.168848 0.270755 -0.0160176 0.162559 0.986569
0.260377 0.397808 -0.165975 -0.271018 0.949672 -0.157075
0.0249501 0.22472 -0.240721 -0.14774 0.437441 -0.887028
0.488641 -0.154573 -0.194319 0.337855 -0.939048 -0.0635763
0.306883 -0.0478734 0.294825 0.19468 -0.553852 0.809536
-0.000129955 -0.197437 0.287195 0.254263 -0.836176 0.485964
0.105936 0.347847 -0.211484 -0.208013 0.943275 -0.258773
0.416206 -0.118549 0.146267 0.236886 -0.945931 0.221585
0.34424 0.25695 0.257442 -0.028136 0.196478 0.980104
0.522495 -0.00816414 -0.0321358 0.970736 0.239772 0.0134436
-0.054951 -0.17706 -0.264649 0.0381193 -0.241546 -0.96964
0.488291 0.111295 -0.135713 0.973493 0.227775 0.0207182
-0.0956393 0.337591 0.183426 -0.186936 0.777155 0.600904
0.381515 0.430347 -0.192971 -0.272132 0.954246 -0.123933
0.404393 -0.12778 0.0883019 0.328059 -0.941669 0.0750772
-0.0246011 0.359155 0.0373295 -0.346567 0.929124 -0.128917
0.12166 0.134828 0.274054 0.031501 0.157049 0.987088
0.155206 -0.157417 0.255549 0.22216 -0.584694 0.780242
0.297003 -0.175467 -0.0120799 0.239989 -0.947843 0.209761
-0.126263 -0.183261 -0.129835 -0.94221 -0.319781 0.0999035
-0.12729 -0.0277668 -0.295759 0.0321716 -0.196125 -0.980051
-0.207003 0.0865734 -0.266616 -0.978578 -0.203341 0.0322121
0.473732 0.170808 0.107627 0.965092 0.26124 -0.0187077
0.485696 -0.00204844 0.251515 -0.0636986 0.158961 -0.985228
-0.164549 -0.0417919 -0.187778 -0.9858 -0.166264 -0.0235581
0.466043 0.209629 0.145289 0.965565 0.249791 0.0727213
0.386916 0.320589 -0.250777 -0.229478 0.660207 -0.715169
-0.156065 0.0413038 0.286971 0.00167416 0.0707731 0.997491
0.465732 -0.0658123 -0.183216 0.189378 -0.921826 -0.338191
0.355646 0.454992 -0.02981 -0.316698 0.938855 -0.135105
0.504166 0.084995 0.239841 0.964736 0.262201 -0.0231396
0.486886 0.101225 -0.140194 0.969848 0.238476 0.0502323
0.130044 -0.212825 0.0326346 0.313213 -0.94961 -0.0117774
0.364028 0.455501 0.213025 -0.0732968 0.695063 0.715203
0.489942 -0.0948308 0.214959 -0.00749903 0.171483 0.985159
-0.145243 0.323472 0.222891 -0.268143 0.541129 0.797044
-0.229766 0.190825 -0.147628 -0.983373 -0.0537576 -0.173457
0.0496644 0.396158 0.109744 -0.245635 0.939541 -0.238591
0.462023 0.232745 0.185107 0.909408 0.407544 -0.0829721
0.482307 0.153509 0.201734 0.932713 0.339369 -0.121966
0.0206921 0.165667 0.267631 0.0478499 0.0601061 0.997044
0.16539 -0.224517 -0.196498 0.224126 -0.753198 -0.618433
0.166452 -0.214885 -0.0270472 0.318503 -0.944882 0.0758582
-0.17808 -0.0086013 -0.2733 -0.964145 -0.263748 0.0293639
-0.208232 0.0601139 0.0584973 -0.952138 -0.303714 0.0345025
0.270297 -0.0692433 0.289375 0.00277633 -0.488474 0.872574
0.236044 0.443352 0.103974 -0.175062 0.919687 -0.351468
0.462884 0.170655 -0.241449 0.97251 0.231485 -0.0252647
0.498885 -0.240342 -0.0950971 0.169869 -0.916706 0.361654
0.399878 0.405347 -0.248906 0.957357 0.287721 -0.0261613
0.181001 -0.197286 0.0436761 0.213861 -0.958835 0.186812
0.407705 -0.146708 -0.0318466 0.27848 -0.948153 0.15315
0.505072 0.0562842 0.0512914 0.953415 0.301656 -0.00194064
-0.248118 0.276753 -0.078062 -0.286102 0.956463 -0.0576535
0.444813 -0.105596 -0.269522 -0.0439439 -0.191764 -0.980457
-0.186124 0.0662612 0.254008 -0.903277 -0.419619 0.0895084
0.471425 0.202978 0.235025 0.968829 0.246071 -0.0286295
-0.213066 0.194472 -0.325939 -0.120819 0.283024 -0.951473
0.0505588 -0.195707 0.238882 0.398261 -0.912287 0.0955033
0.0340128 0.0142147 -0.296822 0.0449384 -0.181192 -0.98242
0.326175 -0.152785 0.0838695 0.223174 -0.930439 0.290647
0.0280732 -0.0497169 -0.285167 0.0215938 -0.223379 -0.974492
0.481714 0.138925 0.0486503 0.968678 0.247956 -0.0134448
0.490663 0.0882925 -0.100948 0.982489 0.186311 0.00181455
-0.149008 -0.0247119 0.29894 0.0376243 0.167319 0.985185
0.436864 -0.239227 -0.0659591 -0.971732 -0.235994 0.00658106
0.434873 0.269278 -0.269036 0.942896 0.326627 -0.0652851
0.414313 0.404534 0.220172 0.979773 0.196618 -0.0372328
0.368514 -0.183287 -0.166173 0.319048 -0.934633 0.157063
0.00774648 0.196456 -0.333518 0.0155129 -0.129457 -0.991464
0.418704 -0.174798 -0.190852 0.269291 -0.961686 0.0513998
0.451901 0.126793 0.28442 0.128119 0.153333 0.979834
-0.21194 0.0687419 -0.0298622 -0.973482 -0.228025 0.0183983
-0.112052 0.20705 0.252952 -0.0785306 0.226207 0.970908
0.173438 0.406452 0.00812 -0.141614 0.924441 -0.354054
0.316048 -0.0552072 -0.280145 0.0213487 -0.186304 -0.98226
0.103124 -0.116312 -0.27512 0.0276477 -0.235449 -0.971493
0.101053 -0.100432 0.263766 -0.122505 -0.0107576 -0.99241
0.154512 -0.236229 -0.134404 0.37344 -0.926318 0.0497649
0.454801 -0.184192 0.0355898 -0.975134 -0.217915 0.0403427
-0.172567 -0.0244257 -0.156313 -0.939264 -0.335598 0.0718092
0.530442 -0.205077 0.0708574 0.102289 -0.94642 0.306311
0.035595 0.285318 0.247071 -0.0212533 0.179327 0.98356
-0.00189248 -0.199154 0.28334 0.19446 -0.770584 0.606948
0.422978 0.333092 -0.215269 0.967846 0.249234 -0.0340155
0.21317 0.423282 0.0509907 -0.464855 0.883506 -0.0576826
0.283471 -0.0629264 0.254038 -0.10018 0.290785 -0.951529
-0.230594 0.323586 0.168493 -0.25414 0.967109 -0.0106674
0.217523 -0.13614 0.265841 0.153422 -0.522411 0.838778
-0.110607 -0.229608 -0.0523798 -0.971262 -0.235383 -0.0352724
0.222008 0.432328 0.0788026 -0.300093 0.941893 -0.15094
0.325367 0.255419 -0.33792 0.00954974 -0.164775 -0.986285
-0.126486 0.222873 -0.329928 -0.185318 0.409818 -0.893144
-0.122332 -0.181377 0.00535113 -0.963724 -0.26424 0.0375933
0.171549 0.403781 -0.0357502 -0.333055 0.938685 -0.0891293
0.151827 -0.0829494 0.310202 0.0615088 -0.517149 0.853682
-0.0811654 -0.0243048 -0.292448 0.0180685 -0.286967 -0.95777
0.182388 0.223449 -0.333201 -0.00431473 -0.152929 -0.988228
0.517002 -0.223724 -0.0454195 0.371825 -0.920382 0.121013
-0.117294 -0.216692 -0.096567 -0.972169 -0.233949 0.0124792
0.460115 0.196288 -0.143292 0.96596 0.25847 -0.0106783
0.431604 0.310705 -0.0175334 0.968981 0.229202 0.0924259
0.309337 0.339777 -0.274864 0.217695 -0.960094 0.175582
-0.233901 0.262877 0.156414 0.171669 -0.714713 0.678023
0.404176 0.255762 -0.336215 0.0645393 -0.36738 -0.927829
-0.106357 -0.249335 -0.0475751 -0.940773 -0.309907 0.137495
-0.111849 -0.230259 -0.106085 -0.96768 -0.25155 0.0178374
0.441 -0.228412 -0.0272476 -0.235483 0.947488 -0.216367
-0.227315 0.171554 -0.124463 -0.878342 -0.465414 0.109113
0.322358 0.364809 -0.332917 -0.272566 0.636797 -0.721247
0.491892 0.100127 0.0659775 0.979626 0.153406 0.129611
0.110774 -0.0810454 -0.283228 -0.00964731 -0.162762 -0.986618
0.24364 0.372746 0.130756 0.00179741 0.19861 0.980077
0.350812 -0.115853 0.22089 0.240731 -0.937616 0.250848
0.501439 -0.235518 -0.0885944 0.280151 -0.945235 0.167467
-0.0979576 0.187762 -0.238521 -0.208126 0.695359 -0.687866
0.134103 0.176913 -0.329999 0.0868279 -0.261282 -0.961349
-0.176322 -0.0643511 0.114029 -0.943535 -0.322848 0.074233
0.0121077 -0.212447 0.222567 0.314331 -0.945141 0.0889035
-0.0225276 0.226937 0.251883 0.00713695 0.149463 0.988742
0.404894 0.415245 -0.0747978 0.983807 0.178431 0.0169195
0.420709 0.361033 0.0369212 0.970272 0.242013 0.00113688
0.404427 0.430015 0.051036 0.973334 0.228784 -0.0167218
-0.00817163 0.280174 0.172771 -0.36381 0.908162 -0.207086
