ply
format ascii 1.0
comment Created by Open3D
element vertex 100
property double x
property double y
property double z
property double nx
property double ny
property double nz
end_header
0.493535 0.097403 0.0199539 0.997087 0.0744243 -0.0166812
-0.128682 0.260797 0.14365 -0.149819 0.393427 0.907067
0.00669841 -0.205314 0.270329 0.226745 -0.906862 0.35523
-0.0973952 -0.132718 0.238122 0.264429 -0.919175 0.29188
0.438352 0.31277 0.0596927 0.922475 0.35034 -0.162178
0.318367 -0.0291708 0.251473 0.124788 -0.585131 -0.80128
0.215901 -0.0490097 0.310152 -0.0144305 0.173724 0.984689
0.0066669 0.265877 -0.302747 -0.168726 0.54337 -0.822363
0.125615 -0.231189 -0.0475945 0.322834 -0.942425 0.0872545
-0.211537 0.275729 0.171691 0.264807 -0.962767 -0.0543797
0.472571 -0.24162 -0.05711 0.285715 -0.942951 0.170907
0.0613653 0.385228 0.0281978 -0.292646 0.955972 -0.0218055
0.467428 0.181718 -0.0843361 0.983493 0.180435 -0.0135725
-0.0860038 -0.0131424 0.302105 0.0651651 0.123413 0.990213
-0.115198 -0.21458 0.0146077 -0.978432 -0.201386 -0.0459862
0.382045 0.486631 0.122491 -0.267498 0.947632 -0.174467
0.365883 0.476842 0.0820896 -0.271624 0.947545 -0.168462
-0.12947 -0.138719 0.164222 -0.964528 -0.262309 0.0296651
0.156732 -0.0778571 0.21389 0.0327296 -0.298241 0.953929
0.434433 0.314146 0.0668649 0.927554 0.337974 -0.159427
0.42672 -0.209408 -0.139824 -0.992774 -0.100801 -0.0651001
0.414817 -0.167862 -0.148722 0.244453 -0.939121 0.241443
0.462808 0.187241 -0.139478 0.980115 0.197336 -0.0207977
-0.159661 0.075824 -0.312271 0.0181492 -0.113354 -0.993389
-0.142243 0.335871 0.0969113 -0.330679 0.934494 -0.131804
0.27772 -0.109397 -0.270815 0.118465 -0.300944 -0.946255
0.183359 0.261407 0.25248 -0.0274054 0.288973 0.956945
0.0310536 0.291799 0.241425 0.00275259 0.154724 0.987954
-0.127012 -0.151941 0.144705 -0.971635 -0.23205 0.045585
0.487905 -0.0131146 0.245589 -0.175315 0.587336 -0.790127
0.521784 0.00924149 0.124876 0.960796 0.274354 -0.0400064
0.462034 0.223294 0.0969023 0.964484 0.262445 -0.0298828
0.442205 0.320323 0.238361 0.946051 0.321071 -0.0435937
0.505564 -0.0482748 -0.199744 0.306757 -0.950798 0.0433923
-0.135511 0.211396 -0.244932 0.213822 -0.839411 -0.49967
0.210888 0.0307624 0.293341 0.0341049 0.087025 0.995622
0.286493 0.406727 0.169784 0.0266717 -0.798222 -0.601773
0.0441373 -0.175469 -0.165349 0.164192 -0.674114 -0.720147
0.22899 -0.0939081 0.244857 -0.276952 0.950965 -0.137705
0.174098 -0.110309 -0.271603 0.00331547 -0.159027 -0.987269
0.0395477 0.384856 0.0932397 -0.253982 0.94756 -0.193965
-0.190036 0.254545 0.192473 -0.0431182 0.0604535 -0.997239
-0.0080419 0.0297164 -0.300278 0.0148243 -0.176304 -0.984224
0.423983 0.325279 -0.192115 0.963532 0.264158 -0.0427301
0.435351 0.310528 0.0387838 0.957775 0.285409 -0.0347595
0.160221 0.401087 0.186109 -0.218108 0.787958 0.575805
0.0496352 -0.0960595 0.226596 0.252637 -0.844504 0.472216
-0.012083 0.267717 0.245722 -0.00250502 0.172622 0.984985
-0.0798138 -0.0372817 0.303056 -0.017849 0.177308 0.983994
0.440458 -0.0136885 -0.287847 -0.0732785 -0.0395529 -0.996527
-0.0755778 0.128498 -0.320533 0.0260818 -0.238451 -0.970804
0.0956471 -0.104902 0.261682 0.0242791 -0.26785 -0.963155
0.0901215 0.352348 0.170805 0.335055 -0.778271 -0.531066
0.39953 0.423586 -0.152238 0.958888 0.271339 -0.0831215
0.0511503 0.327042 0.137483 0.0329446 -0.0501147 0.9982
-0.0812574 0.0198355 -0.300567 0.0567094 -0.199564 -0.978242
-0.0883459 0.116326 0.273541 -0.00914139 0.230759 0.972968
0.169708 0.227578 0.258611 -0.0130158 0.160887 0.986887
-0.178808 -0.00309261 -0.250998 -0.987188 -0.158479 0.0185586
-0.207123 0.276343 -0.134873 -0.283408 0.943756 -0.170304
0.256017 -0.127729 0.259341 0.221598 -0.570615 0.790755
0.541657 -0.0915914 -0.0392612 0.90229 0.413879 -0.120733
0.49274 -0.223862 -0.0187961 0.32771 -0.932477 0.15196
0.0548239 0.376517 -0.00218887 -0.251209 0.949272 -0.18915
-0.242954 0.0131832 -0.0218958 -0.333086 0.818063 -0.468857
-0.172094 0.0303851 0.188509 -0.947117 -0.309991 0.0829145
-0.115246 0.0318327 -0.306933 0.0121145 -0.170361 -0.985307
-0.0975089 0.206559 -0.336261 -0.0470229 0.0394579 -0.998114
-0.2469 -0.0291165 0.0337972 0.0129011 -0.168931 0.985543
-0.0492681 0.195028 -0.245951 -0.163168 0.593345 -0.788237
-0.125248 -0.184224 -0.263989 0.0349739 -0.201831 -0.978796
0.451879 0.0746038 0.292333 -0.0150619 0.17126 0.985111
0.288317 0.427269 -0.058659 -0.276296 0.9467 -0.165586
0.512376 0.0243974 0.045306 0.96434 0.262958 -0.0300217
0.317621 0.0468373 -0.297991 0.00794474 -0.165921 -0.986107
0.426801 0.319924 -0.00775972 0.928713 0.354461 -0.108859
-0.167301 -0.094695 -0.0235872 -0.96644 -0.256769 0.0079386
0.164414 0.290003 -0.324879 -0.291975 0.664956 -0.687448
0.159955 0.084115 -0.313124 0.0830791 -0.262908 -0.961237
0.474965 0.0121916 0.208037 0.122263 -0.513235 0.849495
0.0994563 0.258442 0.251647 -0.05762 0.208704 0.97628
0.453113 -0.191252 0.00872617 -0.972242 -0.23349 0.015096
0.47325 0.159327 -0.00101463 0.985228 0.0941144 0.143066
0.0368167 -0.179684 -0.202421 0.0516038 -0.649786 0.758364
0.223663 -0.151069 -0.162134 -0.103728 0.0649938 -0.99248
0.277015 0.426722 -0.0504667 -0.212335 0.933712 -0.288263
0.306726 0.341706 -0.266943 0.257837 -0.965119 -0.0454422
0.15769 -0.21213 -0.224578 0.198321 -0.864483 -0.461886
0.0886588 0.12373 0.278079 0.0855221 0.122186 0.988816
-0.171727 0.239218 -0.307046 -0.301828 0.678658 -0.669569
0.0215951 -0.211714 -0.160848 -0.0777291 0.278495 -0.957287
0.426868 0.347791 0.243941 -0.00915411 0.174937 0.984537
0.52551 -0.0988441 0.0592679 0.327521 -0.940885 0.0864031
0.280881 -0.148552 0.15686 0.250419 -0.950158 0.185715
0.394723 0.467288 0.0813655 0.979812 0.199626 0.0109116
0.426126 -0.176173 0.174966 -0.962148 -0.19833 -0.186911
-0.0381616 -0.161126 -0.267091 -0.04253 -0.120389 -0.991815
0.0893427 0.144185 0.270329 0.0311648 0.131781 0.990789
0.308301 0.326237 -0.341358 -0.0777451 0.134822 -0.987815
0.0892698 0.378581 -0.0308394 -0.276196 0.947989 -0.158218
