ply
format ascii 1.0
comment Created by Open3D
element vertex 500
property double x
property double y
property double z
property double nx
property double ny
property double nz
end_header
0.175842 0.247288 0.254264 -0.0291278 0.223199 0.974338
0.461684 0.162526 -0.319221 -0.0422593 -0.116633 -0.992276
-0.383047 -0.0438157 0.03589 -0.0383875 0.290268 0.956175
0.453662 -0.0203713 0.20641 -0.0540122 0.485054 0.872815
0.173682 -0.022785 -0.288705 0.0144231 -0.272253 -0.962118
0.130373 0.023509 -0.298047 0.0416593 -0.182115 -0.982394
0.355624 0.0225633 0.299086 0.0178039 0.159648 0.987013
0.31397 0.475576 0.157637 -0.281698 0.955607 0.0863793
0.464821 0.184931 -0.166011 0.95549 0.29346 -0.0303431
0.522137 -0.0425515 -0.27588 0.94689 0.319578 -0.0356266
0.0149672 0.0787332 -0.310469 -0.0229186 -0.118508 -0.992689
0.455063 0.253355 0.170557 0.978782 0.200869 -0.0404587
0.262041 -0.200264 -0.193805 0.184821 -0.877152 -0.443223
-0.116592 0.179598 -0.240468 -0.18479 0.699239 -0.690592
0.0228997 -0.152745 0.303634 0.95226 0.301877 -0.0455001
0.478941 0.167044 0.163588 0.952923 0.300374 -0.0413949
-0.209814 0.147454 0.0915505 -0.955789 -0.287674 0.0609163
0.140919 0.307852 -0.305943 -0.151243 0.526564 -0.836574
0.122451 0.349263 -0.233866 -0.239997 0.952612 -0.1869
-0.0387871 0.372386 0.136448 -0.326923 0.936789 -0.124688
0.422004 0.365881 0.115176 0.979124 0.200472 -0.0335621
0.0967624 0.166323 -0.324809 -0.0445039 -0.166987 -0.984954
0.1229 0.217233 -0.334411 0.0458825 -0.191469 -0.980426
0.0705651 0.285565 0.245359 -0.030674 0.194603 0.980402
0.0986274 -0.0917879 0.261885 0.00813365 -0.471836 -0.881649
0.0541188 -0.262768 -0.111892 0.242478 -0.950307 0.195245
-0.19633 0.0623526 -0.220607 -0.95467 -0.286978 0.0790517
-0.108399 0.255463 -0.312858 0.953346 0.291452 -0.0786598
-0.228838 0.200469 -0.0549338 -0.964342 -0.262841 0.030981
0.325881 -0.134892 0.16356 0.26477 -0.948589 0.173424
-0.0829624 -0.299012 -0.102381 0.26654 -0.948611 0.17057
-0.426708 -0.0846557 0.03495 0.148694 -0.472506 0.868694
-0.0800918 0.356124 0.0925145 -0.258364 0.948049 -0.185611
0.120192 -0.182503 0.223937 0.196573 -0.954463 0.224409
0.0951748 0.174598 0.266377 -0.0498788 0.198937 0.978742
-0.231415 0.323879 0.17063 -0.239037 0.968726 -0.0665714
0.485334 0.121107 0.0304808 0.972742 0.231409 -0.0149133
-0.225236 0.185768 -0.10937 -0.966909 -0.253765 0.0262902
0.399617 -0.100889 0.241078 0.289256 -0.942583 0.166937
-0.21762 0.167337 0.030818 -0.966051 -0.256862 0.0277
0.0127053 0.0201021 -0.299049 0.016845 -0.174126 -0.984579
-0.0870158 0.336092 0.0081978 -0.271315 0.94869 -0.162405
0.263261 -0.118636 -0.20733 0.252541 -0.752222 0.608592
-0.0433258 0.00340549 0.295628 0.00209221 0.153209 0.988192
0.538362 -0.0474289 0.207463 0.98332 0.181746 -0.00706194
0.312834 -0.110512 0.255593 0.247758 -0.573923 0.780531
0.3213 0.392217 -0.296068 -0.291433 0.896963 -0.332453
0.446005 -0.16072 -0.0294812 0.279215 -0.947283 0.157143
-0.0777004 -0.269171 0.0484634 0.273956 -0.94981 0.151029
-0.0810417 0.231779 -0.263917 0.257653 -0.931509 0.256723
0.0322034 -0.197405 -0.206675 0.0812012 -0.158444 0.984023
0.199573 -0.178003 -0.179632 -0.295384 0.917603 -0.265995
0.177265 0.416784 0.166854 -0.194736 0.806652 0.558024
0.343129 0.269544 -0.33692 0.0836927 -0.184327 -0.979295
-0.0203643 -0.290144 -0.158644 0.249686 -0.944437 0.213765
0.515669 0.0142293 0.0417643 0.97438 0.224032 -0.0198357
0.447742 0.140818 0.279714 -0.00964585 0.149928 0.98865
0.406632 0.1773 0.274058 0.0377525 0.149962 0.987971
-0.0285915 0.2401 -0.242073 0.175718 -0.670097 -0.721175
-0.2062 0.0395612 -0.092776 -0.962535 -0.269299 0.031692
0.364643 -0.143613 0.0500551 0.297836 -0.94086 0.161484
-0.187274 0.0350133 -0.166381 -0.965581 -0.258718 0.0268008
0.014527 0.293882 0.147341 -0.166616 0.680976 0.7131
0.196055 -0.170507 0.167401 0.219076 -0.948702 0.227971
0.44824 0.282356 0.223595 0.93043 0.359925 -0.0689575
0.548677 -0.182474 0.0651182 0.994252 0.106306 -0.0127099
0.0235083 -0.251763 -0.0159686 0.299713 -0.953509 0.0315024
-0.161253 0.112912 -0.322161 0.0515048 -0.243323 -0.968577
0.235018 0.293841 0.248687 -0.0889613 0.199377 0.975876
-0.121492 -0.199889 -0.105903 -0.963846 -0.264396 0.0330927
-0.172502 0.334069 0.191831 -0.232527 0.904229 0.358191
0.51754 -0.0775544 -0.219523 -0.0450664 0.330254 0.942816
-0.170464 -0.089226 0.0227165 -0.96573 -0.257886 0.0293293
0.5144 0.0298011 0.0953829 0.98205 0.187495 0.0205681
-0.173656 -0.0196741 -0.189666 -0.964548 -0.262232 0.0296888
0.386226 0.312975 -0.346655 0.04944 -0.19201 -0.980147
-0.109247 -0.239625 -0.0755448 -0.95069 -0.305349 0.0543263
-0.102552 0.0739893 0.281367 -0.0124496 0.154904 0.987851
0.308316 0.401232 0.176908 0.0329664 -0.351231 -0.935708
-0.238772 0.247103 -0.247306 -0.243818 0.949162 -0.199111
0.185007 0.361714 -0.273928 -0.297223 0.947158 -0.120622
0.173683 -0.231205 -0.182319 0.140923 -0.827596 -0.543347
0.27012 0.447545 0.198651 -0.199099 0.743391 0.638537
0.240009 0.227125 0.261753 -0.00728972 0.153283 0.988155
-0.00224615 -0.273256 -0.0824287 0.244193 -0.949646 0.196321
0.0856602 0.268365 -0.318311 -0.14572 0.463618 -0.87397
0.118228 0.366409 -0.132885 -0.236866 0.945462 -0.223599
0.213276 0.0370556 0.293208 -0.00282652 0.1756 0.984458
-0.188815 -0.03101 0.0188907 0.156716 -0.735604 0.659035
0.529889 -0.234866 -0.12047 0.262086 -0.948753 0.176573
0.257046 -0.190468 -0.0302111 0.281259 -0.953694 0.106591
0.388208 0.211705 -0.326764 -0.0042591 -0.166914 -0.985962
-0.135764 0.249427 0.247432 -0.0179392 0.149837 0.988548
0.180019 0.239741 -0.336311 0.0571079 -0.199127 -0.978308
0.254896 -0.014905 -0.289003 -0.0527777 -0.153113 -0.986798
-0.0119462 0.212191 0.258102 -0.0210819 0.192126 0.981144
-0.217556 0.28532 0.237101 -0.108359 0.442794 0.890052
0.127667 0.0630993 0.287514 0.04709 0.124367 0.991118
-0.224093 0.093443 -0.109589 -0.962641 -0.268865 0.0321645
0.431774 0.288321 -0.307045 0.970998 0.238928 -0.00874376
0.157023 0.0142627 0.29586 -0.0609019 0.183817 0.981072
-0.194444 -0.010882 -0.138407 -0.958807 -0.281111 0.0408064
0.089208 -0.22726 -0.217426 0.166746 -0.777407 -0.606493
-0.0330011 -0.22024 -0.204113 -0.0407508 0.15024 0.987809
0.533018 -0.101698 0.0413573 0.293689 -0.944612 0.146478
0.479377 -0.0808016 -0.170923 -0.0621607 0.0700909 -0.995602
0.0389738 -0.267797 -0.182204 0.974588 0.223657 -0.0124481
-0.14397 -0.128843 -0.186926 -0.939163 -0.340744 0.04321
0.300857 0.280903 0.250284 0.00137888 0.140804 0.990036
0.0338966 0.388897 0.155381 -0.164473 0.811235 0.561111
0.042374 -0.131602 0.218253 -0.0481684 0.390067 0.919526
-0.126524 -0.190594 -0.195268 -0.966463 -0.255274 0.0279929
0.0735831 -0.207204 -0.166075 -0.214783 0.680644 -0.700423
0.48442 0.118639 -0.04138 0.965149 0.260248 -0.0275398
-0.167099 -0.0515915 0.139181 0.150041 -0.37578 0.914482
0.0505358 0.218459 -0.334296 0.0153819 -0.144361 -0.989405
0.283221 0.283195 -0.259975 -0.27411 0.912036 -0.305047
0.418058 0.332808 0.245424 -0.0235334 0.181347 0.983138
0.451593 -0.228025 0.025042 0.185947 -0.948467 0.256583
-0.114252 0.256774 0.18063 -0.197839 0.793647 -0.575312
0.43564 -0.13468 0.11915 0.267682 -0.948053 0.171877
0.263356 0.408823 -0.116909 -0.179794 0.94108 -0.286429
0.431056 -0.0178435 -0.283887 -0.021398 -0.166592 -0.985794
0.131587 0.404279 0.0477095 -0.268712 0.95002 -0.158919
-0.0582524 0.316519 -0.142518 -0.33132 0.932692 -0.142523
0.370257 0.28668 0.253012 0.0368089 0.117387 0.992404
0.318938 0.449344 0.0119176 -0.296051 0.945439 -0.136011
-0.0541232 0.024898 -0.301993 -0.0362904 -0.0545758 -0.99785
0.104494 0.277975 -0.251207 0.189279 -0.830756 -0.523467
0.320039 -0.158072 -0.235221 0.218041 -0.779559 -0.587151
0.0682577 0.355926 -0.110348 -0.267656 0.949387 -0.164394
0.434496 0.331418 0.167745 0.94159 0.33422 -0.0412969
-0.181308 -0.0557278 -0.106634 -0.976573 -0.214134 -0.0212677
-0.215869 0.136362 -0.202625 -0.976804 -0.213977 -0.00827353
-0.105699 -0.259654 -0.140081 -0.967838 -0.25104 0.0163681
0.371946 0.413788 -0.266755 -0.272715 0.957861 -0.090162
0.0906916 -0.240656 -0.059393 0.265239 -0.948942 0.170756
-0.16698 -0.00469364 0.192197 -0.969122 -0.245864 0.0188068
0.00116781 -0.185775 -0.262409 -0.0111443 -0.142233 -0.989771
-0.16611 -0.090025 0.0877433 -0.950871 -0.29961 0.077964
0.497242 0.0896145 0.0880539 0.969308 0.244098 0.0292984
0.236591 -0.170241 0.11225 0.357172 -0.922883 0.14393
0.536568 -0.129943 0.159255 0.954673 0.290001 -0.0670751
0.497635 -0.211123 0.0429074 0.304216 -0.939749 0.155967
0.522922 -0.0305322 -0.0837371 0.953761 0.296459 -0.0495198
0.0913869 -0.199233 0.171033 0.310768 -0.936563 0.162089
0.228601 -0.209856 -0.0875487 0.28021 -0.949741 0.139554
0.347958 -0.0973009 -0.209246 0.198755 -0.665834 0.719139
0.528316 -0.128525 -0.102134 0.20949 -0.951857 0.223791
0.12812 0.321213 0.241831 -0.0229965 0.180623 0.983283
0.416167 0.392316 0.206734 0.983547 0.166582 0.0698947
0.30977 0.0465331 -0.300933 -0.0425506 -0.136158 -0.989773
0.171987 0.12386 -0.313638 0.0767486 -0.179752 -0.980713
-0.00666171 0.360692 0.185074 -0.198865 0.795941 0.571778
0.229213 0.118823 -0.314325 0.0283274 -0.190416 -0.981295
0.0661344 -0.218928 0.103678 0.326995 -0.938666 0.109457
0.260696 0.454843 0.134809 -0.237973 0.952354 -0.190765
0.252396 -0.0903253 -0.273794 0.0175579 -0.168515 -0.985543
0.501594 0.0941249 0.289065 -0.0302248 0.190595 0.981203
0.478566 0.140228 -0.112925 0.97145 0.235473 -0.0289468
-0.138823 -0.0882099 -0.283001 0.0217346 -0.197116 -0.980139
0.430858 -0.152518 0.0378782 0.171222 -0.959457 0.223888
-0.428839 -0.0333659 -0.00348719 -0.301929 0.943167 -0.138832
0.474203 0.163445 0.00275931 0.97792 0.205802 -0.0363034
0.403987 -0.134988 -0.259567 -0.960017 -0.276668 0.0426874
-0.0711796 -0.0579973 -0.286122 0.015002 -0.176641 -0.984161
0.11128 -0.0489155 0.308828 0.0375038 0.135758 0.990032
0.484736 -0.207712 -0.143576 0.00476982 -0.172534 -0.984992
-0.157802 -0.115522 -0.100591 0.189295 -0.791814 -0.580687
0.532348 -0.116016 0.101986 0.913793 0.405325 -0.0263578
0.371059 -0.0857553 -0.275487 -0.0235235 -0.112882 -0.99333
-0.10594 -0.214037 0.251741 -0.970576 -0.240793 -0.000625156
0.217463 0.121236 0.278935 0.0139599 0.174143 0.984621
0.252947 0.363901 -0.292775 -0.146092 0.527961 -0.836609
-0.0825629 -0.0505715 0.305567 -0.0167633 0.145734 0.989182
0.406775 0.402402 -0.0533311 0.937097 0.34617 -0.0449009
0.536474 -0.148737 0.00626902 0.96144 0.27275 -0.0352179
0.154677 -0.190859 -0.248632 0.198169 -0.788849 -0.581761
0.256845 -0.0846412 0.242763 -0.297394 0.917563 -0.263884
0.205419 0.308881 -0.318839 -0.24649 0.56976 -0.783974
0.538402 -0.0865515 -0.155887 0.977741 0.206216 -0.0386985
0.476497 -0.129297 -0.256006 0.155443 -0.544522 -0.824216
-0.225534 0.207118 0.132102 -0.975095 -0.219803 0.0296062
-0.162838 0.246244 0.150423 -0.148282 0.655564 0.740438
-0.161241 -0.0624647 -0.159222 -0.948042 -0.317777 0.0153134
0.424833 0.329251 -0.178804 0.979075 0.203022 0.0139281
0.409826 -0.006853 0.306312 -0.0303782 0.215258 0.976085
-0.151076 0.328556 0.0627534 -0.263549 0.948541 -0.175535
-0.0508504 0.328166 0.212245 -0.196823 0.786818 0.58496
0.498578 0.069052 8.61917e-05 0.956526 0.287416 -0.0494885
0.491736 -0.204178 0.101268 0.296824 -0.941381 0.160304
-0.248682 0.26501 -0.135296 -0.971015 -0.238397 0.0172406
-0.109463 0.297826 -0.169941 -0.255086 0.948315 -0.188759
0.375221 -0.155828 -0.0174555 0.346766 -0.933333 0.0929681
-0.204047 0.034582 -0.0325913 -0.954515 -0.284078 0.0905607
0.502109 -0.185027 0.186931 0.206313 -0.953321 0.220485
-0.127164 -0.157269 0.0977263 -0.97647 -0.215638 0.00247041
0.221714 0.392119 0.217087 -0.204027 0.777047 0.595459
0.00209953 0.330603 -0.157832 -0.229274 0.950333 -0.210478
0.00637501 0.148746 -0.3238 0.0563624 -0.198926 -0.978392
0.16272 -0.188675 0.121755 0.277765 -0.952531 0.124623
-0.362009 -0.0298242 -0.0265593 -0.134009 0.456929 -0.879351
-0.0778791 -0.208322 -0.171248 0.237107 -0.919121 -0.314637
0.49174 0.111306 0.154134 0.966529 0.255547 -0.0227244
0.28004 0.392204 0.132932 0.113512 -0.29578 0.948488
-0.0402492 -0.139486 0.318513 0.13382 0.00953873 0.99096
0.216955 -0.0486971 0.228602 0.246748 -0.921341 0.30041
0.0652663 0.325126 -0.275745 -0.151961 0.544064 -0.825168
0.0759098 0.39176 0.0649864 -0.336958 0.929916 -0.14736
0.130304 -0.22345 -0.0161997 0.241986 -0.950189 0.196426
0.277202 -0.0314183 0.230719 0.30104 -0.951894 0.0572014
0.0060239 0.294626 -0.285438 -0.164009 0.541846 -0.824321
-0.150083 -0.0653407 0.220216 -0.974886 -0.222313 0.0132177
-0.378261 -0.0867422 -0.0110952 0.231569 -0.8811 -0.412357
0.0235454 -0.240896 -0.247957 0.0958141 -0.441103 -0.892327
0.441871 0.289086 0.00426191 0.924546 0.375263 -0.0662732
0.149268 0.121163 0.277185 -0.0398624 0.19378 0.980235
-0.159311 -0.133122 -0.00731674 -0.96738 -0.248417 -0.0496585
-0.000308314 0.340913 -0.102369 -0.235465 0.950424 -0.203103
-0.184093 0.0192195 0.147768 -0.0959061 0.212388 0.972468
-0.0577348 0.266489 0.16454 -0.22439 0.971819 -0.0722219
-0.13518 0.279353 -0.227113 -0.282933 0.946121 -0.157494
0.520724 0.0224947 0.30146 0.0305299 0.140363 0.989629
0.422882 -0.0682703 0.285747 0.184691 -0.646652 0.740088
-0.122682 -0.00775368 -0.298793 0.00174133 -0.165039 -0.986285
0.51805 -0.0151684 -0.146986 0.960688 0.275776 -0.0320484
0.539375 -0.164614 -0.0568913 0.957551 0.283138 -0.0541133
0.192558 -0.209666 -0.0364585 0.255342 -0.946049 0.199478
-0.221201 0.0892414 -0.00283516 -0.969288 -0.243559 0.0340451
0.258895 0.31543 -0.324723 -0.172653 0.532427 -0.828681
-0.242822 0.2686 0.157911 -0.975461 -0.219996 -0.00881124
0.0550946 0.110909 0.276702 0.0139696 0.142409 0.989709
0.497848 0.013434 0.250991 0.0460171 -0.298371 -0.95334
-0.235346 -0.0236879 -0.0339421 0.089441 -0.288712 -0.953229
-0.111615 -0.248313 -0.237205 -0.959733 -0.269836 0.0781058
0.396794 0.443425 0.00170892 0.965112 0.260093 -0.030178
-0.0943604 0.189443 -0.331574 0.017751 -0.173503 -0.984673
0.336328 0.100644 -0.31015 0.0640286 -0.19189 -0.979326
0.34813 0.382661 0.136595 -0.178255 0.741926 0.646352
0.110743 0.23793 0.255532 -0.000633642 0.0945175 0.995523
0.391642 0.447703 -0.102389 -0.26608 0.948364 -0.172649
-0.203206 0.0763725 0.127176 -0.0992312 0.517441 0.849946
0.204916 0.430741 0.076412 -0.262524 0.948699 -0.176214
-0.19611 0.0554364 -0.306355 -0.960659 -0.276287 0.0282763
0.304081 -0.134662 -0.165018 -0.0595027 0.209876 -0.975916
0.0327189 -0.237615 0.0474512 0.332281 -0.938342 0.0954182
-0.114706 -0.182796 0.199597 -0.959913 -0.278742 0.0295062
-0.0600245 0.123074 -0.31958 0.000839004 -0.164712 -0.986341
-0.189313 0.0855963 0.264098 -0.966445 -0.256744 0.0081472
0.35075 0.391857 0.232751 -0.0220789 0.182704 0.98292
-0.206593 0.159458 0.258065 -0.975721 -0.219015 -0.00123556
-0.110153 -0.244461 0.00168711 -0.957928 -0.284247 0.039727
0.337219 -0.184457 -0.193382 0.186819 -0.777844 -0.600048
0.441305 -0.178966 0.160455 0.00739415 -0.0795417 -0.996804
-0.132173 -0.16115 -0.0624943 -0.973932 -0.226493 -0.0125165
0.135588 0.362234 0.141627 0.232718 -0.627766 0.7428
0.528801 -0.0320667 0.0750563 0.968618 0.247378 -0.0241381
-0.454611 -0.0928854 -0.0275998 0.116322 -0.573885 -0.810632
0.425019 0.243825 0.261499 -0.00942877 0.145711 0.989282
0.308662 -0.166577 0.0188845 0.213136 -0.948364 0.2349
0.0776638 0.0578744 -0.306306 0.00826467 -0.163034 -0.986586
-0.0767742 -0.205764 0.300614 0.258389 -0.676238 0.689882
0.162719 0.396309 -0.04235 -0.243162 0.951934 -0.186261
-0.235486 0.195395 -0.280532 -0.967235 -0.253568 0.0126516
-0.244478 -0.00941209 0.0330975 -0.0814666 0.27358 0.958393
0.398895 0.423156 -0.177563 0.97827 0.20078 -0.0517281
-0.23369 0.197494 -0.19157 -0.976697 -0.214314 0.0115352
0.436415 -0.217761 0.0895356 -0.984318 -0.169536 0.0487484
0.0886195 0.410567 0.144714 -0.279557 0.947931 -0.152558
-0.49057 -0.107075 0.0313818 -0.956361 -0.289875 0.0366836
-0.0158024 -0.116434 0.224735 0.245225 -0.712 0.657968
0.4365 -0.22959 -0.0342213 -0.969107 -0.245871 0.0194853
0.446334 0.244337 -0.176716 0.961336 0.272121 -0.0422269
-0.0603591 0.125465 0.271331 -0.0681009 0.281106 0.957257
0.479989 0.116211 -0.258027 0.958806 0.280406 -0.0454174
0.53002 -0.0380067 0.0193837 0.965769 0.258378 0.0230482
-0.0425788 0.26419 0.247558 -0.0218549 0.189759 0.981587
0.205414 0.375479 -0.221659 -0.305612 0.93792 -0.164038
0.188836 0.390758 -0.102081 -0.296244 0.944901 -0.139291
0.504167 0.0493322 -0.0620023 0.968833 0.24704 -0.0182832
0.00374542 -0.034863 -0.290423 0.0594918 -0.20069 -0.977847
0.0240842 0.380823 0.0908531 -0.228742 0.956558 -0.180757
0.378351 -0.127895 0.127864 0.284612 -0.948988 0.135711
-0.139488 0.3188 -0.00541579 -0.276202 0.953586 -0.119941
-0.113275 0.30641 0.235363 -0.0610995 0.340413 0.938289
0.0569405 0.217554 0.258917 -0.00735288 0.186189 0.982487
-0.491458 -0.0508669 -0.00556731 -0.241884 0.904451 -0.35137
-0.0919895 -0.310526 -0.162297 0.287774 -0.948599 0.131706
0.122019 0.383969 0.194183 -0.215296 0.778624 0.589399
0.343173 -0.0505556 0.212545 -0.121408 0.559105 0.820159
0.0810947 0.349992 -0.173487 -0.284211 0.944467 -0.164943
0.280684 -0.202687 -0.130974 0.25942 -0.948725 0.180616
0.501765 0.0520476 -0.124752 0.956246 0.282668 -0.0754512
0.368765 0.484814 0.127206 -0.269428 0.947266 -0.173483
0.50998 0.00832494 -0.231027 0.966928 0.254844 -0.0101989
-0.0874665 -0.297354 -0.225068 0.194554 -0.782431 -0.591566
0.163473 -0.23037 -0.102405 0.269393 -0.948836 0.164737
0.401706 0.393012 -0.318021 0.951153 0.307252 -0.0300592
0.491223 -0.149942 -0.157594 0.258132 -0.944693 0.202296
-0.196409 0.297823 -0.0313237 -0.244102 0.945105 -0.217233
0.150016 -0.108503 0.29245 0.16913 -0.539525 0.824808
0.428012 0.325247 -0.0758187 0.96279 0.268215 -0.0331211
-0.0552009 -0.224044 -0.256956 0.0524531 -0.207928 -0.976737
0.45996 0.185101 -0.254754 0.965311 0.259847 -0.0255697
-0.203579 0.0933171 -0.166449 -0.97526 -0.220517 0.015465
0.131046 -0.110566 0.220055 -0.134055 0.572283 0.809025
0.455729 0.229395 -0.0149934 0.960456 0.272785 -0.0557843
0.315921 -0.110525 -0.271524 0.0055252 -0.15625 -0.987702
-0.183886 0.276377 -0.170625 -0.252806 0.948744 -0.189668
-0.173777 -0.0819681 -0.0427868 -0.96555 -0.25764 0.0365401
0.175439 -0.204228 0.0219763 0.293909 -0.944755 0.145105
0.0121115 -0.213315 -0.158466 -0.0888267 0.293367 -0.951864
0.252864 -0.0692916 0.296278 0.146358 -0.535873 0.831516
0.258475 0.253724 -0.335912 0.0182971 -0.17798 -0.983864
0.470152 0.030353 -0.293985 0.0398619 -0.190491 -0.980879
-0.209278 0.151363 0.158968 -0.965457 -0.259403 0.0245334
0.376946 0.444718 0.219868 -0.104478 0.375086 0.921084
0.00819141 -0.104573 -0.27688 -0.0292683 -0.103851 -0.994162
0.0129758 -0.0887348 0.312532 -0.067793 0.228516 0.971177
0.181702 0.0685413 -0.306222 0.00527291 -0.166578 -0.986014
-0.217728 0.1339 -0.294246 -0.974568 -0.222845 0.0236274
0.4728 -0.0164831 0.304542 0.0489322 -0.0924363 0.994516
0.414068 0.368056 -0.108367 0.963498 0.260041 0.0636418
0.477121 -0.0949 0.213335 -0.0218143 0.199112 0.979734
0.381704 0.476767 0.0605646 -0.268258 0.95163 -0.149795
-0.0764224 0.296068 -0.230795 -0.236211 0.948014 -0.213247
-0.203219 0.127239 0.206649 -0.960271 -0.263984 0.0905117
0.0535702 -0.149095 -0.269283 0.0258294 -0.116096 -0.992902
-0.176004 -0.0195198 -0.245199 -0.962493 -0.268406 0.0395595
0.345441 0.426478 -0.147088 -0.26108 0.948921 -0.177162
0.113217 -0.0511645 -0.284467 0.00682433 -0.133241 -0.99106
0.318676 0.458466 0.0643276 -0.22414 0.951229 -0.211954
0.0835316 0.112364 -0.314694 0.00379603 -0.136996 -0.990564
0.0640818 -0.168073 0.268747 0.169859 -0.543319 0.822163
0.450154 0.239996 -0.090178 0.974416 0.224751 0.000519862
-0.151937 0.212539 -0.265599 0.3121 -0.843626 0.436908
0.540375 -0.182154 -0.128979 0.945612 0.31662 -0.074632
0.189081 0.26873 -0.244443 -0.136484 0.434372 -0.890333
0.449458 0.256572 0.0599277 0.959694 0.275843 -0.0538399
-0.0200338 -0.195172 0.296942 0.175129 -0.667672 0.723563
0.545853 -0.20331 0.0011596 0.789558 -0.589068 0.172038
-0.150034 0.196052 0.259716 -0.0236217 0.195236 0.980472
0.53434 -0.0314301 0.265591 0.969306 0.243197 -0.0360711
-0.0031387 -0.237725 0.104071 0.235024 -0.950725 0.202204
-0.110184 -0.212399 0.14023 -0.95816 -0.275631 0.0771782
0.137306 -0.167795 -0.162706 -0.00270482 -0.151132 -0.98851
0.398069 -0.169098 -0.194083 0.205077 -0.758757 -0.618249
0.0517721 -0.0537579 -0.285989 0.0164449 -0.161334 -0.986763
-0.122213 -0.146403 0.317893 -0.964741 -0.261719 0.0278792
0.223831 -0.12964 0.261529 0.18585 -0.555867 0.810229
-0.0088283 -0.214453 0.23586 0.264909 -0.948624 0.173017
0.413799 -0.128159 0.181979 -0.971478 -0.235734 0.0257004
0.0265282 0.370347 0.023655 -0.313567 0.939154 -0.140233
0.274875 0.39277 -0.236678 -0.317061 0.938559 -0.136302
0.329254 0.318712 -0.246831 -0.0327067 0.0140437 -0.999366
0.340857 0.413251 -0.212987 -0.222115 0.954036 -0.201195
0.377469 -0.0319997 -0.284769 0.0266849 -0.16588 -0.985785
0.326657 0.0994689 0.284133 -0.0075428 0.176296 0.984308
0.236804 -0.174869 -0.236609 0.19768 -0.797854 -0.569519
-0.139133 -0.109461 0.17905 -0.963401 -0.266445 0.0294081
0.400565 -0.0458912 0.227796 -0.258732 0.960522 0.102256
0.504114 0.0742867 0.236394 0.969065 0.244591 -0.0329985
-0.201598 0.239825 -0.298257 -0.196704 0.755283 -0.625184
-0.109869 -0.228209 0.0766309 -0.956029 -0.290153 0.0426622
0.253796 -0.153873 0.174392 0.258375 -0.947519 0.18828
-0.21479 0.0803407 0.0535255 -0.982814 -0.181336 0.0345438
0.448202 0.224758 -0.313004 0.958088 0.282917 -0.0450063
0.459048 -0.162822 -0.205214 0.260474 -0.954053 -0.148109
0.105482 -0.256898 -0.158824 0.209084 -0.946715 0.244979
-0.329483 -0.0272023 0.0327763 -0.0821646 0.336134 0.938223
-0.0420631 -0.13267 -0.273893 0.00296145 -0.123341 -0.99236
0.335108 -0.177326 -0.0695014 0.278784 -0.946153 0.164542
0.436941 0.285735 -0.133673 0.959633 0.27888 -0.0364725
0.514228 0.0136289 -0.0200145 0.957071 0.278476 -0.080411
0.179509 0.332043 0.240096 -0.0294931 0.221873 0.974629
-0.155709 -0.138615 0.0543492 -0.955928 -0.289317 0.0499722
0.0730371 -0.00188015 0.29867 -0.0147471 0.176253 0.984234
0.541921 -0.144027 0.218808 0.990668 0.119975 -0.0646718
-0.19984 0.323107 0.115097 -0.261318 0.947032 -0.186662
0.117141 -0.147637 0.271282 0.141051 -0.527162 0.837976
0.452982 -0.0742941 -0.275191 -0.00243757 -0.158189 -0.987406
0.471305 0.180008 0.0623215 0.94771 0.310759 -0.0726212
0.418352 0.381612 0.0376491 0.961258 0.269675 -0.0570858
-0.141351 -0.143702 -0.265712 -0.936584 -0.346489 0.0524905
0.417163 -0.0961162 -0.17071 -0.0153659 -0.0576693 -0.998217
0.178055 -0.162916 0.235459 0.265212 -0.948287 0.174399
-0.0992953 -0.242194 0.189818 -0.963488 -0.265565 0.0341517
0.384758 0.322693 -0.29319 -0.111416 0.495829 0.861244
-0.145027 0.305211 -0.0658748 -0.219238 0.948562 -0.228397
0.28934 -0.0174898 0.303767 -0.0518916 0.218579 0.974439
0.271856 0.138785 0.275333 -0.0379765 0.211274 0.976689
0.295352 0.0371391 0.294931 -0.017843 0.113298 0.993401
0.209427 0.416859 0.00210076 -0.21901 0.951248 -0.217168
-0.223532 0.218548 0.245005 -0.952428 -0.302406 0.0378289
0.0898612 -0.168577 -0.200828 0.272776 -0.618534 0.736891
0.254067 0.073807 -0.303918 -0.00292347 -0.151641 -0.988431
0.046722 0.329739 -0.217081 -0.225945 0.950252 -0.214408
0.459701 -0.165882 0.229474 -0.0261976 0.192416 0.980964
0.0719615 -0.234952 0.00379493 0.316831 -0.939938 0.127021
0.433432 0.31878 0.0678146 0.971183 0.23705 -0.0247254
0.448375 0.235982 -0.229778 0.967595 0.250469 -0.0320043
0.294772 0.20477 0.26289 -0.0355098 0.209251 0.977217
0.322492 0.330782 -0.344886 -0.0543424 0.124643 -0.990712
-0.297385 -0.0572327 -0.0220634 0.194015 -0.741354 -0.642459
-0.244296 0.289454 -0.00204356 -0.239705 0.94906 -0.204513
-0.0146322 0.318091 -0.211735 -0.261841 0.947968 -0.181094
-0.214578 0.149185 -0.0294602 -0.250599 0.953562 -0.167092
-0.0319978 0.342827 -0.032993 -0.316531 0.938611 -0.13718
-0.030398 -0.26176 0.0126135 0.258589 -0.948319 0.183907
0.441464 -0.0718101 -0.214919 0.161438 -0.547881 0.820832
-0.150361 -0.0257957 0.29864 -0.0209257 0.130081 0.991283
0.376892 0.152481 -0.31619 0.0362497 -0.199669 -0.979193
0.0380324 0.35886 -0.0596198 -0.262279 0.946904 -0.185966
0.292993 0.427076 -0.0622023 -0.244662 0.94 -0.237783
-0.0635428 -0.254898 0.10845 0.227887 -0.942903 0.242901
0.176511 0.377023 -0.1658 -0.262527 0.948728 -0.176054
0.0151711 0.150926 0.268999 -0.075406 0.193852 0.978129
0.53632 -0.0532818 0.136655 0.95689 0.283054 -0.0651323
-0.220729 0.195328 0.19495 -0.981117 -0.188299 0.0441924
-0.190949 -0.00185268 0.0844924 -0.964987 -0.26064 0.0294351
0.522946 0.00463541 0.193405 0.975035 0.221388 -0.0171339
-0.158171 -0.0732 -0.224867 -0.972268 -0.233865 -0.00165213
-0.0652319 -0.280987 -0.0328391 0.289255 -0.943508 0.161629
-0.16253 0.0350737 0.286982 0.0247989 0.136472 0.990333
-0.0170643 0.0712524 0.284025 -0.0104437 0.153194 0.988141
-0.124036 0.0500008 -0.307364 0.0496453 -0.216774 -0.974959
-0.12748 0.350435 0.148007 -0.327321 0.932305 -0.153846
0.350479 0.447848 -0.0449981 -0.25116 0.950654 -0.182143
0.426137 0.0774228 0.290632 -0.00292614 0.174844 0.984592
-0.0302566 0.222682 -0.324294 -0.152471 0.521023 -0.839814
0.443298 0.29362 0.124597 0.964105 0.263713 -0.030946
0.0794409 0.326356 0.137367 -0.030314 0.219531 0.975134
-0.203376 0.0361407 0.0198773 -0.967475 -0.252619 -0.0132297
0.119693 -0.212881 0.0648967 0.285064 -0.94887 0.13559
-0.0613709 -0.172088 0.240549 -0.274947 0.9444 0.180312
-0.180505 4.54878e-05 -0.299196 0.117086 -0.219383 -0.968588
0.28817 0.406545 -0.164805 -0.276294 0.952805 -0.125796
0.434502 -0.181584 -0.0784148 -0.0547437 0.23076 0.971469
0.227678 0.410227 -0.0616583 -0.291336 0.946201 -0.140811
0.278448 0.165108 -0.321312 -0.093294 -0.132066 -0.986841
-0.153977 0.208571 -0.329097 -0.128018 0.284799 -0.950001
0.539505 -0.143028 -0.201033 0.2586 -0.965137 -0.0404477
0.334157 -0.0579015 0.284562 0.196948 -0.543355 0.816074
0.350702 0.162186 0.274132 0.00952982 0.144677 0.989433
-0.187431 0.0739763 0.19628 -0.95762 -0.277249 0.0780802
0.0323946 -0.210018 0.198521 0.270149 -0.949401 0.160178
0.424539 0.0936092 -0.305875 -0.00353491 -0.173582 -0.984813
0.087707 0.381019 -0.00569779 -0.279284 0.950174 -0.138457
-0.0965279 0.307872 0.16528 0.239989 -0.967933 0.0742289
0.205436 -0.134184 -0.268429 0.0307319 -0.193173 -0.980683
0.162417 0.184843 -0.325969 -0.0134277 -0.140445 -0.989997
0.0910881 -0.104823 -0.276819 -0.0210358 -0.123871 -0.992075
0.398988 0.423025 0.128048 0.105909 -0.276558 0.955144
-0.135607 0.127649 0.271739 -0.0128094 0.141278 0.989887
0.47079 0.170156 -0.0658625 0.947614 0.305346 -0.0937641
0.0049295 0.324073 0.237489 -0.214248 0.814409 0.539292
-0.0849865 0.320674 -0.0782891 -0.277901 0.945277 -0.170947
0.180609 0.356319 0.18274 -0.0799185 0.0768179 -0.993837
0.252245 0.366394 0.178628 -0.0831869 0.344533 -0.935081
0.0223334 -0.0293273 0.300712 -0.00343713 0.1607 0.986997
0.483845 0.104582 -0.163509 0.962856 0.265661 -0.0483008
-0.250801 0.308544 0.107806 -0.241524 0.949459 -0.200485
-0.123346 -0.19926 -0.262158 0.0145547 -0.185854 -0.98247
0.0733319 -0.099368 0.31354 0.230975 -0.574332 0.785362
0.193278 -0.0785026 0.303652 0.17076 -0.530427 0.830354
0.146147 0.246552 -0.272302 -0.262596 0.911746 0.315853
-0.0390392 -0.23519 0.177713 0.263466 -0.948563 0.175541
0.221198 -0.187696 0.0515426 0.231151 -0.952194 0.199738
-0.236581 0.243818 0.0364329 -0.942167 -0.333357 0.0345716
0.220835 0.368262 0.132329 0.0029387 0.139937 0.990156
0.490472 0.0745206 -0.211252 0.949377 0.309121 -0.0559322
-0.181137 0.15483 -0.258593 -0.209432 0.967887 0.139047
0.380797 -0.174086 -0.132215 0.294798 -0.952055 0.0817646
0.335532 0.214933 -0.330476 0.0173361 -0.194937 -0.980662
0.543102 -0.102393 -0.0484657 0.968757 0.247721 0.0120292
0.226483 0.312556 -0.256511 0.217941 -0.84908 -0.481212
0.207145 -0.0264858 0.305797 -0.0197113 0.189641 0.981656
0.432002 0.294066 -0.237362 0.963925 0.264445 -0.0302759
0.477216 0.175214 0.244517 0.979315 0.202209 0.00734337
0.267014 0.360004 0.234952 -0.050465 0.195589 0.979387
0.51036 -0.225929 -0.0617988 0.234318 -0.950449 0.204306
0.260551 0.440137 0.0592512 -0.28273 0.947889 -0.146866
-0.289071 0.00773317 -0.00290028 -0.27059 0.957637 -0.0985511
0.23044 -0.221226 -0.153367 0.271782 -0.949281 0.158116
-0.0765973 0.21253 0.256045 -0.0178083 0.167869 0.985648
0.428835 -0.213797 -0.144249 0.00295583 -0.0764427 -0.99707
0.466486 0.205828 0.115552 0.970046 0.240898 -0.0312933
-0.23642 0.303259 0.0480751 -0.265665 0.948296 -0.17366
0.0338615 0.247819 -0.238447 0.0652667 -0.349792 -0.934551
0.528677 -0.185921 0.136821 0.282134 -0.947536 0.150255
0.302639 -0.152218 0.102244 0.283236 -0.951528 0.119886
-0.139678 -0.0898668 0.305325 -0.967931 -0.249953 0.0251464
0.49064 0.130139 0.213299 0.970163 0.242205 -0.010958
-0.192277 0.286639 -0.113363 -0.239482 0.954063 -0.180032
-0.133606 -0.121554 0.254652 -0.951965 -0.305159 0.0253061
0.510052 0.0500952 0.156281 0.972052 0.234762 0.00124312
0.192362 0.187802 0.266219 -0.00358862 0.163452 0.986545
-0.121648 -0.181297 0.0225033 -0.965281 -0.26004 0.0247267
0.0855018 0.351672 0.227251 -0.198162 0.796998 0.570549
0.409502 0.366949 -0.241126 0.983208 0.182486 0.00115455
