ply
format ascii 1.0
comment Created by Open3D
element vertex 830
property double x
property double y
property double z
property double nx
property double ny
property double nz
end_header
0.0298439 0.255299 0.251177 -0.0025091 0.103918 0.994583
0.044265 0.301486 0.178145 -0.21273 0.756313 -0.618658
0.415823 -0.126286 0.190357 -0.972311 -0.230969 0.0355736
-0.387503 -0.0258946 -0.0170195 -0.213832 0.807715 -0.549429
0.218199 0.249542 0.254449 -0.0399661 0.245561 0.968557
0.397893 0.417659 0.125029 -0.0212205 0.00481789 0.999763
0.468296 0.163078 -0.193218 0.96883 0.247101 -0.0176076
0.421583 0.0661474 0.292577 -0.0179922 0.168646 0.985513
-0.217261 0.230576 0.154045 -0.189865 0.729829 0.656735
0.119654 0.364354 -0.152079 -0.285994 0.948596 -0.135547
0.50013 -0.0704402 -0.222395 0.046561 -0.0601241 0.997104
0.444871 0.26636 0.256382 -0.00269153 0.172832 0.984948
0.302075 0.122763 0.278002 0.0196459 0.130396 0.991267
0.18651 -0.200829 0.0136951 0.241496 -0.950588 0.195095
0.10988 -0.122392 0.290394 0.235834 -0.55262 0.79937
0.46768 0.208038 0.132534 0.959237 0.279045 -0.0446997
0.182496 0.411426 0.00871656 -0.203507 0.95863 -0.199033
-0.0538353 -0.102325 0.313646 0.0164686 0.154759 0.987815
0.532816 -0.0847226 -0.212142 -0.187262 0.74184 0.643899
0.171304 -0.191113 -0.241663 0.140572 -0.841313 -0.52195
-0.39819 -0.0286924 -0.0116898 -0.24786 0.845419 -0.47311
0.144883 0.225499 -0.334471 0.0596484 -0.185233 -0.980883
0.303745 0.408946 -0.185366 -0.256616 0.947932 -0.188608
0.474569 -0.213411 0.0610181 0.252316 -0.943474 0.214926
0.371173 -0.0316813 -0.285704 -0.00185867 -0.160536 -0.987028
-0.179563 0.241204 -0.304318 -0.243447 0.733835 -0.634208
0.417026 -0.135734 0.201442 -0.957472 -0.287549 0.0237296
-0.0535566 -0.0157982 0.298256 -0.0226318 0.18972 0.981577
0.11259 0.0147389 -0.296366 0.0396548 -0.184612 -0.982011
0.00106473 0.359087 0.00345825 -0.195333 0.956314 -0.217506
0.465932 0.202407 0.0776289 0.968303 0.248722 -0.0229618
0.124491 0.394648 0.181202 -0.193542 0.813243 0.548796
-0.47878 -0.0983548 -0.0241542 0.130183 -0.524052 -0.841678
0.226868 0.313729 -0.254047 0.219014 -0.769394 -0.600055
0.502478 0.0479381 -0.0949829 0.966579 0.255298 -0.0234074
0.122325 0.311815 -0.295559 -0.158932 0.544853 -0.823332
0.251199 -0.0619182 0.210851 0.00914731 0.0774875 0.996951
-0.0267028 0.0575311 -0.308393 -0.066567 -0.134408 -0.988688
0.0637552 0.331832 0.137023 0.093276 -0.241527 0.965901
0.519494 0.0256582 0.288709 0.961531 0.273138 -0.0292315
-0.192283 0.0437658 -0.208415 -0.958972 -0.277016 0.0602872
0.398818 0.324742 -0.289861 -0.133935 0.576836 0.805805
0.141728 0.337944 0.179869 -0.107991 0.364679 -0.92485
0.0516232 -0.12199 0.216247 -0.0335637 0.229749 0.972671
0.481754 -0.232049 -0.0449223 0.231632 -0.954733 0.18663
-0.165932 0.0300148 -0.30359 -0.0804141 -0.155148 -0.984613
0.403986 0.421389 0.00871645 0.953626 0.293421 -0.0670912
0.0910114 0.342702 -0.23415 -0.329863 0.931378 -0.154033
-0.146208 0.214506 -0.249356 0.246773 -0.937814 -0.244146
-0.0836659 -0.129658 -0.27329 0.0124914 -0.144693 -0.989398
0.230218 -0.00223918 -0.291877 0.0211833 -0.178453 -0.98372
0.471102 0.181376 0.0396001 0.962163 0.269581 -0.0396077
-0.231878 0.188879 -0.262617 0.226711 -0.852032 0.471851
0.135837 0.186879 0.265743 -0.01749 0.176732 0.984104
0.0500695 0.160407 -0.326637 0.0273867 -0.209326 -0.977462
-0.203306 0.0163283 -0.132693 -0.967517 -0.251918 0.0211491
0.283415 -0.0333456 0.247796 0.180025 -0.752836 -0.633111
0.456663 0.200078 -0.239921 0.971696 0.233439 -0.0362495
0.201524 0.275473 -0.288664 -0.0867879 0.368083 0.925734
0.534402 -0.0454273 0.0999585 0.964227 0.263304 -0.0306104
0.426939 0.350546 0.141084 0.966226 0.255854 -0.0307464
0.373554 -0.0140409 0.213106 0.162061 -0.58721 0.793045
-0.0225667 -0.144084 -0.270668 0.0396456 -0.298329 -0.953639
0.307346 0.0861866 0.287216 -0.030041 0.198516 0.979637
0.533852 -0.138441 -0.0488633 0.964682 0.261754 -0.0295596
-0.154245 0.00623974 0.292764 -0.0153433 0.152033 0.988256
0.297745 0.467691 0.140811 -0.240264 0.95434 -0.177506
-0.0308209 -0.20689 -0.158849 0.104047 -0.465943 -0.878676
0.345698 -0.141813 0.0930928 0.279232 -0.946738 0.160365
-0.14378 -0.137502 -0.221943 -0.974747 -0.22276 0.0156861
0.25456 0.0682714 -0.305757 0.039675 -0.190022 -0.980978
-0.21537 0.166951 0.0840227 -0.965468 -0.260329 0.0100229
0.270552 0.458818 0.137206 -0.273501 0.946434 -0.171638
0.30409 -0.111996 -0.171213 0.182461 -0.636573 -0.749322
-0.0496427 0.0525681 -0.305896 -0.0137789 -0.23666 -0.971495
0.342667 0.0818805 -0.304721 0.030083 -0.197669 -0.979807
0.469285 -0.165467 -0.152228 0.0153447 -0.176289 -0.984219
0.477254 -0.239229 -0.0712209 0.295644 -0.944916 0.140459
-0.167221 0.00647684 0.236527 -0.956323 -0.286778 0.0566175
-0.173623 0.287032 0.166011 0.204449 -0.970297 0.129324
0.20197 -0.130638 -0.189293 0.285866 -0.953745 0.0930158
0.276986 0.391167 -0.241945 -0.279599 0.944031 -0.175014
-0.0555769 -0.0181884 0.300778 -0.0145919 0.152624 0.988177
-0.496761 -0.079313 0.013266 -0.961313 -0.272481 0.0403948
-0.225615 0.223994 0.241393 -0.969848 -0.233844 -0.068639
-0.11406 0.261208 0.184964 -0.157918 0.645826 -0.746974
0.442773 0.271954 -0.10999 0.974721 0.222616 0.0189856
-0.138164 -0.109029 0.119497 -0.964953 -0.261497 0.0220319
0.502502 0.024186 -0.267786 0.967327 0.252129 -0.0266466
0.28419 -0.190623 -0.0681568 0.289404 -0.94428 0.156785
-0.241314 0.225939 -0.215903 -0.956538 -0.287487 0.0488436
0.549569 -0.194586 -0.0130552 0.955994 0.292163 -0.0267528
0.302329 0.431621 0.219778 -0.127459 0.489761 0.86249
-0.142809 0.295306 0.238967 -0.0114664 0.297188 0.95475
0.314785 0.369566 0.156779 -0.243255 0.957188 -0.156899
0.529576 -0.0705265 -0.220728 -0.00188524 0.178982 0.983851
-0.0170553 0.164522 0.26625 0.00275176 0.162831 0.98665
0.0487617 0.206223 0.260545 0.0136566 0.164906 0.986215
-0.194544 0.0171092 0.13126 -0.963484 -0.265647 0.033625
0.480431 0.0553573 -0.298076 0.0324049 -0.183799 -0.98243
-0.193148 0.00981484 0.105329 -0.961324 -0.271411 0.0468165
0.423733 0.321106 -0.232889 0.951715 0.304088 -0.0420665
0.373615 0.467991 0.0321812 -0.264017 0.948522 -0.174932
0.519114 0.00154651 0.0380746 0.96557 0.258751 -0.026863
-0.100372 0.301546 -0.152608 -0.290776 0.94308 -0.161401
0.530305 -0.125982 0.0500204 0.975245 0.221119 -0.00198531
0.232072 -0.187677 -0.223657 0.224397 -0.745665 -0.627399
-0.12118 -0.155364 0.285246 -0.980524 -0.193429 -0.0340134
0.501837 0.0610456 0.0202339 0.963351 0.264704 -0.0434459
0.216164 -0.187835 0.0459423 0.279138 -0.947347 0.156893
-0.220871 0.162684 -0.227156 0.00394746 0.179138 -0.983816
0.321732 -0.162694 0.0195439 0.24139 -0.939371 0.243544
-0.192218 -0.0254732 -0.125693 -0.961003 -0.272101 0.0493354
-0.0851361 -0.0685369 -0.283933 -0.00721814 -0.168728 -0.985636
-0.0960083 0.291547 0.242605 0.0255088 0.116501 0.992863
0.393803 0.480377 0.166686 0.964995 0.260601 -0.0295242
0.397892 -0.00536515 -0.288908 0.021204 -0.23838 -0.970941
-0.222518 0.207183 0.187739 -0.972338 -0.232505 -0.0223828
-0.33265 -0.00440011 0.00556813 -0.261431 0.95986 0.101604
0.117063 -0.175751 0.250645 0.203794 -0.598812 0.774527
0.216118 -0.200293 -0.0260329 0.283356 -0.948577 0.141105
0.256185 -0.200875 -0.0835926 0.271718 -0.94707 0.170962
0.48826 0.146928 0.272664 0.972508 0.232329 -0.0158725
0.12468 0.347335 -0.253863 -0.265952 0.948945 -0.169625
0.435014 -0.222686 0.0154211 -0.970829 -0.239216 0.0162963
-0.236346 0.260014 0.216338 -0.967256 -0.251917 0.0308663
-0.183488 0.0357171 -0.307 -0.0112234 -0.144074 -0.989503
0.459467 0.1928 -0.20658 0.958639 0.280409 -0.0487965
0.0791224 -0.260236 -0.133885 0.288635 -0.945758 0.149105
-0.185868 0.316028 0.219918 -0.177636 0.712021 0.679317
0.540921 -0.0832423 0.127625 0.260352 -0.948531 0.180292
-0.100359 -0.265276 0.0255054 -0.949146 -0.298945 0.0987582
0.000777999 -0.100381 -0.278082 0.00253644 -0.157717 -0.987481
0.414819 0.383048 -0.0251812 0.963186 0.267196 -0.0296504
-0.105821 0.208973 0.25647 -0.000101246 0.150003 0.988685
-0.0312739 -0.272135 -0.036011 0.265153 -0.948373 0.174019
-0.171345 0.259953 -0.272333 -0.279206 0.94045 -0.193902
0.222869 0.446724 0.140087 -0.182905 0.947549 -0.262102
0.00318688 0.358605 -0.0136081 -0.248114 0.925589 -0.285874
0.494124 -0.229338 -0.039378 0.288662 -0.949006 0.126733
0.352216 -0.131073 0.143735 0.27117 -0.947065 0.171855
0.00287117 -0.141677 -0.270641 0.0187092 -0.177905 -0.98387
-0.232806 0.179148 -0.31734 -0.949925 -0.30733 0.0564946
0.123724 -0.192514 0.156924 0.313075 -0.940339 0.133214
0.449389 -0.157384 0.0732137 -0.963335 -0.266502 0.0310317
-0.108592 -0.026825 -0.293025 -0.0013345 -0.14856 -0.988902
0.318816 0.232834 -0.332671 0.0206684 -0.200583 -0.979459
0.436866 0.281048 -0.151543 0.956742 0.28739 -0.0452867
0.414742 -0.0314442 0.209224 -0.136313 0.542274 0.82907
0.298603 0.282133 -0.341489 0.0561197 -0.217881 -0.974361
0.41574 0.403574 0.195658 0.970041 0.242377 -0.0165354
0.313444 0.295024 -0.252497 -0.211594 0.700659 -0.6814
0.535581 -0.129023 0.170726 0.94502 0.311281 -0.100212
-0.234683 0.236131 0.0451851 -0.975898 -0.216079 0.0305445
0.251208 -0.0701709 0.29719 0.151639 -0.52884 0.835065
0.403176 0.387102 -0.265011 0.933087 0.332926 -0.136051
0.532842 -0.122714 0.107453 0.943433 0.324517 -0.0679933
0.410295 0.380772 -0.17041 0.970538 0.240123 -0.0199323
0.0503186 0.34705 0.221318 -0.229681 0.772501 0.592021
0.308308 0.468434 0.135976 -0.256046 0.949203 -0.182905
0.541008 -0.135927 -0.22881 0.217636 -0.863226 -0.455494
0.134343 -0.071707 0.24655 0.231976 -0.898149 -0.373518
0.145066 -0.0696215 0.246753 0.250539 -0.88405 -0.394569
0.455561 0.223181 -0.0199794 0.963493 0.265267 -0.0362598
0.0826766 0.332149 0.239538 -0.0256764 0.187385 0.981951
0.523487 -0.0409942 -0.20638 0.939792 0.323203 -0.111042
0.0207373 -0.10411 0.229923 0.218777 -0.819443 0.529763
-0.235135 0.231779 0.0357591 -0.963059 -0.266648 0.0376401
0.274032 0.41827 -0.0938538 -0.249263 0.950782 -0.184071
0.42897 0.301682 -0.273428 0.954992 0.293108 -0.0455724
-0.120482 0.194 0.261439 0.0320971 0.137571 0.989972
-0.080756 0.0645922 0.286751 -0.0800896 0.218939 0.972446
0.428733 -0.170888 -0.168106 0.238891 -0.942776 0.232606
-0.0950255 -0.149052 0.26943 0.100595 -0.303331 -0.947561
0.0483151 0.294718 -0.292714 -0.125434 0.514287 -0.848396
0.196923 -0.0460911 -0.284849 0.0488261 -0.228312 -0.972363
-0.0493339 -0.292066 -0.21207 0.216755 -0.883177 -0.415952
-0.402789 -0.0295534 0.0198651 -0.202525 0.888001 0.412842
-0.181253 0.0461434 0.181647 -0.971202 -0.236635 0.0277643
-0.0220037 0.319955 -0.172212 -0.293269 0.944493 -0.148076
0.359211 0.328092 -0.294157 0.00906401 0.0426075 0.999051
0.478872 0.173877 0.212769 0.957087 0.283339 -0.0608508
-0.0589072 -0.272103 -0.241266 0.154816 -0.601152 -0.783995
0.0482123 -0.205536 0.187324 0.260993 -0.947818 0.183095
-0.0990781 -0.26718 0.00353061 -0.917719 -0.395396 0.0381216
0.258884 0.372582 0.131411 -0.049084 0.275109 0.960159
-0.161169 -0.120196 -0.0317154 -0.948166 -0.311406 0.0633079
0.168316 0.270702 -0.290049 -0.00554242 0.222584 0.974898
0.356364 0.349662 -0.278885 0.268949 -0.93193 0.243255
-0.184713 -0.0262099 0.0708111 -0.949854 -0.310559 0.036477
0.431571 0.304565 -0.137944 0.964364 0.262856 -0.030152
0.14262 0.361451 -0.196188 -0.2785 0.945109 -0.170898
0.338614 -0.0280303 -0.28409 0.0187125 -0.177858 -0.983878
0.46371 -0.139059 0.224261 -0.0496028 0.205898 0.977315
0.374264 -0.0958475 0.251649 0.169299 -0.543275 0.822308
-0.127036 0.215062 0.255572 -0.0126719 0.161835 0.986736
0.0658589 -0.113583 -0.27538 -0.00465339 -0.168353 -0.985716
-0.223918 0.108859 -0.0177272 -0.967974 -0.25048 -0.016898
-0.219203 0.0940151 0.0294942 -0.966105 -0.255358 -0.03785
0.259541 0.328369 -0.315021 -0.177411 0.546226 -0.818635
-0.184638 -0.0466813 -0.0581324 -0.966056 -0.258161 0.00945636
-0.214352 0.146482 -0.0996711 -0.960916 -0.276013 0.021373
0.0961511 0.354125 -0.167679 -0.286128 0.949231 -0.130735
0.370652 0.420619 -0.224076 -0.255648 0.946635 -0.196282
0.0879154 -0.0308807 -0.28964 0.0358763 -0.182348 -0.982579
-0.161769 -0.0738795 -0.28023 -0.964494 -0.262415 0.0298235
0.52721 -0.0077244 0.171022 0.938705 0.342159 -0.0419623
0.40188 0.420668 -0.0280655 0.971152 0.238221 0.0106722
0.202183 0.0772558 0.286952 -0.0286051 0.256914 0.966011
0.430808 0.324081 -0.0085512 0.947154 0.309356 -0.0848418
-0.157846 0.181989 -0.330745 0.0385458 -0.110862 -0.993088
0.358887 -0.17515 -0.0966621 0.268712 -0.947344 0.174163
-0.264357 -0.0517459 -0.0211043 0.237756 -0.729626 -0.641185
0.534352 -0.037184 0.165378 0.971326 0.235873 0.0298102
0.133615 -0.198588 -0.180978 -0.226675 0.964937 -0.132342
-0.0218805 0.177602 -0.327151 0.0133745 -0.236709 -0.971488
0.415929 0.391005 0.125244 0.963758 0.264887 -0.031722
0.209782 -0.140945 -0.268626 0.0210969 -0.182244 -0.983027
0.102454 -0.206394 -0.186885 -0.215114 0.975038 0.0550155
0.311414 0.403886 -0.222891 -0.294651 0.945881 -0.135975
0.332119 0.379617 0.233417 0.00635548 0.152495 0.988284
0.422469 0.369601 0.199195 0.956416 0.287732 -0.0497786
-0.137796 0.230586 -0.321944 -0.153561 0.481332 -0.862982
-0.0200394 -0.244774 0.0901611 0.239115 -0.945895 0.219331
-0.177744 -0.0016338 -0.172752 -0.945614 -0.325072 0.0119515
0.446239 -0.252058 -0.0997205 0.181767 -0.965567 0.186123
0.48415 0.121859 -0.013852 0.967066 0.254159 -0.0136474
-0.214509 0.172844 0.18995 -0.971393 -0.233571 -0.0428955
-0.111339 -0.224603 -0.0320284 -0.985438 -0.16941 0.0145488
-0.25487 -0.0508196 -0.0179132 0.217069 -0.852102 -0.476238
0.181002 -0.181791 -0.250686 0.197158 -0.799426 -0.567492
-0.134777 -0.0148677 -0.297187 0.0158751 -0.170882 -0.985164
0.462702 -0.109197 -0.193613 -0.258025 0.965101 0.0447614
-0.183136 0.302865 -0.0210166 -0.255482 0.949634 -0.181448
-0.195045 0.053713 -0.274792 -0.960125 -0.27914 0.0154955
0.354006 0.0265915 0.29736 -0.0348575 0.269694 0.962315
-0.0360848 0.2996 -0.265987 -0.261171 0.948662 -0.178411
0.0119058 -0.280989 -0.152588 0.244814 -0.949903 0.194295
0.338186 -0.110987 -0.215508 0.0732592 -0.176777 0.981521
0.327385 -0.18294 -0.0936466 0.280446 -0.946275 0.160979
0.371131 0.390636 -0.322471 -0.188993 0.669101 -0.718739
0.352191 0.477646 0.179111 -0.226384 0.925894 0.30244
-0.158853 0.139131 0.270322 -0.0663486 0.220668 0.97309
0.110257 0.410597 0.10962 -0.213909 0.949565 -0.229278
0.214113 -0.0966929 0.243214 -0.258927 0.919094 -0.297024
0.177137 -0.160897 0.241842 0.268182 -0.947723 0.172915
0.20595 0.183313 -0.326903 0.0891165 -0.193101 -0.977123
0.293357 -0.0374606 0.252838 0.119409 -0.529005 -0.840176
0.467153 0.203821 0.168819 0.961342 0.272371 -0.0404505
-0.0129363 0.32521 0.177628 0.183891 -0.786068 -0.590154
-0.179463 -0.0609864 -0.113671 -0.961281 -0.268997 0.059832
0.351003 -0.107065 -0.215213 0.078196 -0.202371 0.976182
0.221395 -0.187247 0.0294853 0.26462 -0.948521 0.17402
0.149808 -0.0073422 -0.295353 0.0109141 -0.15001 -0.988624
-0.165363 0.238064 0.174743 -0.280653 0.932301 -0.228141
-0.224371 0.105852 -0.0724056 -0.985817 -0.167817 -0.00146577
0.257307 0.289802 -0.341368 -0.155075 0.536626 -0.829448
0.336431 0.477081 0.171104 -0.250866 0.926816 0.279426
0.329401 -0.135809 0.152807 0.263718 -0.948686 0.174493
0.495719 0.103411 0.17132 0.970346 0.240448 -0.024759
-0.235577 0.317695 0.131899 -0.292644 0.94528 -0.144242
-0.173747 0.11456 -0.31928 0.0280155 -0.178102 -0.983613
-0.290517 -0.0287935 0.0342717 0.016035 -0.0145424 0.999766
0.392645 -0.0332261 0.300472 -0.974572 -0.224023 0.00474264
0.521202 0.0110488 0.147171 0.971526 0.236291 -0.0174447
0.399241 0.438667 0.0141696 0.971067 0.238464 -0.012787
0.308504 0.185238 0.265935 0.0174232 0.119425 0.99269
-0.162961 -0.0111923 0.25655 -0.965141 -0.260056 0.0295469
0.292058 0.324354 -0.249767 0.132487 -0.566153 -0.813584
0.505851 -0.0957062 -0.199669 -0.213524 0.975429 0.0542704
-0.222899 -0.0477671 -0.00641883 0.285994 -0.945955 -0.152891
0.310547 0.460404 0.0860905 -0.185987 0.959996 -0.209325
0.437364 -0.0270431 0.209007 -0.0918686 0.570445 0.816182
-0.0304476 -0.119889 0.316854 0.0328101 0.133504 0.990505
0.289759 0.304248 -0.245376 -0.11903 0.233372 -0.965075
0.0942834 -0.180057 0.253473 0.179959 -0.550679 0.815087
0.475841 0.131412 -0.180981 0.951684 0.304737 -0.0378568
-0.245237 0.2808 0.122203 -0.974131 -0.22433 0.0273012
0.0164104 -0.0681253 0.309331 -0.0129687 0.163139 0.986518
0.0983519 0.124512 0.274837 -0.00507783 0.166231 0.986074
0.0318309 0.394649 0.147857 -0.200196 0.793695 0.57443
0.527516 -0.0593762 -0.243982 0.976135 0.21199 0.0471274
0.259869 0.399486 -0.165722 -0.227583 0.955139 -0.189512
-0.209144 0.154673 0.179792 -0.976784 -0.212893 0.0238711
0.0367883 -0.216104 -0.250963 0.178013 -0.776644 -0.604265
0.127039 -0.194489 -0.254182 0.20451 -0.777592 -0.594581
0.532323 -0.147536 -0.124366 0.964104 0.26314 -0.0355048
-0.196538 0.0555358 -0.290376 -0.969189 -0.244023 0.0335502
0.140183 -0.0673517 0.243186 0.247737 -0.937306 -0.245121
0.510038 0.0193872 -0.041298 0.963566 0.264374 -0.040576
0.279533 -0.0708691 0.288345 0.160708 -0.544795 0.823026
-0.0865236 0.293501 -0.224271 -0.266262 0.948468 -0.171795
0.0177098 -0.0546602 0.307287 -0.00386233 0.127257 0.991862
-0.202217 0.0898276 -0.201196 -0.966497 -0.255903 0.0199122
-0.0321523 -0.29394 -0.149374 0.254136 -0.948536 0.188927
0.395619 -0.126757 -0.252011 0.199472 -0.792733 -0.576008
-0.236152 0.206064 -0.264209 -0.963894 -0.264505 0.030737
0.544179 -0.101603 -0.0726208 0.961488 0.272939 -0.0323147
0.199709 0.387976 0.159142 0.233841 -0.971965 -0.0245234
0.506666 -0.180536 0.203168 0.255012 -0.949359 0.183537
-0.173308 0.307402 -0.0217172 -0.197789 0.9612 -0.192289
0.0734148 0.342706 -0.200081 -0.241101 0.947057 -0.212021
0.405574 0.424941 0.116073 0.963669 0.265492 -0.0292471
0.34797 0.466307 0.0622928 -0.230832 0.934996 -0.269257
-0.0422348 -0.147934 0.265751 -0.140909 0.241082 -0.960221
-0.217522 0.162191 0.0084271 -0.946051 -0.279615 0.163718
-0.241412 0.269036 0.132709 -0.9529 -0.297319 0.0598597
-0.176941 -0.0114736 -0.284134 -0.963826 -0.264593 0.0320915
0.21248 0.427909 0.0503031 -0.291629 0.943983 -0.154431
-0.112308 0.293874 -0.178289 -0.225791 0.954256 -0.195994
0.513294 -0.0104999 -0.22817 0.970631 0.240279 -0.0119344
0.0807444 0.278898 -0.258075 0.267312 -0.95747 -0.108603
-0.0588338 -0.0553056 0.306249 -0.0575862 0.178234 0.982302
0.258997 0.16656 -0.319352 0.00457062 -0.166717 -0.985994
-0.110753 0.264591 0.144856 -0.0902749 0.499002 0.861886
0.544114 -0.15623 0.138167 0.981988 0.188933 0.00206513
0.173697 -0.089012 -0.278032 0.00978425 -0.148824 -0.988815
0.425311 -0.204975 -0.110902 -0.970246 -0.241657 0.0149725
0.0568006 0.289688 0.246518 -0.0214145 0.180903 0.983268
0.0419468 -0.214924 0.162541 0.263358 -0.948576 0.175631
0.42606 -0.194464 -0.101057 -0.962691 -0.269113 0.028369
0.250023 0.376294 0.131619 0.054697 -0.0702578 0.996028
-0.0263366 0.361614 0.0408169 -0.265995 0.948457 -0.172266
0.167074 -0.189235 0.12056 0.243271 -0.952201 0.184748
-0.130278 -0.149843 0.0662823 -0.967833 -0.251406 0.00972245
-0.095254 0.259167 0.171399 -0.203176 0.937247 -0.283349
-0.216612 0.220769 -0.313395 -0.235058 0.566663 -0.789709
0.417552 0.307566 0.251373 0.0282026 0.15802 0.987033
0.0211531 -0.220603 0.159358 0.231806 -0.948367 0.216485
0.351038 0.465279 0.0468649 -0.261363 0.947305 -0.185212
0.0176951 -0.0717426 0.3096 -0.0327417 0.191464 0.980953
0.0926491 0.35578 0.144791 0.239625 -0.750608 0.615766
0.29473 0.236184 -0.331996 0.0289347 -0.13796 -0.990015
0.489069 0.0844094 -0.202164 0.962733 0.268207 -0.0347979
0.546047 -0.109472 -0.0571104 0.963609 0.26477 -0.0368145
-0.345352 -0.0628855 -0.0297075 0.143826 -0.574026 -0.806107
0.458961 0.187507 -0.288285 0.966061 0.257377 -0.0219661
-0.153831 0.242474 0.179669 -0.326145 0.85233 -0.408855
0.440266 0.261272 -0.205038 0.965045 0.260634 -0.0275278
-0.108533 -0.256351 -0.211042 -0.980045 -0.195227 0.0373897
0.45008 -0.0291153 0.214954 -0.19828 0.80413 0.560411
0.339212 0.0359423 -0.297449 0.0176825 -0.175216 -0.984371
0.196898 -0.0658065 -0.280367 0.098702 -0.2289 -0.968433
0.173445 0.0842535 -0.307253 0.0382875 -0.213376 -0.97622
0.484313 -0.216228 0.0430275 0.303186 -0.940382 0.154142
-0.198803 0.00528337 -0.068632 -0.973097 -0.230144 0.0107729
0.478394 -0.209711 0.0911761 0.238898 -0.942232 0.234791
0.414856 0.391185 0.0935378 0.975029 0.22154 -0.0154361
0.534521 -0.0998595 0.0397844 0.198428 -0.955791 0.217001
0.438754 0.291141 -0.00908366 0.974521 0.224295 -0.000377966
0.106438 0.219503 -0.333505 0.0135173 -0.151429 -0.988376
-0.496436 -0.0787631 -0.000155907 -0.96051 -0.275529 0.0387733
0.541738 -0.0910948 -0.0511007 0.963564 0.265596 -0.0316611
0.267568 -0.0808426 0.224736 -0.217075 0.853141 0.474372
0.0163385 -0.273062 -0.11663 0.186305 -0.930436 0.315562
0.388632 -0.119683 0.156954 0.236828 -0.944298 0.228505
0.336261 0.195533 -0.326357 0.0852315 -0.224387 -0.970766
-0.157432 -0.025211 0.19722 -0.959667 -0.2775 0.0450808
0.451788 -0.184741 -0.0376793 -0.972311 -0.232647 0.0220416
0.427588 0.31412 -0.113763 0.976864 0.211263 -0.0332446
0.0516252 0.246277 -0.236132 -0.00244287 -0.0836156 -0.996495
-0.126948 0.192165 -0.3302 -0.0525344 -0.0209858 -0.998399
-0.239037 0.219638 -0.212065 -0.954733 -0.288665 0.0718143
0.379537 0.363431 -0.343135 -0.146933 0.373695 -0.91584
0.470373 0.0829723 0.2902 -0.0446073 0.241966 0.969259
0.248043 0.378048 -0.271875 -0.246003 0.943599 -0.221595
-0.114782 0.20507 0.25734 -0.00711533 0.122704 0.992418
0.237936 0.330579 -0.310456 -0.147539 0.538282 -0.82975
0.411924 -0.147641 -0.0347866 0.248736 -0.944357 0.215222
0.233725 0.41559 -0.0421754 -0.26243 0.947941 -0.180385
0.298835 0.176423 -0.322185 0.0264349 -0.177764 -0.983718
0.501848 0.0391783 -0.171842 0.97248 0.230493 -0.0339992
-0.250205 0.292586 0.0123257 -0.255153 0.945615 -0.201766
-0.0390517 0.159736 -0.325102 0.0078432 -0.170519 -0.985323
0.0516742 0.362732 -0.0563041 -0.287353 0.948241 -0.13516
0.547541 -0.114274 -0.114069 0.964554 0.262207 -0.0297248
-0.174761 -0.0741851 -0.0389137 -0.950873 -0.303481 0.061147
0.117574 0.0322148 -0.299236 -0.0116486 -0.129225 -0.991547
0.531508 -0.107935 0.182675 0.962439 0.268038 -0.0432145
0.0101585 0.248911 -0.24107 0.11992 -0.569886 -0.812926
-0.245212 0.275983 0.0940664 -0.962217 -0.269253 0.0405045
0.540777 -0.0792712 0.036419 0.986431 0.162873 -0.0206536
0.223908 -0.189658 -0.225214 0.211847 -0.845414 -0.490302
0.502819 0.086399 0.267893 0.966298 0.255774 -0.0291198
0.455906 0.25611 0.221158 0.953728 0.298605 0.0351731
0.443237 -0.245496 -0.0559863 0.278501 -0.946011 0.165831
0.122848 0.328367 0.23935 -0.0328215 0.209395 0.97728
0.142564 -0.208859 -0.226078 0.146145 -0.7814 -0.606676
0.354188 -0.010345 0.304377 0.0266244 0.145263 0.989035
0.42528 -0.0375881 0.302853 0.0148917 -0.271834 0.962229
-0.123211 0.353046 0.177981 -0.269693 0.947782 0.170219
-0.168328 0.338008 0.191422 -0.247634 0.904358 0.347585
-0.106415 -0.223327 0.161305 -0.948475 -0.28586 0.136673
0.0585415 0.348021 -0.141577 -0.313645 0.94274 -0.113436
-0.101515 -0.24254 0.160204 -0.966083 -0.256697 0.0281025
0.200444 0.304093 -0.318856 -0.16856 0.541384 -0.823705
0.527957 -0.00158162 0.273568 0.966308 0.255926 -0.027393
0.465699 -0.204976 0.119353 0.248881 -0.950773 0.184634
0.394032 -0.108649 0.200703 0.2052 -0.956365 0.207987
-0.0929436 0.288212 0.242221 -0.0284388 0.227499 0.973363
-0.452325 -0.0995325 -0.0180676 0.193969 -0.679061 -0.707991
0.478016 -0.041319 -0.281202 0.0136899 -0.165362 -0.986138
0.379722 -0.152573 -0.00305286 0.256517 -0.948025 0.188275
0.414984 0.241211 -0.332422 0.0871551 -0.18012 -0.979776
-0.223917 0.113804 0.045364 -0.964727 -0.261663 0.028871
0.538085 -0.0549444 0.259356 0.236979 -0.860118 0.451705
0.442458 0.277967 -0.0106008 0.955021 0.286382 -0.0769465
0.219487 -0.196398 -0.00158602 0.255978 -0.949787 0.179943
0.366572 0.222686 0.262948 -0.00706225 0.1708 0.98528
-0.0553261 0.268145 0.248591 -0.00500928 0.0985299 0.995121
0.2606 0.393932 0.230306 -0.20044 0.815768 0.542537
0.32303 0.19551 -0.327348 0.0127993 -0.245132 -0.969405
-0.311263 -0.00542447 -0.0189124 -0.137441 0.752008 -0.644665
0.366668 0.303889 -0.273131 -0.260462 0.964338 0.0470268
0.463145 -0.119752 -0.260562 0.116058 -0.500257 -0.858064
0.427975 0.337318 0.0640351 0.960484 0.274864 -0.0438116
-0.0270568 0.0119725 -0.29937 0.00980447 -0.0891916 -0.995966
0.507156 0.0192572 -0.202592 0.975058 0.220715 0.0233661
-0.0747237 0.218913 -0.317655 -0.188509 0.561611 -0.805641
-0.0942048 -0.298555 -0.132888 -0.985994 -0.16387 -0.0310373
-0.162959 -0.0596298 -0.234319 -0.952583 -0.303814 0.016787
0.0550916 0.0677651 -0.306753 0.0731995 -0.185082 -0.979993
0.490274 -0.154099 -0.180969 0.252131 -0.946823 0.199892
-0.150362 -0.0498348 0.272344 -0.974917 -0.222389 0.00894735
-0.0560344 -0.299105 -0.148074 0.245582 -0.951386 0.185885
0.495592 -0.0657018 -0.274747 -0.0215133 -0.171099 -0.985019
0.231772 0.0842007 0.283896 0.00920316 0.103192 0.994619
0.161031 0.405006 0.00656852 -0.291188 0.95186 -0.0957739
0.0388093 0.181798 0.263672 -0.0605287 0.263799 0.962677
0.537987 -0.165971 -0.117143 0.970267 0.240623 0.0261345
0.228201 0.104547 -0.310224 0.135006 -0.202804 -0.969868
0.068045 0.348517 -0.156649 -0.310067 0.938338 -0.152904
-0.231633 0.317219 0.203659 -0.239747 0.886339 0.396137
0.516569 0.0400035 0.271953 0.977477 0.210423 0.0161296
0.0527286 -0.196397 -0.261648 -0.0498718 -0.100042 -0.993733
-0.138572 -0.109401 0.128082 -0.972684 -0.231295 0.0197026
0.130551 0.408298 0.06318 -0.26293 0.948617 -0.176052
0.25437 0.357019 0.168452 -0.276162 0.793875 -0.541754
0.35527 -0.15054 0.0417144 0.250091 -0.946126 0.205672
0.308051 0.356315 -0.335655 -0.186733 0.512848 -0.837925
0.151274 -0.225859 -0.0531714 0.226548 -0.956349 0.184589
0.444464 -0.111735 0.217632 0.013154 0.154699 0.987874
0.448878 -0.151203 0.119045 -0.960591 -0.275819 0.0344729
0.235772 0.405491 -0.113423 -0.224225 0.946521 -0.231995
0.281751 0.457402 0.109049 -0.267207 0.948498 -0.170153
-0.0549969 -0.16136 0.316697 0.120086 -0.175871 0.977061
0.101618 0.234323 0.256321 0.00440636 0.164963 0.98629
0.395434 0.220108 -0.33012 -0.0525978 -0.161287 -0.985505
0.0342214 0.274574 -0.306263 -0.205925 0.540317 -0.815875
-0.170742 -0.0360968 -0.285733 -0.983854 -0.172608 -0.0473024
0.466963 0.159652 -0.195144 0.960768 0.276627 -0.0200486
0.507907 0.0702358 0.281048 0.965099 0.260601 -0.0258987
0.0200586 0.186748 -0.331982 -0.00281921 -0.174857 -0.98459
0.345003 -0.183183 -0.126293 0.26619 -0.949904 0.163784
0.412685 0.369926 -0.174751 0.968439 0.249048 -0.0100564
0.440577 -0.181883 0.2299 0.00486827 0.174049 0.984725
-0.0334692 0.110067 -0.317312 -0.0187357 -0.127149 -0.991707
0.257155 0.190726 0.266924 -0.0194136 0.185142 0.98252
-0.0398156 -0.273959 -0.236872 0.198498 -0.703867 -0.682033
0.536377 -0.0727751 0.187787 0.267499 -0.948168 0.17153
-0.13243 -0.138591 0.0615441 -0.964512 -0.262356 0.0297732
0.00659756 0.372862 0.064291 -0.206297 0.957588 -0.201165
0.0529375 0.234845 -0.239903 -0.168225 0.316999 -0.933387
-0.12808 -0.165968 -0.00253682 -0.92867 -0.366451 0.0573167
-0.0210846 0.0585739 0.285126 0.0135861 0.147549 0.988961
-0.00760734 0.233162 -0.236059 -0.0477016 -0.195746 -0.979494
0.453254 -0.167967 0.134697 -0.940232 -0.336695 0.0509967
-0.117831 -0.0454091 0.302616 0.000298176 0.145983 0.989287
-0.154745 -0.0418671 0.227543 -0.959223 -0.282291 -0.0142769
0.0989834 -0.234164 -0.0255937 0.251573 -0.944754 0.210121
0.23968 0.361171 0.177189 -0.157611 0.441871 -0.883125
-0.0915427 0.259856 0.17416 -0.147349 0.914902 -0.375822
0.44433 0.253235 -0.178122 0.957917 0.284916 -0.0348931
0.472483 -0.16567 -0.153831 0.0153119 -0.157672 -0.987373
-0.0196507 -0.152361 -0.26878 0.0646301 -0.216898 -0.974053
0.218323 0.384203 -0.182786 -0.257588 0.946079 -0.196424
0.132265 0.256333 -0.337303 -0.203311 0.565623 -0.799209
-0.0042075 0.305838 0.188996 -0.0181451 -0.0388897 -0.999079
0.19158 0.0276254 0.296524 -0.0731515 0.203272 0.976386
0.0651073 -0.21894 0.110252 0.256378 -0.947176 0.192687
-0.238077 0.237387 -0.026609 -0.953065 -0.28947 0.0887361
-0.0656426 -0.263207 0.0517227 0.271783 -0.947298 0.169588
0.125392 0.411614 0.0966776 -0.234888 0.945254 -0.226545
-0.169041 -0.103281 -0.0636159 -0.963267 -0.266949 0.0292258
0.421376 0.306532 0.248508 -0.0705651 0.251175 0.965366
0.515536 0.00380881 -0.127994 0.970868 0.23931 -0.0121209
-0.133949 -0.159837 -0.143683 -0.973956 -0.226619 0.00730598
0.39293 -0.11181 -0.171685 -0.132763 0.387124 -0.912419
0.147442 0.367414 -0.17564 -0.269786 0.949459 -0.160445
-0.0371385 0.157931 -0.326333 0.0311291 -0.193243 -0.980657
0.443489 0.262663 -0.0861521 0.95799 0.283721 -0.0419335
0.282425 0.331232 -0.275504 0.216657 -0.922533 0.319363
0.103725 -0.197395 -0.201085 -0.137184 0.579297 0.80349
-0.0986552 -0.154632 0.320986 0.00875317 0.0693933 0.997551
-0.149527 -0.101769 -0.16735 -0.960563 -0.276349 0.0308324
-0.116006 -0.190484 0.143939 -0.956739 -0.285583 0.0556106
0.132636 0.392384 -0.0199721 -0.248015 0.943422 -0.220099
0.321548 0.305443 -0.248428 -0.157781 0.47547 -0.865467
0.385148 0.147459 -0.315488 -0.0312183 -0.150542 -0.988111
0.444581 0.24024 -0.317313 0.965148 0.259999 -0.0298144
-0.185499 0.0736379 0.191863 -0.959184 -0.279999 0.0395697
-0.0754648 0.273807 -0.281948 -0.151773 0.537617 -0.829417
0.41937 0.348373 -0.111668 0.974219 0.225044 -0.0158939
-0.119521 0.174595 -0.264187 -0.228364 0.915648 0.330814
0.00439166 0.376361 0.0932362 -0.311001 0.940045 -0.139976
0.27154 0.121135 0.279239 0.0205915 0.0887632 0.99584
0.230517 -0.167451 -0.177045 -0.255933 0.844696 -0.470093
0.0784526 0.245629 -0.332306 -0.150928 0.532788 -0.832681
-0.0954375 0.321456 -0.0546163 -0.271199 0.948397 -0.164302
0.138514 0.40518 0.0506999 -0.230163 0.939312 -0.254399
0.0997583 0.401312 0.0824955 -0.249326 0.946745 -0.203742
0.310118 0.421528 -0.122754 -0.261792 0.947568 -0.183247
-0.166524 0.237889 0.164278 -0.252949 0.955274 0.153191
0.252856 0.426368 -0.0163261 -0.27548 0.949023 -0.153188
0.53034 -0.0935909 0.172693 0.965883 0.25723 -0.030051
-0.109577 -0.0376542 -0.291558 0.0150439 -0.17463 -0.984519
0.374566 -0.0501152 0.245032 -0.253744 0.84283 -0.474607
0.286473 0.23557 0.258361 0.00857521 0.117829 0.992997
0.211063 -0.190975 -0.227129 0.245856 -0.781129 -0.573927
-0.0194034 -0.221941 0.211215 0.296562 -0.947138 0.122393
0.138618 -0.211114 -0.219578 0.198265 -0.781456 -0.591623
-0.13631 0.340037 0.205452 -0.180516 0.899234 0.398486
-0.457835 -0.057113 0.0354311 -0.105691 0.488651 0.866054
0.021755 0.213777 0.259213 -0.0961748 0.20042 0.974978
-0.228952 0.181877 -0.19793 -0.960577 -0.27636 0.0302638
0.26559 -0.190127 -0.209638 0.240955 -0.780922 -0.576282
0.22418 -0.0969674 0.28211 0.191502 -0.558634 0.807004
-0.205658 0.0939927 -0.264587 -0.957142 -0.277295 0.0835839
-0.0936321 0.327531 -0.0281392 -0.23576 0.94964 -0.206399
0.463796 0.228509 0.243539 0.979621 0.199561 -0.022747
0.389569 0.039121 0.297318 -0.0163169 0.16718 0.985791
0.416417 -0.0359601 0.304623 0.0616795 -0.212624 0.975185
-0.186104 0.00298908 -0.154326 -0.0806779 0.0532923 -0.995315
0.235381 0.0213638 0.297714 -0.0163265 0.184343 0.982726
-0.426539 -0.102113 0.00849638 0.223305 -0.957817 0.180889
0.48428 0.123361 -0.0341219 0.980034 0.196226 0.0320757
-0.476837 -0.0513288 0.024903 -0.180225 0.823114 0.538519
0.532565 -0.113649 0.171721 0.965166 0.258836 -0.0381937
0.223281 0.00429373 0.29962 -0.005978 0.141585 0.989908
0.460881 0.208913 0.00726585 0.968742 0.240793 -0.0596401
-0.00410846 -0.276451 -0.108644 0.23517 -0.951662 0.19757
-0.363349 -0.0712685 0.0283529 0.113619 -0.508323 0.853638
-0.0679705 0.308935 -0.173109 -0.265278 0.948189 -0.174831
0.394462 0.0953417 0.284314 0.0154735 0.155962 0.987642
0.34491 0.0548348 0.291473 0.0153962 0.124667 0.992079
0.243361 0.319164 -0.275442 0.217215 -0.88036 0.421643
0.342285 0.0422901 -0.296944 0.0899044 -0.206484 -0.974311
0.426809 -0.170251 0.203689 -0.948341 -0.309554 0.0694671
0.510628 0.0440041 0.0878504 0.966723 0.255821 -0.00160485
0.495041 0.0776123 -0.0782636 0.966359 0.254541 -0.0368788
0.141668 0.185401 -0.325986 0.0353119 -0.101278 -0.994231
0.237151 0.37556 0.13059 0.0240934 -0.100615 0.994634
0.541003 -0.174135 -0.102185 0.958106 0.283446 -0.041137
0.353878 -0.0858406 -0.276096 -0.0299473 -0.0820448 -0.996179
0.362109 0.315599 -0.292471 -0.113282 0.506934 0.854509
-0.139555 -0.142201 -0.228113 -0.975938 -0.218005 -0.00440786
0.224555 0.0584668 -0.302577 0.00950634 -0.168641 -0.985632
0.441707 -0.150189 0.154086 0.0337193 -0.243294 -0.969366
0.12721 0.275806 0.248431 0.0440996 0.0827646 0.995593
-0.132711 -0.11799 0.223471 -0.961461 -0.273316 0.0298489
0.0168145 -0.139559 0.308184 0.968839 0.247426 -0.0114746
0.0155528 0.273857 -0.299266 -0.20414 0.555495 -0.806072
-0.101602 0.340079 0.0550727 -0.202096 0.948258 -0.244878
-0.126771 0.303008 -0.116633 -0.299577 0.940504 -0.160333
-0.23425 0.249284 0.195645 -0.0308872 -0.151249 -0.988013
-0.245669 0.269377 0.0320803 -0.963652 -0.264789 0.0355265
0.535313 -0.0625285 -0.0278178 0.965531 0.258791 -0.0278864
0.18636 0.363656 -0.253709 -0.266493 0.952132 -0.149754
-0.0286526 -0.175527 -0.265779 0.0437201 -0.211537 -0.976392
-0.0374069 0.347634 0.00169035 -0.276045 0.955249 -0.106292
0.188043 0.183482 0.266236 -0.0237461 0.180817 0.98323
0.068585 -0.23942 0.000663314 0.220755 -0.952359 0.210426
-0.226785 0.165382 -0.292796 -0.960391 -0.276821 0.0319266
0.410543 0.380269 -0.129973 0.966438 0.256592 -0.0125476
-0.200936 0.183813 -0.331133 -0.0702629 0.136645 -0.988125
0.452057 -0.171014 0.138592 -0.953675 -0.295135 0.0583008
0.231266 0.308421 0.246777 0.00588299 0.155791 0.987772
0.536445 -0.112844 -0.0332763 0.252622 -0.947716 0.194976
0.177111 0.429929 0.113248 -0.213969 0.958059 -0.190629
-0.0526359 0.191535 -0.265755 -0.246184 0.899739 0.360365
0.279047 0.424332 0.219784 -0.134583 0.456513 0.879479
0.20056 -0.208029 -0.038654 0.165548 -0.958358 0.232687
0.263744 0.427678 0.199354 -0.965091 -0.261139 0.0201431
0.547069 -0.194776 -0.122236 0.967672 0.251124 -0.0233919
0.112301 0.324199 -0.286787 -0.132206 0.51758 -0.845359
0.192956 0.337139 0.238553 -0.0219857 0.181171 0.983206
0.538313 -0.0965159 -0.228834 0.968746 0.24699 -0.0229606
0.226889 0.300879 -0.288333 0.124183 -0.423929 0.897142
0.514305 0.0278778 0.240479 0.188271 -0.752217 -0.631445
-0.296397 -0.0646568 0.0166449 0.223068 -0.864382 0.45065
0.355616 0.429602 -0.147618 -0.261759 0.948345 -0.179233
0.389351 0.146158 -0.315537 0.0333127 -0.205718 -0.978044
0.183278 0.435769 0.141532 -0.215111 0.748031 0.627835
0.215497 -0.174556 -0.245622 0.197481 -0.800428 -0.565964
0.0552897 -0.19628 0.238522 0.265428 -0.948705 0.171778
0.518458 -0.0500983 -0.180076 0.138485 -0.599659 -0.788182
-0.116654 0.197105 -0.331337 -0.0271626 -0.0235594 -0.999353
0.217452 0.182903 0.266107 0.0096553 0.149913 0.988652
0.274515 0.361943 0.236801 -0.0206136 0.18176 0.983127
0.104906 -0.199451 0.14227 0.318841 -0.942075 0.104096
-0.151622 -0.00855424 0.297178 0.0471754 0.162975 0.985502
0.425962 -0.0271353 0.305279 0.023385 -0.121177 0.992355
0.400781 -0.0321209 0.307521 0.064841 -0.127974 0.989656
0.463978 -0.233976 -0.0175774 0.292821 -0.948229 0.122955
0.508545 0.0493605 0.12408 0.958343 0.280915 -0.0516247
0.257595 -0.214222 -0.175329 0.182552 -0.820236 -0.542114
0.150161 0.354098 -0.250568 -0.295957 0.940085 -0.169261
0.504748 -0.196461 0.126381 0.278215 -0.947522 0.157477
0.140308 0.351456 0.235707 -0.0262879 0.177509 0.983768
0.0326396 -0.111008 -0.275932 -0.00520715 -0.159676 -0.987156
-0.413569 -0.0557323 0.0370896 -0.0824947 0.265947 0.960451
0.191821 -0.123991 -0.270548 0.0181612 -0.181048 -0.983307
-0.13128 -0.160683 -0.0597812 -0.95888 -0.2818 0.0337357
0.527249 -0.0849145 -0.271272 0.038484 -0.250364 -0.967387
0.0483356 0.392733 0.0976108 -0.203171 0.96042 -0.190566
0.277224 0.415925 -0.113497 -0.232041 0.955214 -0.18364
0.108041 -0.0983925 0.261847 -0.0225329 -0.128077 -0.991508
0.494156 -0.236673 -0.0792888 0.233959 -0.945707 0.225615
-0.0124755 0.344291 0.201171 -0.208712 0.775134 0.596328
-0.0671117 -0.186159 0.311626 0.078365 -0.39566 0.915048
0.0931539 -0.105793 0.304622 0.164576 -0.542778 0.823594
-0.0245668 0.35528 0.0105355 -0.270237 0.951725 -0.145574
0.445172 -0.212162 -0.144401 0.0109099 -0.170673 -0.985267
-0.129539 -0.150011 0.068338 -0.978573 -0.205464 0.0133927
0.407706 0.0247018 0.301154 -0.0102174 0.151836 0.988353
-0.222628 0.158471 -0.274721 -0.0563853 0.429721 0.9012
-0.12063 0.281242 -0.242176 -0.283871 0.944696 -0.164217
0.0482267 0.326928 -0.244013 -0.260189 0.948771 -0.179262
0.17195 0.413697 0.0420707 -0.258261 0.948278 -0.184582
0.242182 -0.14039 -0.165038 -0.00228436 -0.109773 -0.993954
0.485055 0.0917079 -0.230399 0.95285 0.302258 -0.0267818
0.312766 -0.127946 0.219635 0.327666 -0.938914 0.105242
-0.150007 -0.10116 -0.137737 -0.937001 -0.343116 0.0655824
-0.15013 -0.0636132 0.191569 -0.968384 -0.248982 0.0155107
-0.0333208 -0.212793 0.271511 0.247684 -0.886912 0.389923
0.457 -0.17901 0.231846 -0.0572079 0.224239 0.972853
0.423368 0.331799 -0.107134 0.963093 0.267535 -0.0296268
-0.223605 0.218064 0.244066 -0.959961 -0.276432 0.0453894
0.198927 -0.192885 0.0488635 0.266196 -0.949899 0.163805
-0.11988 -0.209272 -0.107487 -0.960121 -0.277778 0.0317305
-0.322032 -0.00163861 -0.000903093 -0.258867 0.959356 -0.112359
0.483878 0.132107 0.0345021 0.963195 0.267651 -0.0248467
0.304561 -0.188605 -0.091183 0.265681 -0.948848 0.170588
-0.142441 -0.0955304 0.139573 -0.971911 -0.234534 -0.0195719
0.133535 -0.176517 0.230685 0.234112 -0.946361 0.222695
0.433493 -0.214724 0.0747168 -0.980097 -0.194209 -0.041131
0.211058 -0.0698518 -0.27974 -0.0161088 -0.17235 -0.984904
0.305236 0.46551 0.114196 -0.348122 0.925822 -0.147191
0.441115 -0.0696894 0.280087 0.181932 -0.728345 0.660617
-0.152441 -0.0423884 0.252373 -0.966048 -0.257072 0.0258122
0.129684 0.346878 0.234464 -0.0487563 0.128169 0.990553
0.0274911 -0.233755 -0.252027 0.0515156 -0.33725 -0.940005
0.192294 0.314313 -0.309462 -0.148812 0.501703 -0.852144
0.00610421 0.348235 -0.0760123 -0.279153 0.944989 -0.170494
0.023163 -0.173899 0.301222 0.175365 -0.59859 0.781624
0.459331 0.177167 -0.302327 0.962725 0.268029 -0.0363528
-0.054189 -0.279471 -0.0422629 0.25106 -0.949244 0.189485
0.461137 0.198704 -0.105072 0.961191 0.271615 -0.0483419
0.430416 0.291302 -0.256529 0.9387 0.344597 -0.00979121
0.0912474 0.264023 -0.24103 0.115 -0.433272 -0.893896
-0.158432 -0.0338374 0.167665 -0.981612 -0.189867 0.0196875
0.410776 0.116461 -0.309237 0.0380091 -0.226653 -0.973234
0.504458 0.0824382 0.253086 0.964499 0.262388 -0.0298968
-0.198478 0.252014 -0.275212 -0.23356 0.933101 -0.273445
0.100916 -0.238259 -0.04563 0.254666 -0.944183 0.20896
0.2761 -0.0429662 0.213445 0.242645 -0.582891 0.775475
0.472162 -0.0846978 0.216609 0.210312 -0.956969 0.199948
-0.03766 -0.265779 0.0104325 0.302056 -0.941619 0.148714
-0.0860028 -0.208225 -0.185568 0.275252 -0.928212 0.250317
0.184496 -0.147614 -0.16526 0.0611196 -0.397281 -0.915659
0.357421 0.182722 -0.322776 0.0393115 -0.197683 -0.979478
-0.154036 0.198097 -0.232379 0.0605377 -0.346296 -0.93617
0.336558 -0.0439663 -0.281026 0.00444681 -0.161458 -0.98687
-0.12956 -0.172051 -0.0930282 -0.963081 -0.267136 0.0333695
-0.185533 0.0239906 -0.186116 -0.964404 -0.255874 -0.0667392
0.464322 -0.0670629 0.275133 0.296794 -0.725 0.621521
0.101061 0.127538 0.276197 0.0108345 0.152463 0.98825
0.382753 0.468034 0.0202667 -0.323309 0.940068 -0.108365
0.441376 0.0153937 0.23039 0.293985 -0.947692 -0.124312
0.456866 -0.19868 0.180942 0.296777 -0.940432 0.165866
0.0030708 0.325266 0.14326 0.142936 -0.630788 0.762676
0.290988 0.252048 0.256581 -0.0637182 0.260067 0.963486
0.346488 0.130672 -0.314982 -0.00599923 -0.0991765 -0.995052
0.403568 0.421544 0.0064667 0.962736 0.265051 -0.0537394
-0.223547 0.200026 0.0690421 -0.974527 -0.224155 -0.00721875
-0.0521979 -0.0737128 -0.282932 0.0498702 -0.178822 -0.982617
0.471772 -0.0155617 0.303919 0.0788728 -0.176841 0.981074
0.0678387 0.352843 -0.119671 -0.284323 0.9467 -0.151395
0.0158587 0.36144 -4.43409e-05 -0.266333 0.948905 -0.169249
0.335076 0.357729 0.237418 0.0457939 0.155504 0.986773
-0.158072 -0.134473 -0.0764144 0.218655 -0.86393 -0.453669
0.317688 -0.0999224 -0.180611 0.17514 -0.892081 -0.416555
0.17349 0.370033 -0.202463 -0.228633 0.946385 -0.228215
0.429405 -0.170169 -0.150755 0.0178694 -0.167645 -0.985685
-0.167255 -0.04522 -0.212918 -0.967784 -0.250916 0.0208426
-0.141369 -0.0903499 0.246902 -0.964257 -0.263145 0.0310431
-0.391995 -0.0258458 -0.0100256 -0.271257 0.883995 -0.380752
0.187856 0.365813 -0.234707 -0.282643 0.944943 -0.16491
0.00188947 -0.194997 -0.260617 0.0540683 -0.202458 -0.977797
0.206775 0.372742 -0.230772 -0.2597 0.949128 -0.178079
0.286143 0.128461 -0.313244 0.0620898 -0.221564 -0.973167
0.498872 -0.178614 0.222928 0.321557 -0.934074 0.155262
-0.0450258 -0.261977 0.0319732 0.254076 -0.945972 0.201448
0.067274 0.125482 0.275463 0.00119426 0.262252 0.964999
0.21902 -0.0941215 0.24664 -0.213957 0.86237 -0.458846
0.479981 -0.122658 0.222946 -0.0197475 0.181858 0.983126
0.00101225 -0.175749 -0.263454 0.0229612 -0.238459 -0.970881
-0.164083 0.294019 -0.104445 -0.305339 0.937944 -0.164408
0.0785474 0.148794 0.270316 -0.03151 0.201245 0.979034
-0.0862784 0.30233 -0.183976 -0.268018 0.947831 -0.172578
0.0869133 -0.161583 -0.266015 -0.00965653 -0.136226 -0.990631
-0.22915 0.169865 -0.285326 -0.96897 -0.245365 0.0298747
0.393893 0.457819 -0.0403973 0.967291 0.252678 0.0223856
0.297794 0.459814 0.186926 -0.260066 0.848761 0.460403
0.0138955 -0.114677 0.317958 -0.0640034 0.217299 0.974004
-0.0822819 -0.157984 0.320446 0.0720105 -0.0846586 0.993805
0.504628 0.0192369 -0.196709 0.958972 0.280401 -0.0417966
0.475056 0.173541 0.14395 0.966776 0.255418 -0.0102972
-0.107147 -0.140289 0.229383 0.263664 -0.779769 0.567839
0.205141 0.0891806 -0.308571 0.0137016 -0.126618 -0.991857
0.376298 -0.0892415 -0.175635 0.104452 -0.696612 -0.709804
0.261116 -0.0357248 0.240614 0.211605 -0.920634 -0.32811
-0.0862468 -0.0205884 -0.293871 -0.0190752 -0.130162 -0.991309
0.26571 -0.161921 0.101264 0.2973 -0.941896 0.156345
0.43781 0.271343 -0.22095 0.963811 0.264641 -0.032158
0.439029 0.305132 0.140401 0.971438 0.236148 0.023272
-0.210187 0.050457 -0.102572 -0.975737 -0.218902 -0.00436179
0.466456 -0.00180727 0.30449 0.019956 0.0335244 0.999239
0.492685 0.0941211 -0.00261754 0.968475 0.247714 -0.0263381
0.194149 0.295149 -0.245826 0.0872958 -0.564973 -0.820478
-0.128169 -0.189847 -0.23631 -0.977399 -0.211377 -0.00333667
0.162564 -0.170044 0.221804 0.206646 -0.937262 0.28078
0.505406 -0.214335 0.0249517 0.30096 -0.944112 0.134448
0.314514 0.0515922 0.294178 0.0325597 0.138699 0.989799
-0.198875 0.106603 0.131654 -0.967804 -0.251177 0.0162832
0.206991 0.375141 -0.233474 -0.240176 0.946957 -0.213512
0.460655 0.182607 -0.296211 0.977078 0.212681 0.00923062
0.401322 -0.145256 0.000124837 0.230338 -0.942892 0.240624
0.437064 0.315649 0.1192 0.981868 0.185658 0.0382881
0.326235 0.459418 0.0523105 -0.232153 0.946231 -0.225282
-0.219851 0.296085 0.230698 -0.137633 0.572515 0.80826
0.344008 0.223274 -0.331524 0.0438617 -0.220561 -0.974386
0.508007 0.0666971 0.238211 0.967168 0.252325 -0.0302977
-0.146986 -0.0684007 0.225449 -0.967522 -0.252116 0.0184125
-0.112348 -0.190285 0.27721 -0.967453 -0.252576 -0.0155246
0.525055 -0.00216595 0.299257 0.121321 -0.240841 0.962952
-0.0164917 0.0680728 0.284283 -0.0234671 0.182506 0.982925
0.0915304 0.0135088 -0.296433 -0.00395493 -0.136056 -0.990693
0.0928864 0.141521 0.27144 -0.0152532 0.168344 0.98561
-0.00910928 0.365622 0.0495042 -0.279065 0.94985 -0.141096
0.156552 -0.185867 0.139914 0.307 -0.945034 0.112527
0.0988424 0.397313 0.0603054 -0.332947 0.935961 -0.114555
0.162103 0.106323 -0.313149 0.011759 -0.166944 -0.985896
0.2292 -0.171327 0.113398 0.21986 -0.951655 0.214511
0.335256 0.174857 0.272131 0.0695862 0.156595 0.985208
0.112519 -0.255182 -0.174245 0.172286 -0.825164 -0.537979
0.399938 0.329074 -0.250477 -0.156129 0.405423 -0.900698
0.247564 -0.211578 -0.129702 0.239378 -0.935613 0.259474
0.120829 -0.246363 -0.183717 0.20259 -0.748356 -0.631602
-0.240403 0.249267 0.0295572 -0.960706 -0.276553 0.0237215
0.053245 0.0668094 -0.305727 0.0173007 -0.176018 -0.984235
-0.0903107 0.275309 -0.276209 -0.118637 0.519392 -0.846261
-0.0308019 -0.267662 -0.0200403 0.272479 -0.950522 0.14921
0.293869 -0.0887202 -0.275981 0.00437933 -0.158704 -0.987316
0.452819 0.247775 0.0693491 0.95235 0.303797 -0.0271506
0.250612 0.452685 0.127979 -0.212164 0.946735 -0.242238
0.54608 -0.161072 0.185969 0.99873 -0.0280827 0.0418385
0.00511339 0.107865 0.277647 -0.0204485 0.0612179 0.997915
0.431746 0.288993 -0.182311 0.96456 0.262195 -0.0296282
0.0911488 0.0144264 -0.296287 0.017582 -0.176613 -0.984123
0.136701 0.106987 0.2795 -0.0258374 0.191915 0.981071
-0.102156 0.305339 0.164167 0.245306 -0.960418 0.131996
-0.168785 -0.0861565 0.010486 -0.964053 -0.263424 0.0347824
0.0389404 0.350556 -0.0929018 -0.267131 0.948576 -0.169836
0.533902 -0.204341 0.0234215 0.240321 -0.951395 0.192597
-0.00628523 0.3258 -0.173908 -0.204783 0.961338 -0.184099
0.512697 -0.190897 0.133693 0.266917 -0.94805 0.17308
0.402364 0.384077 -0.3284 0.952402 0.297007 -0.0686773
-0.0300762 -0.256002 0.0525745 0.288454 -0.951679 0.105366
0.149879 0.416535 0.0947144 -0.260767 0.948837 -0.17807
0.411749 0.318743 -0.261051 -0.1785 0.861597 -0.475172
0.14337 0.0545399 0.289999 -0.021246 0.13867 0.990111
-0.233017 -0.0486631 0.00321245 0.268006 -0.952519 0.144498
0.133808 0.168295 -0.324958 -0.0180402 -0.129986 -0.991352
0.332923 -0.134541 0.157148 0.270005 -0.94766 0.170406
-0.242037 0.216493 -0.311325 -0.206566 0.647201 -0.7338
0.458823 0.208889 -0.104689 0.961247 0.27325 -0.0365914
-0.0631631 0.0263442 0.291479 0.019955 0.102345 0.994549
-0.18021 -0.0548779 -0.00372026 -0.971829 -0.234039 0.0278392
0.446149 -0.222256 -0.0181745 -0.276085 0.947141 -0.163401
0.0718762 -0.22757 0.0379936 0.1885 -0.956927 0.220815
0.0804798 -0.253371 -0.185161 0.196566 -0.783982 -0.588841
0.132963 0.350021 -0.248587 -0.271166 0.947925 -0.167055
0.0732162 -0.238623 -0.0093206 0.225868 -0.943062 0.244166
-0.0857226 0.271061 -0.282173 -0.191166 0.588245 -0.785763
-0.195886 -0.0266641 -0.0303276 0.118326 -0.586177 -0.801496
0.357267 0.466077 0.201609 -0.173427 0.681009 0.711442
0.366023 0.405342 -0.292686 -0.244622 0.923417 -0.295739
-0.0296613 0.323607 -0.148544 -0.23777 0.949517 -0.204655
-0.49056 -0.0982126 -0.0212193 -0.969747 -0.243667 0.0147079
0.179353 -0.121803 0.273464 0.271904 -0.538465 0.797574
-0.180045 0.283511 0.242861 -0.0104803 0.27157 0.962362
-0.0670831 0.269036 -0.286867 -0.118065 0.532789 -0.837972
0.3934 0.410615 -0.302761 -0.211633 0.872572 -0.44026
0.316984 -0.0487704 0.254688 -0.064086 0.109855 -0.99188
0.482267 -0.196261 -0.148231 -0.0153016 -0.140702 -0.989934
0.516302 0.0111759 0.0626448 0.939386 0.33528 -0.0716999
0.287644 0.085216 -0.307501 -0.000647028 -0.167613 -0.985853
0.524918 -0.0126765 0.0829099 0.921415 0.386837 -0.0367605
0.417006 0.398651 0.221688 0.969868 0.243461 -0.00904908
-0.174117 0.197795 -0.233873 0.138097 -0.51923 -0.843404
-0.230628 0.131521 0.0356244 -0.970351 -0.240575 0.0232864
0.287705 -0.182065 -0.0323808 0.215037 -0.947769 0.23557
0.280726 0.386958 -0.26586 -0.285808 0.948324 -0.137825
-0.112037 -0.0104788 0.297122 -0.0372518 0.219031 0.975006
-0.00634266 0.35123 -0.0286889 -0.315886 0.935152 -0.160333
-0.0676516 0.267368 -0.287272 -0.213163 0.553496 -0.805111
0.319 -0.0703689 0.280399 0.193791 -0.562975 0.803433
0.168928 -0.0907301 0.261876 -0.0837249 0.193834 -0.977455
0.0625792 -0.245953 -0.0382423 0.18683 -0.949434 0.252327
-0.0651584 -0.130185 0.261927 0.16339 -0.679155 -0.715578
-0.103378 -0.258693 0.0283817 -0.956893 -0.288058 0.0371255
-0.0861445 -0.238166 0.210649 0.298906 -0.940541 0.161364
0.349087 0.429399 0.158919 0.223961 -0.947087 -0.229932
0.337121 -0.0148724 0.226171 0.264294 -0.944764 0.193827
-0.135311 0.308293 -0.0701862 -0.262762 0.948562 -0.176596
0.157009 0.0517148 -0.303505 0.00601509 -0.174442 -0.984649
0.345457 0.476649 0.12032 -0.235731 0.935466 -0.263315
0.18663 0.133693 0.2751 -0.00493414 0.170186 0.9854
0.22256 0.344884 0.151513 -0.293071 0.939747 0.176026
