ply
format ascii 1.0
comment Created by Open3D
element vertex 500
property double x
property double y
property double z
property double nx
property double ny
property double nz
end_header
0.439215 0.286059 -0.0386492 0.938597 0.295668 -0.17781
0.0208107 0.377791 0.165264 -0.261139 0.70944 0.6546
0.0111746 0.320125 -0.238938 -0.334593 0.934553 -0.121075
0.390298 -0.0492302 0.237972 -0.253491 0.886995 -0.385982
-0.120262 0.244011 -0.317097 -0.225134 0.648876 -0.726825
-0.108133 -0.131167 -0.276724 -0.0363112 -0.156512 -0.987008
0.406474 -0.146249 -0.00183821 0.329463 -0.940655 0.0813837
0.435629 -0.21361 0.0752889 -0.966469 -0.255149 0.0289348
0.491116 0.0281358 0.227958 0.18756 -0.980932 0.0509224
-0.0696533 0.201358 -0.324788 -0.169561 0.544342 -0.821548
0.440555 0.306032 0.122463 0.960586 0.276365 -0.0299337
-0.0211467 0.354166 0.0279333 -0.333452 0.936804 -0.105873
0.265795 0.373201 -0.300703 -0.261164 0.86416 -0.43014
0.165677 -0.0434888 0.306828 -0.039121 0.188118 0.981367
-0.115398 -0.184503 0.294615 -0.966725 -0.254166 0.0290335
0.333174 -0.0362504 0.206866 0.0272793 -0.118961 0.992524
-0.237138 0.247454 0.102857 -0.952788 -0.297039 0.0629531
0.530335 -0.0852173 0.121518 0.288731 -0.948556 0.129906
-0.129215 -0.171461 0.0139544 -0.989108 -0.133841 -0.0612551
0.529351 -0.124007 -0.0652245 0.969691 0.243827 -0.0157605
-0.0864735 -0.206237 -0.176019 0.236639 -0.971433 0.0178619
-0.0886298 -0.308357 -0.194829 0.247526 -0.951802 -0.181117
0.331723 0.301386 -0.343989 0.113271 -0.202323 -0.972746
0.53815 -0.0455275 0.160648 0.91627 0.394245 -0.0708471
0.0586208 0.360738 -0.0625603 -0.194826 0.948407 -0.250132
-0.201523 0.12651 0.266843 -0.941482 -0.297841 0.157806
-0.125188 0.268116 0.189538 -0.234745 0.444991 -0.864221
0.450214 0.22604 -0.159311 0.968258 0.248274 -0.0289315
-0.153971 -0.0525798 0.191794 -0.966605 -0.254622 0.0290298
-0.114699 -0.219936 -0.0466547 -0.949618 -0.304064 0.0759712
0.0869236 -0.205687 0.126524 0.29087 -0.950516 0.109146
-0.100629 0.342297 0.0605644 -0.275503 0.947046 -0.164929
0.148389 0.248284 -0.277791 -0.220994 0.702637 0.67636
0.37705 0.351719 -0.284277 0.108223 -0.72051 0.684948
0.372475 0.452127 -0.0516091 -0.337584 0.929322 -0.149659
0.406971 0.36952 -0.200771 0.913837 0.403077 -0.0493029
0.163788 -0.177237 0.163369 0.317051 -0.93708 0.14615
0.125125 0.203826 0.259877 0.0802204 0.147408 0.985817
-0.173725 -0.0641403 0.0482919 -0.954268 -0.288535 0.0782341
0.0247715 0.325689 0.138952 0.201588 -0.408948 0.890013
-0.187959 0.241165 0.183781 -0.239104 0.67704 -0.696021
0.299246 -0.167491 0.0420671 0.292752 -0.943254 0.156743
0.346521 -0.129198 0.168143 0.270489 -0.955105 0.12087
-0.0174307 -0.2014 -0.204084 0.0938915 -0.443615 0.891286
0.051105 0.374414 0.00419611 -0.189827 0.956208 -0.222781
0.495984 -0.19748 0.123849 0.231605 -0.937076 0.261242
-0.176487 0.280758 0.156819 0.2693 -0.807627 0.52461
-0.190032 0.277974 -0.142661 -0.299143 0.953044 -0.0471175
0.231748 -0.0499281 0.309938 0.0287638 0.0808148 0.996314
-0.451333 -0.0597326 -0.0239637 -0.139852 0.392472 -0.909069
-0.101935 -0.179079 0.22682 -0.18555 0.732428 0.655073
0.408607 0.408137 0.0589702 0.960518 0.274882 -0.0429449
0.166166 0.430079 0.147873 -0.191387 0.858084 0.476511
0.136586 -0.0323053 -0.286416 0.00927488 -0.142429 -0.989762
0.502891 -0.057829 -0.214104 0.262262 -0.673465 0.691132
0.538094 -0.0828997 -0.0916003 0.943092 0.330958 -0.0323088
0.272472 0.290557 -0.29147 -0.0403737 0.378546 0.924702
0.516285 -0.00199586 -0.169485 0.963664 0.265326 -0.0308887
0.269929 -0.0927881 0.273368 0.145653 -0.53603 0.831539
0.296785 0.378277 0.231654 0.0153192 0.15177 0.988297
0.292938 0.327244 -0.250353 0.19112 -0.62913 -0.753438
-0.161208 -0.0262944 -0.294574 -0.0882843 -0.0843494 -0.992518
0.0352351 0.149701 0.271176 0.00138425 0.121722 0.992563
0.278038 -0.195218 -0.0829292 0.359815 -0.927283 0.103341
0.373927 0.418266 -0.220613 -0.24782 0.94302 -0.222034
0.535148 -0.14645 0.00044958 0.96163 0.271027 -0.0425738
0.435265 -0.00470472 0.303477 -0.0392212 0.131697 0.990514
-0.20507 0.0607228 0.0457685 -0.963273 -0.265218 0.0420003
0.342871 0.0639229 -0.303128 -0.0291671 -0.122346 -0.992059
-0.196771 0.099968 0.198087 -0.952916 -0.290284 0.0876679
0.0867827 -0.108668 -0.274416 0.0154562 -0.176579 -0.984165
0.495593 0.070848 -0.141161 0.977022 0.212322 -0.0186535
-0.223634 0.107712 -0.0126173 -0.989741 -0.140723 0.0246891
0.187399 -0.193311 0.0399575 0.285335 -0.948437 0.138028
0.456962 0.234233 -0.00599176 0.97583 0.218527 0.00107178
0.0140892 -0.254218 -0.00589833 0.25442 -0.949258 0.184879
-0.127532 0.294084 -0.157888 -0.129904 0.932604 -0.336711
0.46893 0.156659 -0.196226 0.934813 0.349862 -0.0609967
0.340865 -0.192819 -0.179605 0.195068 -0.820062 -0.538002
0.492754 0.0571953 -0.244849 0.975929 0.217583 -0.014821
-0.194725 0.00902994 -0.0894212 -0.915772 -0.401571 0.0101037
-0.0288541 0.296337 0.140051 -0.0567034 0.37462 0.925443
0.405738 2.06336e-05 0.224649 0.343632 -0.907644 0.241039
-0.229848 0.292529 -0.0219423 -0.272906 0.94689 -0.170062
-0.051029 0.332181 -0.0725538 -0.271038 0.949034 -0.16085
0.0783319 -0.228606 0.0362627 0.332658 -0.936166 0.113721
0.0460965 -0.196045 -0.201459 -0.116344 0.00323813 0.993204
0.471075 0.182898 0.120341 0.976002 0.217441 -0.0117842
-0.0499426 0.304979 -0.201322 -0.253341 0.950091 -0.18206
0.408647 0.404344 -0.016847 0.945289 0.310726 -0.0993876
0.355546 -0.112574 0.242139 0.445287 -0.895222 0.0172241
0.0098443 -0.2376 0.0890998 0.248078 -0.948743 0.195817
0.495144 0.118527 0.243616 0.937819 0.345533 -0.0332026
-0.102807 -0.256329 0.0745166 -0.959507 -0.27589 0.0568519
-0.0841567 0.1248 -0.322169 0.0636972 -0.236582 -0.969521
-0.192543 -0.00170659 0.0743593 -0.969679 -0.243856 0.0160152
-0.0228623 0.333159 0.216838 -0.212598 0.85225 0.477987
-0.06906 -0.223619 0.274335 0.272509 -0.898052 0.345314
0.454297 0.24657 0.262787 0.00953523 0.141407 0.989906
-0.114073 0.245343 0.249056 0.25901 0.072367 0.96316
-0.101494 -0.275332 -0.138936 -0.975472 -0.216015 -0.0423346
0.116518 0.367498 -0.109193 -0.246968 0.950335 -0.189394
0.459218 0.224564 0.177365 0.969072 0.245817 0.0217642
-0.252281 0.272334 -0.0904851 -0.96349 -0.257826 -0.0721938
0.476164 0.130215 -0.240137 0.973177 0.211078 0.0914985
-0.125014 -0.160196 0.117678 -0.970016 -0.242798 0.0108936
0.296451 -0.148837 -0.178154 -0.0292698 0.69837 -0.715138
0.349613 0.376336 0.154021 -0.373498 0.92552 0.0625452
0.499983 0.0677585 0.015191 0.892135 0.399838 -0.210297
0.186312 0.10631 -0.311693 0.069831 -0.24317 -0.967467
0.0844008 0.121345 -0.317523 0.0193452 -0.17827 -0.983791
0.0916404 0.23365 -0.256265 -0.16705 0.913581 -0.37076
0.306135 0.11875 -0.31203 0.089847 -0.277424 -0.956537
0.4869 0.125144 0.140099 0.965796 0.257715 -0.0286607
0.520395 -0.0325646 -0.116187 0.962462 0.269119 -0.0352353
-0.208982 0.0530995 -0.0177305 -0.938139 -0.30081 0.171492
-0.203731 0.189634 0.258056 -0.0204204 0.181074 0.983257
-0.0487488 -0.0880822 -0.283345 0.0543765 -0.219346 -0.974131
-0.0241057 -0.296502 -0.18804 0.188381 -0.97708 0.0991349
0.515568 -0.203487 0.0602676 0.222762 -0.953244 0.204215
0.323457 0.453928 0.0386633 -0.355047 0.92017 -0.165012
0.0821953 0.00147437 0.30178 -0.000320623 0.153191 0.988196
0.0182964 -0.164731 -0.268679 0.029854 -0.217068 -0.9757
-0.11974 -0.116815 0.31211 -0.0104225 0.172028 0.985037
-0.427959 -0.0873657 0.0320216 0.19773 -0.530774 0.824125
-0.203096 0.256287 -0.253669 -0.201902 0.959645 -0.195747
-0.0868779 -0.048217 -0.285287 -0.127822 -0.035378 -0.991166
0.0197786 -0.224663 0.150088 0.234162 -0.94715 0.219261
-0.00165177 0.108409 0.276965 0.00723852 0.140033 0.99012
-0.0582512 0.245636 0.249142 -0.0825278 0.211778 0.973827
0.290942 0.431621 -0.0640503 -0.320843 0.94205 -0.0979842
0.318441 0.168285 -0.320658 0.00986048 -0.264608 -0.964306
0.33823 0.0552867 0.29264 -0.0185903 0.177404 0.983962
-0.0328358 -0.00598338 -0.295493 -0.050197 -0.152028 -0.987101
0.250315 -0.143023 0.236721 0.243306 -0.938125 0.246424
-0.0782873 0.156933 0.2667 -0.0286395 0.179846 0.983278
0.473521 0.126447 -0.303583 0.943312 0.300527 -0.140878
0.369317 -0.0125162 -0.288214 0.0285774 -0.190287 -0.981313
-0.119843 0.0488383 -0.307223 0.0523194 -0.228841 -0.972057
0.532685 -0.0628689 0.240507 0.332923 -0.942283 0.0355605
0.0467607 0.0177715 -0.298567 -0.00270447 -0.176491 -0.984298
-0.0049925 0.35116 -0.0283062 -0.277616 0.94528 -0.171393
-0.327187 -0.0301259 -0.0337739 -0.0832424 0.203992 -0.975427
0.0165718 -0.209358 -0.154527 -0.0527567 0.0698084 -0.996164
0.0441739 0.305672 -0.283956 -0.165196 0.540393 -0.825036
0.429155 0.294403 -0.217039 0.98694 0.0802359 -0.139684
-0.162459 -0.00835103 0.231458 -0.962677 -0.268558 0.033606
0.0795366 0.250258 -0.32964 -0.208321 0.564733 -0.798548
0.391821 0.451551 0.000327372 0.980088 0.198432 0.00717692
0.253163 -0.174499 -0.229403 0.191594 -0.799576 -0.569183
-0.388745 -0.0453043 0.0358763 -0.0271939 0.187838 0.981823
0.254068 0.430638 0.0147295 -0.288196 0.942643 -0.168428
-0.174746 -0.0164391 -0.189241 -0.9746 -0.222787 0.0228024
-0.0805668 0.289978 -0.264569 -0.23214 0.95108 -0.203857
-0.488914 -0.111292 -0.0170298 0.107516 -0.510826 -0.852934
0.360422 0.266589 0.256522 -0.0801188 0.289736 0.953747
-0.246685 -0.00208904 -0.0354259 -0.127472 0.383248 -0.914807
0.501808 -0.0273484 -0.284664 0.0899445 -0.181108 -0.979342
-0.1072 -0.235621 0.141206 -0.937075 -0.335011 0.0982808
0.460242 0.193266 -0.105014 0.959523 0.280092 -0.0293859
0.0923159 -0.19481 -0.262999 0.0305891 -0.120675 -0.992221
0.238464 0.373376 0.233145 -0.0151835 0.175347 0.98439
0.29284 0.130448 0.278141 -0.0792824 0.215482 0.973284
-0.167706 0.00553342 0.172924 -0.929842 -0.3607 0.0727311
0.263106 -0.132095 -0.266931 0.019718 -0.213903 -0.976656
0.330252 0.468779 0.183947 -0.265885 0.797044 0.542242
-0.208177 0.159815 0.167684 -0.978792 -0.20444 0.0130196
0.344244 -0.0236461 0.307207 -0.0092981 0.21706 0.976114
0.482116 -0.177133 0.234191 -0.0101843 0.426219 0.904563
0.395514 -0.0456418 0.30334 -0.968894 -0.24695 0.016126
0.466677 -0.221179 -0.141351 0.0642708 -0.237964 -0.969145
-0.23505 0.209504 -0.112066 -0.962704 -0.267948 0.0374799
-0.208936 0.140074 0.0969226 -0.968049 -0.249985 0.0197034
-0.00486906 0.198533 0.26393 -0.0231621 0.185019 0.982462
0.0725619 -0.0534255 -0.287875 -0.0880022 -0.0645124 -0.994029
-0.206647 0.0929977 -0.316267 -0.109472 -0.123051 -0.986344
-0.193217 0.336643 0.166406 -0.240363 0.968122 -0.070467
0.451516 0.274054 0.183691 0.981716 0.183622 0.0501714
0.142814 0.00387014 0.294407 -0.0362669 0.184301 0.9822
-0.186558 0.269383 -0.198413 -0.308603 0.951026 0.0177331
0.236922 -0.12243 -0.197398 0.241345 -0.842373 0.481831
-0.0597143 0.360887 0.163862 -0.141083 0.828923 0.541278
0.447792 0.264029 0.0450068 0.949404 0.311923 -0.0365548
0.198859 -0.183117 -0.25097 0.262555 -0.765931 -0.586869
0.153206 0.391779 0.192964 -0.198214 0.753576 0.626765
0.357655 0.302679 -0.277444 -0.216418 0.976079 -0.0207958
0.411881 0.409687 0.126832 0.940758 0.335842 -0.0467447
0.128407 0.293823 -0.310192 -0.342552 0.650618 -0.677757
-0.131682 -0.133478 0.17923 -0.937073 -0.342314 0.0686673
-0.142181 -0.133797 -0.221003 -0.93094 -0.359243 0.0655386
-0.168982 0.310352 -0.0199973 -0.345171 0.934377 -0.0882962
0.417641 0.333862 -0.2497 -0.0801087 0.356872 -0.930712
0.0561256 0.38802 0.0595116 -0.346446 0.935133 -0.0741734
0.0902734 0.149674 0.269057 0.00017028 0.301313 0.953525
0.399485 0.200425 0.266686 -0.021153 0.117723 0.992821
0.150097 0.110599 0.280139 0.0333871 0.154649 0.987405
0.516793 0.0132104 0.000578233 0.99354 0.113438 0.00307535
-0.0592144 -0.127083 0.318288 -0.0997161 0.182288 0.978176
-0.0040162 -0.19805 0.278816 0.357941 -0.817985 0.450309
0.50762 0.0412271 0.0616528 0.986248 0.164328 -0.017636
0.381688 -0.0813811 -0.197907 0.210105 -0.974237 0.0819669
0.259242 0.056273 -0.299809 0.0465713 -0.212927 -0.975958
0.256853 0.444274 0.071534 -0.198096 0.957375 -0.210216
-0.140262 -0.148055 -0.162841 -0.975179 -0.219688 0.0276142
0.430241 -0.0687423 -0.275083 0.000630446 -0.157295 -0.987552
0.412066 0.133192 -0.313565 0.0331054 -0.182749 -0.982602
0.446957 -0.229679 0.01603 0.279865 -0.944897 0.16984
0.317838 -0.0602417 -0.276142 -0.0608323 -0.107468 -0.992346
0.0156646 -0.266157 -0.0777157 0.219628 -0.952062 0.212935
0.538127 -0.0617535 -0.00691793 0.958213 0.283168 -0.0405498
0.454778 -0.188395 -0.0765924 -0.959068 -0.282268 -0.0226462
0.500654 0.0254418 -0.291506 -0.0666133 -0.0928528 -0.993449
0.207713 0.226975 -0.332157 0.0292263 -0.254222 -0.966704
0.200238 0.338298 0.166211 -0.235028 0.898669 -0.370346
0.447937 -0.16547 -0.156861 -0.0264891 -0.131569 -0.990953
-0.0963917 -0.293927 -0.0668681 -0.971116 -0.23778 0.0198745
0.439667 -0.133581 0.109065 0.216595 -0.948822 0.229834
-0.327383 -0.0782547 0.0104679 0.28153 -0.922894 0.262692
0.150363 -0.247954 -0.163659 0.208069 -0.946437 0.24691
0.542967 -0.133082 -0.140155 0.310472 -0.935342 0.169538
0.425402 0.200444 -0.323278 0.0844017 -0.272877 -0.958339
0.224084 0.436551 0.154672 -0.165181 0.85514 0.491377
0.511299 0.0447118 0.140238 0.962799 0.264723 -0.0542121
-0.232087 0.253593 0.248536 -0.934424 -0.348472 0.0736149
0.396293 -0.122089 0.136832 0.291579 -0.946512 0.138193
0.311294 -0.132425 0.206658 0.285353 -0.957615 0.03934
-0.373558 -0.0724057 -0.0232667 0.144628 -0.594833 -0.790732
0.111777 -0.155828 0.266815 0.159477 -0.5434 0.824187
-0.225463 0.175448 -0.0082509 -0.992991 -0.0547835 0.104731
0.106373 0.388154 0.00386034 -0.157923 0.970499 -0.182188
0.400518 0.424815 -0.0900067 0.940794 0.334344 -0.0558697
0.257044 0.362161 0.174879 -0.176798 0.555991 -0.812168
0.18684 0.0452674 0.289629 -0.00884771 0.0686286 0.997603
-0.081469 -0.269647 0.0272473 0.256573 -0.948465 0.185967
0.0701534 -0.199608 0.198542 0.368888 -0.922656 0.112369
-0.137399 0.0928162 0.278038 -0.00123712 0.0754255 0.997151
0.225534 0.102704 0.280652 -0.0726782 0.185218 0.980006
0.0473458 -0.194205 0.252996 0.248936 -0.945284 0.210876
-0.0737288 -0.255566 -0.249552 0.0757128 -0.432203 -0.898592
0.146323 0.41589 0.0876306 -0.203517 0.937979 -0.280671
0.272947 -0.151311 0.152796 0.157449 -0.894866 0.417642
0.528127 0.000678912 0.275999 0.97114 0.238062 -0.0145905
0.211237 0.321226 -0.312947 -0.0371916 0.523172 -0.851415
-0.172692 -0.0830224 -0.133005 -0.976514 -0.213551 0.0285735
0.0542754 0.0658118 0.287251 -0.0782469 0.265487 0.960934
-0.187301 0.0255337 -0.308535 -0.966017 -0.2573 0.0246668
-0.111324 0.315765 0.227131 0.955818 0.283007 -0.0794957
0.284504 0.256051 -0.336846 0.0451844 -0.234505 -0.971064
0.491523 0.0828245 -0.0581864 0.933174 0.346697 -0.0948081
0.136173 0.359997 -0.204224 -0.214133 0.952306 -0.217395
0.224946 -0.200652 -0.0319121 0.245048 -0.949818 0.194417
0.344754 0.420839 0.227188 -0.0379219 0.247407 0.968169
0.318531 0.386023 -0.312341 -0.32776 0.777674 -0.536466
0.424272 0.304492 -0.339427 0.949609 0.309836 -0.0473793
0.066948 -0.0812677 0.312461 -0.0825684 0.239342 0.967418
0.443032 -0.0661473 -0.186682 0.228094 -0.873108 -0.430878
-0.135888 0.27538 -0.243219 -0.217621 0.948256 -0.231197
0.507103 0.0740927 0.203003 0.968861 0.247083 -0.0160616
0.416457 0.358825 -0.13887 0.959925 0.278587 -0.0305638
0.296176 -0.0406176 0.257049 0.0637724 -0.467074 -0.881915
-0.142504 0.343667 0.193579 -0.240324 0.931396 0.273398
0.384909 -0.159571 -0.0473336 0.28353 -0.957356 -0.0554954
-0.217099 0.32257 0.103865 -0.218378 0.937662 -0.270373
-0.112959 -0.00889708 0.294891 0.0151164 0.146191 0.989141
0.539837 -0.16365 0.218792 0.712782 -0.675117 0.190158
0.330661 0.317559 0.24323 -0.0887749 0.278282 0.956388
0.251786 -0.210038 -0.133334 0.260083 -0.946919 0.18895
0.453082 -0.0351368 0.233528 -0.216974 0.965541 -0.143709
-0.15915 -0.146181 -0.0506229 -0.97179 -0.235705 0.0082532
0.340749 0.476715 0.101202 -0.399826 0.91341 0.0763003
0.441257 -0.252703 -0.113642 0.309174 -0.948219 0.0727415
0.193713 -0.226606 -0.129492 0.314462 -0.939772 0.133949
-0.229671 0.138393 0.0349762 -0.25763 0.931247 0.257694
0.483118 0.142492 0.0743015 0.97483 0.222475 0.0145242
0.378774 0.350986 -0.345302 -0.12143 0.248427 -0.961009
-0.214234 0.143237 -0.114372 -0.965183 -0.259864 0.0298669
0.160347 -0.226748 -0.0810525 0.28589 -0.944387 0.162479
-0.15539 -0.131259 0.062267 -0.980928 -0.170939 -0.0925187
0.458766 0.245138 0.106976 0.947829 0.316878 -0.03477
-0.231281 0.195931 -0.188809 -0.974233 -0.225526 0.00289319
0.328086 -0.174947 -0.0538875 0.268002 -0.95059 0.156694
-0.0134368 -0.0785816 0.311735 -0.00297126 0.148376 0.988927
-0.116164 0.195373 -0.232818 -0.0369923 0.0230262 -0.99905
0.502174 0.0860683 0.284435 0.876158 0.467716 -0.116572
0.232756 0.312663 -0.254805 0.182641 -0.749132 -0.636744
-0.239755 0.256641 -0.192225 -0.228962 0.94855 -0.2187
0.138409 0.336297 0.13433 -0.100884 0.435721 0.89441
0.410911 -0.102494 0.208506 0.290199 -0.950898 0.107596
0.138123 -0.109973 0.292557 0.0220431 -0.504561 0.863094
-0.0587437 0.0203916 0.28913 0.0549964 0.127628 0.990296
0.24898 -0.185053 0.0230785 0.247861 -0.94604 0.208741
0.243075 0.0162938 0.300204 -0.0369897 0.307264 0.950905
-0.214472 0.125081 -0.232494 -0.982819 -0.182978 -0.0241914
0.144104 -0.097368 -0.274631 -0.00832764 -0.102769 -0.99467
0.00426247 0.0360116 0.293955 0.00840227 0.103984 0.994543
0.243024 0.390318 -0.176442 -0.309025 0.939805 -0.145841
0.238788 0.127401 -0.313914 0.0346073 -0.147854 -0.988404
-0.176752 0.294728 -0.0692832 -0.264984 0.948454 -0.173832
0.142904 -0.12239 0.243516 -0.268681 0.951922 -0.147156
-0.0259812 -0.272358 -0.0411043 0.254429 -0.950138 0.180288
-0.0397702 0.080585 -0.31207 0.0137269 -0.187259 -0.982215
-0.13625 -0.104073 0.248809 -0.977404 -0.211216 -0.00837571
0.449716 -0.206152 0.150772 0.35085 -0.929688 0.112184
-0.083907 -0.196127 -0.262678 -0.0294081 0.0525322 -0.998186
-0.0496648 -0.245924 -0.168561 -0.22019 0.862513 -0.455618
-0.146975 -0.08626 -0.283765 -0.0843376 -0.164588 -0.98275
0.202229 -0.115143 -0.26905 -0.0977787 0.0131179 -0.995122
0.417378 -0.14703 0.18244 -0.959269 -0.279207 0.0429649
0.322808 0.189639 0.264294 0.0145006 0.0693611 0.997486
-0.0675903 0.278723 0.189491 0.0256381 0.174225 -0.984372
0.419188 0.347036 -0.0469952 0.969266 0.243204 -0.0370833
-0.251773 0.307861 0.206902 -0.20188 0.899855 0.386659
-0.0864986 0.311675 -0.127872 -0.281065 0.949757 -0.137706
0.0495717 0.33406 -0.208954 -0.165692 0.964753 -0.204446
0.0224961 0.107544 -0.315529 -0.0437544 -0.175422 -0.983521
0.273289 -0.0595329 0.208576 -0.00735904 0.177852 0.98403
0.506901 0.0413371 -0.0979126 0.974121 0.222459 0.0400084
0.473827 0.145848 -0.046038 0.970438 0.241287 -0.00548274
0.273817 0.386922 0.133292 0.108069 -0.184016 0.976964
-0.163228 -0.112528 0.00106135 -0.980482 -0.193997 0.0319301
0.529263 -0.0110193 0.213616 0.973501 0.228102 0.0162938
0.0420474 0.244715 -0.235066 0.0161168 -0.178716 -0.983769
0.514415 -0.225542 -0.0268921 0.237751 -0.94946 0.204941
-0.035382 -0.148985 0.223824 -0.0826631 0.466954 0.88041
0.38203 -0.11691 -0.270107 0.00443787 -0.174257 -0.98469
0.0894713 -0.0814571 0.238608 0.194974 -0.959172 0.204875
-0.12642 -0.171314 -0.0888431 -0.957093 -0.285697 0.0484754
0.423461 0.340927 0.00649359 0.944341 0.328345 -0.0202595
0.215575 -0.214587 -0.195257 0.22038 -0.841572 -0.493142
0.450991 -0.167087 0.0367389 -0.951287 -0.306639 0.0320309
0.0115899 0.236445 -0.325084 -0.2541 0.59867 -0.759623
-0.143443 0.184156 0.262042 -0.152942 0.271227 0.950287
0.535935 -0.092913 0.0548798 0.228296 -0.952058 0.203633
0.0340852 -0.0971665 0.231668 0.208973 -0.924957 0.317466
-0.177617 0.0521568 0.22567 -0.968707 -0.247504 0.0186733
0.306109 0.0164814 -0.29197 0.0299094 -0.217636 -0.975572
0.0579608 0.212721 0.255024 -0.0209988 0.177375 0.983919
0.0512437 0.317852 0.239823 -0.00677255 0.0277996 0.999591
0.195904 0.419437 0.0336359 -0.206998 0.95719 -0.202336
0.397485 0.0496059 0.296104 -0.00207046 0.156804 0.987628
-0.230945 -0.0297661 0.025009 0.107876 -0.44541 0.888804
0.092524 -0.241345 -0.0538863 0.0638237 -0.938895 0.338234
-0.200763 0.0641809 -0.258342 -0.97234 -0.232843 0.0183973
-0.235274 0.229026 -0.0400633 -0.956984 -0.285732 0.0503846
-0.178734 0.190686 -0.2339 0.126152 -0.44962 -0.884266
-0.0315317 -0.281576 -0.0993487 0.26509 -0.948925 0.17108
0.534386 -0.181806 0.161506 0.189626 -0.963236 0.190311
0.48526 0.104694 -0.197566 0.936227 0.326671 -0.129483
0.0899096 0.399343 0.163262 -0.232963 0.719964 0.653743
-0.139782 -0.0939762 0.130391 -0.969088 -0.246713 -4.45674e-05
-0.164347 -0.0634216 -0.22301 -0.956781 -0.28768 0.0425575
0.385685 -0.171889 -0.122246 0.3637 -0.929284 0.0644464
-0.020665 0.32935 -0.136726 -0.100311 0.942655 -0.318339
0.473907 -0.158366 -0.210076 0.256945 -0.936215 -0.23975
-0.0608089 0.341181 -0.0179941 -0.295082 0.949653 -0.105288
-0.114294 -0.228876 -0.116054 -0.968874 -0.246036 0.0273578
0.0911311 0.336038 -0.260465 -0.360312 0.929417 -0.0797467
0.413411 -0.176408 -0.201943 -0.964794 -0.261369 0.0293119
0.0882508 -0.165489 -0.19864 0.167697 -0.759994 0.627922
0.160116 -0.060784 0.236497 0.386156 -0.92138 0.0440688
0.47438 0.15588 0.277334 -0.0394735 0.197971 0.979413
0.345453 -0.160968 0.00082438 0.298226 -0.94123 0.158581
0.395113 0.468597 0.121952 0.978174 0.206345 0.0244474
0.321303 -0.103639 -0.203732 0.353575 -0.79586 0.491519
0.328438 0.404627 -0.253456 -0.2378 0.948369 -0.209874
-0.237077 0.2681 0.160556 0.28192 -0.93766 0.203258
-0.501769 -0.0624274 0.0203974 -0.955736 -0.287727 0.0614943
0.436546 0.313841 0.246747 0.090883 0.14541 0.985188
0.450972 -0.0758587 0.270075 0.264325 -0.792648 0.549401
-0.398687 -0.0256023 -0.0142295 -0.196595 0.780918 -0.592889
0.137601 0.187765 -0.324778 0.235947 -0.194031 -0.952198
0.27551 0.452616 0.192056 -0.200951 0.900771 0.385006
0.00953149 0.376776 0.111009 -0.352732 0.933127 -0.0696727
0.136325 -0.178108 0.217509 0.275036 -0.94546 0.174529
-0.234551 0.227144 0.0223654 -0.929351 -0.344457 0.132879
0.17949 -0.141464 -0.203546 0.223084 -0.78349 0.57998
0.0206363 0.262067 0.251896 -0.0234339 0.21421 0.976506
-0.146242 -0.065229 0.299081 -0.968811 -0.245832 0.0311713
0.143248 -0.218776 -0.00917373 0.283634 -0.946793 0.152102
0.479937 0.15151 0.0152893 0.937088 0.348649 -0.0175997
0.542731 -0.151534 0.0983324 0.981115 0.188909 0.0415469
0.367992 0.128333 0.28 -0.0808399 0.210612 0.974221
0.173507 0.047942 -0.304966 0.029498 -0.247348 -0.968478
-0.0160267 -0.218993 0.216555 0.276786 -0.953383 0.120207
0.375573 0.414608 -0.282632 -0.0980603 0.92135 -0.376163
0.176004 0.273201 -0.339088 -0.126565 0.420968 -0.898202
0.136262 -0.20544 0.0760431 0.296215 -0.947674 0.119037
0.436819 -0.245453 -0.0562839 -0.973665 -0.225632 0.0326712
0.19835 -0.162776 0.20002 0.150193 -0.935411 0.320074
-0.0508035 -0.248973 0.118452 0.169611 -0.961227 0.21743
0.395896 0.0769758 -0.29886 0.0780064 -0.187579 -0.979147
-0.172404 0.246747 0.249361 -0.037382 0.189934 0.981085
-0.13943 0.340017 0.118789 -0.299624 0.948192 -0.105626
0.376356 -0.139198 0.0600798 0.250509 -0.943353 0.217554
-0.0862635 -0.0588472 0.30465 -0.113993 0.209698 0.971098
-0.281932 0.00584437 0.0109615 -0.180487 0.927582 0.327134
0.262572 0.187057 -0.326875 -0.0287908 -0.126997 -0.991485
0.431118 0.299246 -0.13784 0.981595 0.189464 -0.0239535
-0.131527 -0.192621 -0.232436 -0.969695 -0.226355 -0.0919558
0.274259 0.407379 -0.120675 -0.274947 0.951926 -0.135057
0.530705 -0.0731004 -0.169885 0.968521 0.246816 -0.0324
0.549802 -0.133809 -0.21489 0.985024 0.170922 0.0226699
0.129079 0.263581 0.249272 0.0375277 0.121879 0.991835
0.104562 0.361306 0.226221 -0.218438 0.811991 0.541254
0.000799409 0.209135 -0.275797 -0.194366 0.84936 0.490724
-0.121881 0.178809 -0.329657 -0.0227931 -0.311752 -0.94989
0.197179 -0.10982 0.280644 0.16163 -0.538026 0.827287
0.0885577 0.317426 0.140812 -0.099176 0.385839 0.91722
-0.17926 -0.0809009 -0.0555202 -0.996675 -0.0814016 -0.0036536
-0.193937 0.0606685 -0.171802 -0.987809 -0.143113 -0.061261
0.246264 0.378644 -0.252949 -0.191058 0.955701 -0.223903
0.113794 0.0498866 0.289738 -0.0112345 0.118165 0.99293
0.278764 0.0704412 0.289485 -0.055446 0.204347 0.977327
0.116056 0.0545141 -0.306993 -0.0533144 -0.108496 -0.992666
0.423411 0.371875 0.238752 -0.0994704 0.217272 0.97103
0.495155 -0.236409 -0.0921767 0.257995 -0.949043 0.180984
-0.276252 -0.0580954 -0.0117789 0.230994 -0.836082 -0.497602
-0.0466034 0.359844 0.0881799 -0.209088 0.948762 -0.236925
0.461765 -0.1281 -0.255822 0.0934169 -0.716439 -0.691367
0.501595 -0.0471879 0.279893 0.122375 -0.590309 0.797847
0.209848 -0.0958258 0.226424 -0.229434 0.895107 0.382288
-0.237143 0.205971 -0.313844 -0.986788 -0.15883 0.0319876
0.236513 0.00352469 -0.294379 -0.0381977 -0.105893 -0.993644
0.530209 -0.106776 0.171131 0.96769 0.250823 -0.0257842
-0.10774 0.325183 -0.0419037 -0.207465 0.928912 -0.306727
-0.190473 0.0807706 0.128704 -0.987699 -0.154171 0.0261008
0.0413875 0.347267 -0.122341 -0.329828 0.943038 -0.0435024
-0.093594 0.292999 0.144518 0.000437704 -0.313933 0.949445
-0.0985208 -0.247589 0.209398 0.267374 -0.948283 0.171083
0.39136 0.474009 0.0632287 0.970162 0.241284 -0.0238426
-0.11338 -0.22891 0.00560145 -0.926862 -0.365065 0.0874885
0.312873 -0.192668 -0.127919 0.202689 -0.948911 0.241836
0.00669581 0.298421 0.184335 -0.248801 0.556315 -0.79285
0.535429 -0.0885892 -0.264519 0.984598 0.171285 -0.035042
-0.193683 0.312666 0.224096 -0.167938 0.623191 0.763826
-0.0660064 0.0947184 0.278289 0.0687936 0.063075 0.995635
-0.213569 0.129106 -0.170047 -0.919334 -0.392943 0.0204947
0.197962 0.261021 0.251468 -0.189827 0.211448 0.958778
-0.111203 -0.252108 -0.207899 -0.934594 -0.342168 0.0972359
-0.148239 0.190873 -0.28245 0.0822653 -0.208559 0.974544
0.112025 -0.25053 -0.122276 0.372387 -0.926919 0.0463651
0.147553 -0.217627 -0.217922 0.197783 -0.745477 -0.636511
-0.333581 -0.0200522 0.0322776 -0.120884 0.563477 0.81724
0.0873797 0.401674 0.11113 -0.259085 0.947322 -0.188299
0.518769 -0.00682673 -0.0597326 0.960717 0.273591 -0.0466032
-0.0226095 -0.222508 -0.260647 -0.0586251 -0.0756843 -0.995407
0.177626 0.35781 0.237475 -0.0176981 0.177127 0.984029
0.0183162 -0.136983 0.316809 0.967253 0.252898 -0.0215593
0.360278 0.435484 -0.11951 -0.188663 0.961192 -0.201284
0.357666 0.228364 -0.334311 -0.00689785 -0.157023 -0.987571
0.0579261 0.0676173 -0.308782 0.101784 -0.284643 -0.953215
-0.179564 -0.0432516 0.12761 -0.921316 -0.369768 0.120199
-0.237567 0.203933 -0.247698 -0.961842 -0.269994 0.0443045
0.428325 -0.00365685 -0.290007 0.0831621 -0.315526 -0.945266
0.522381 -0.0138663 0.103654 0.952278 0.302776 -0.0386363
-0.0181651 -0.249743 0.0372555 0.29094 -0.952658 0.0882959
0.157861 0.350882 -0.271712 -0.180345 0.951651 -0.24867
0.161984 -0.18058 -0.169725 -0.198243 0.598663 -0.776081
0.0336384 -0.267593 -0.209828 0.969319 0.243727 -0.0319064
0.510037 0.00435113 -0.234367 0.986105 0.164272 -0.0247422
-0.023281 0.158734 -0.320284 0.0685414 -0.228291 -0.971177
-0.180863 0.00345708 -0.245934 -0.973153 -0.229324 -0.0196121
-0.192583 0.315253 0.0517123 -0.259288 0.945096 -0.198905
0.31368 -0.154059 0.0925003 0.206655 -0.94856 0.239848
0.474735 0.134074 -0.112624 0.917052 0.38414 -0.107011
-0.18267 0.145473 -0.324962 0.0392889 -0.0388805 -0.998471
0.448246 0.226367 -0.218128 0.951582 0.281795 -0.122813
0.0866519 0.354316 -0.15972 -0.112404 0.953037 -0.281222
0.384565 0.421887 0.17098 0.0839109 -0.408672 -0.908816
0.33153 0.413864 -0.175479 -0.304014 0.951857 -0.0392839
0.013717 -0.0545768 -0.28583 0.0385055 -0.209483 -0.977054
-0.250756 0.287388 0.0446078 -0.948173 -0.31349 0.0518848
0.448599 0.247844 -0.0755249 0.947796 0.314832 -0.0506366
0.0462699 0.176638 -0.328179 0.0323434 -0.226991 -0.97336
-0.215907 0.0723264 -0.0947031 -0.962822 -0.24683 -0.109765
0.39462 0.436251 -0.169641 -0.303997 0.940816 -0.149839
0.444697 0.242372 -0.280029 0.938418 0.335123 -0.084047
-0.0773777 -0.139197 0.266137 0.11863 -0.50137 -0.857062
0.391766 0.482401 0.190431 0.976718 0.213325 -0.0226997
0.422946 0.3491 0.0664118 0.938423 0.338782 -0.0677435
-0.0615636 0.191109 -0.261548 -0.183394 0.978675 -0.0925304
0.19672 0.396109 -0.0906398 -0.257531 0.949696 -0.178198
0.252467 -0.0593804 -0.276412 0.0163445 -0.175797 -0.984291
0.280774 0.282496 0.249278 -0.0731333 0.181195 0.980724
0.215029 0.416198 -0.0240247 -0.335124 0.928171 -0.161835
0.214696 -0.174452 0.117494 0.2839 -0.954306 0.0932822
0.20805 0.18232 0.268027 -0.00976687 0.169947 0.985405
-0.00991704 -0.123313 0.265793 0.0950907 -0.41996 -0.902547
0.546578 -0.182198 -0.0895491 0.969661 0.243171 -0.0250149
0.194051 0.27812 -0.239984 -0.134555 0.265246 -0.954746
0.264659 0.213052 0.26346 0.0450976 0.137965 0.98941
0.426006 0.356126 0.152384 0.967538 0.251997 -0.0191949
0.136674 0.383547 -0.0588156 -0.31987 0.940107 -0.11782
0.0439019 -0.275229 -0.152647 0.17867 -0.965903 0.187375
-0.0308715 0.29237 -0.27441 -0.22632 0.554881 -0.800554
0.493992 -0.110951 0.216681 -0.0310588 0.179557 0.983257
-0.186401 -0.0214826 -0.0313183 -0.962559 -0.265369 0.0553184
-0.225397 0.171084 -0.0643215 -0.964145 -0.263703 0.0297408
0.31568 -0.158308 -0.238901 0.118074 -0.852863 -0.508609
0.441202 0.107727 0.283717 -0.00915692 0.176378 0.98428
