ply
format ascii 1.0
comment Created by Open3D
element vertex 500
property double x
property double y
property double z
property double nx
property double ny
property double nz
end_header
0.286974 0.14865 -0.317976 0.0178337 -0.177216 -0.98401
0.507225 0.0211543 -0.175489 0.964516 0.262341 -0.0297662
0.354547 -0.135397 0.120885 0.263421 -0.948563 0.175607
0.466524 -0.161481 -0.194972 0.262592 -0.964895 0.00478775
0.342729 0.377471 0.159687 -0.25916 0.919169 -0.296587
0.422572 0.315861 -0.32114 0.964516 0.262341 -0.0297663
-0.00601932 -0.0781636 0.310374 -0.0178338 0.177216 0.98401
0.468577 0.184799 0.0144485 0.964519 0.262332 -0.0297514
0.00114739 0.333829 -0.136226 -0.263421 0.948563 -0.175607
0.402704 0.388206 -0.327326 0.964515 0.262343 -0.0297635
0.459186 -0.144844 0.224955 -0.0178337 0.177216 0.98401
0.443535 0.241392 0.260971 -0.0178337 0.177216 0.98401
0.266848 0.157024 -0.319849 0.0178337 -0.177216 -0.98401
0.359684 -0.040256 0.292293 0.173656 -0.545424 0.819973
0.400832 0.21857 -0.328505 0.0178337 -0.177216 -0.98401
0.185297 0.275924 -0.28981 -0.0211186 0.189037 0.981743
0.435121 0.331806 0.226022 0.964516 0.262341 -0.0297662
0.206633 -0.181159 0.0955734 0.263421 -0.948563 0.175607
0.404715 0.163458 0.274303 -0.0178337 0.177216 0.98401
-0.108386 0.0495223 0.285523 -0.0178337 0.177216 0.98401
-0.125426 -0.154658 0.171944 -0.964516 -0.26234 0.0297672
0.42228 0.375512 0.195126 0.964516 0.262341 -0.0297662
0.294222 0.331188 0.242093 -0.0178336 0.177216 0.98401
0.449793 0.272551 0.179207 0.964524 0.262292 -0.0299502
0.413926 0.0661732 -0.300822 0.0178337 -0.177216 -0.98401
0.490836 0.0713578 -0.264087 0.964516 0.262341 -0.0297661
0.0373547 0.326979 -0.22754 -0.263421 0.948563 -0.175607
0.410719 -0.141498 0.00366825 0.263421 -0.948563 0.175607
-0.459482 -0.111354 0.00566513 0.262516 -0.964926 0.00206707
-0.00150968 0.385523 0.149823 -0.198877 0.796046 0.571628
0.533111 -0.0699014 0.20681 0.263421 -0.948563 0.175607
0.301318 -0.0510007 0.257282 -0.0477143 0.0623119 -0.996916
0.495029 0.0815858 -0.0380619 0.964516 0.262341 -0.0297662
0.483047 -0.0245239 -0.283235 0.0178337 -0.177216 -0.98401
0.145784 0.383704 0.203601 -0.198877 0.796046 0.571628
0.450963 0.228925 -0.167402 0.964516 0.262341 -0.0297662
0.533924 -0.0667703 -0.0852628 0.964516 0.262341 -0.0297662
0.485399 0.0583403 -0.298116 0.0178337 -0.177216 -0.98401
0.543113 -0.16792 0.0209056 0.964516 0.26234 -0.0297661
0.248025 0.273227 -0.274205 -0.247444 0.937507 0.244646
0.139182 0.224065 0.258575 -0.0178337 0.177216 0.98401
0.117619 -0.154669 -0.174117 0.224292 -0.873624 -0.431826
0.238198 -0.1601 0.161976 0.263421 -0.948563 0.175607
-0.160794 0.297802 0.237332 -0.0874459 0.423793 0.901528
-0.199039 0.297416 -0.0326233 -0.263421 0.948563 -0.175607
0.45041 0.263246 0.117184 0.964516 0.262341 -0.0297662
0.203509 0.390058 -0.136055 -0.263421 0.948563 -0.175607
0.287407 0.381527 0.130581 -0.0309408 0.224274 0.974035
0.405348 0.387247 -0.250108 0.964516 0.26234 -0.029766
-0.235439 0.196474 -0.298165 -0.964516 -0.262342 0.0297651
0.519797 -0.0256629 -0.180738 0.964516 0.262343 -0.0297539
0.116627 -0.216144 0.0416135 0.263421 -0.948563 0.175607
0.515996 -0.222944 -0.0405588 0.263421 -0.948563 0.175607
0.0150744 -0.261786 -0.0525963 0.263421 -0.948563 0.175607
0.400886 -0.173747 -0.185528 0.198877 -0.796046 -0.571628
0.00700145 -0.201872 -0.205085 0.0858867 -0.205147 0.974955
0.255875 0.405995 -0.128519 -0.263421 0.948563 -0.175607
-0.0697661 -0.290024 -0.0778574 0.263421 -0.948563 0.175607
0.445319 0.108377 0.284959 -0.0178337 0.177216 0.98401
0.442029 -0.0718575 -0.212682 0.20347 -0.666721 0.716996
0.0931987 0.236147 0.255566 -0.0178337 0.177216 0.98401
0.226919 0.384264 0.176247 0.118751 -0.531742 -0.83854
0.49236 -0.221229 0.00415851 0.263421 -0.948563 0.175607
-0.129546 -0.139159 0.175027 -0.964516 -0.26234 0.029767
0.332864 -0.135775 0.151368 0.263421 -0.948563 0.175607
0.261125 0.438023 0.190129 -0.964516 -0.262343 0.0297642
0.538511 -0.0897349 -0.139031 0.964516 0.262341 -0.0297662
0.289235 -0.150644 0.136495 0.263421 -0.948563 0.175607
0.220943 -0.218342 -0.126742 0.263421 -0.948563 0.175607
0.263497 0.431318 -0.00316847 -0.263421 0.948563 -0.175607
0.422434 0.318925 -0.298625 0.964516 0.262341 -0.0297663
0.452768 0.0712604 0.291778 -0.0178337 0.177216 0.98401
0.127519 -0.0709746 0.238612 0.262516 -0.964926 0.00206169
0.478231 -0.192269 0.181786 0.263421 -0.948563 0.175607
-0.099339 0.302199 0.179834 0.201023 -0.802774 -0.561376
0.204944 -0.0636645 0.309494 0.173656 -0.545424 0.819973
0.475246 0.171607 0.114284 0.964516 0.262341 -0.0297662
0.21889 0.265502 -0.273937 -0.242546 0.924945 0.292657
0.082797 0.334994 -0.252415 -0.263421 0.948563 -0.175607
0.0826276 -0.220606 0.068509 0.263421 -0.948563 0.175607
0.00798707 0.340526 -0.110309 -0.263421 0.948563 -0.175607
-0.0527357 0.335764 -0.0449446 -0.263421 0.948563 -0.175607
-0.02107 0.00742405 0.294687 -0.0178337 0.177216 0.98401
-0.0830651 -0.141973 -0.272343 0.0178337 -0.177216 -0.98401
-0.20768 0.149623 0.188421 -0.964516 -0.262341 0.0297662
0.067323 0.383919 0.0350728 -0.263421 0.948563 -0.175607
0.202671 -0.0976376 0.224288 -0.21707 0.852108 0.476227
0.0815889 -0.110949 0.264051 -0.0477143 0.0623119 -0.996916
-0.0627505 -0.224576 0.263823 0.261395 -0.932957 0.247516
-0.0304663 -0.295177 -0.164648 0.263421 -0.948563 0.175607
0.31459 0.451091 0.205982 -0.16626 0.691078 0.703398
-0.186132 0.02964 -0.170834 -0.964516 -0.26234 0.0297666
0.0912932 0.0551443 0.288129 -0.0178337 0.177216 0.98401
0.15399 -0.204235 -0.228968 0.198877 -0.796046 -0.571628
-0.233659 0.236173 0.1094 -0.964516 -0.26234 0.0297661
0.333564 -0.132324 -0.211601 -0.118753 0.531747 0.838536
-0.201584 0.0316171 0.0458015 -0.964516 -0.262342 0.0297669
-0.110399 -0.237931 -0.0750437 -0.964517 -0.262339 0.0297662
-0.206601 0.331153 0.163153 -0.263623 0.963123 -0.0538295
0.442335 0.251251 -0.250203 0.964516 0.262338 -0.0297763
0.459664 -0.210952 0.108717 0.263421 -0.948563 0.175607
0.237371 0.23712 -0.334808 0.0178337 -0.177216 -0.98401
0.546871 -0.132252 -0.150626 0.263421 -0.948563 0.175607
-0.226962 0.163437 -0.314653 -0.964515 -0.262344 0.0297661
-0.0972049 0.256864 0.168295 -0.264017 0.959153 -0.101588
-0.175135 -0.0855423 -0.129747 -0.964516 -0.26234 0.0297658
0.196904 -0.0844985 0.259613 -0.0982267 0.2519 -0.962755
-0.12277 0.305224 0.237404 -0.0751157 0.38074 0.921626
0.415341 -0.167956 -0.146185 0.263421 -0.948563 0.175607
-0.0103935 -0.116084 0.259924 0.163126 -0.680772 -0.7141
0.411747 0.374934 -0.151265 0.964518 0.262336 -0.029765
-0.0493863 0.327806 -0.0929559 -0.263421 0.948563 -0.175607
0.105635 0.401201 0.0709555 -0.263421 0.948563 -0.175607
0.47621 -0.158054 -0.205957 0.25572 -0.956277 -0.141924
-0.481051 -0.0459284 -0.000956452 -0.262894 0.94385 -0.200086
0.413866 0.393355 0.0797451 0.964516 0.262341 -0.0297662
0.259743 0.0169841 0.298055 -0.0178336 0.177216 0.98401
0.0803772 0.385871 0.026037 -0.263421 0.948563 -0.175607
0.364824 0.301538 0.248712 -0.0178336 0.177216 0.98401
0.0419737 -0.0523545 0.306596 -0.0178337 0.177216 0.98401
0.38862 0.436901 -0.160702 -0.263421 0.948563 -0.175607
0.399113 0.439056 0.00447683 0.964516 0.262341 -0.0297661
0.049764 -0.254647 -0.0660661 0.263421 -0.948563 0.175607
0.529755 -0.234483 -0.123531 0.263421 -0.948563 0.175607
0.450063 -0.167291 0.0442568 -0.964516 -0.262341 0.0297662
-0.146733 -0.0766605 0.168965 -0.964516 -0.26234 0.0297683
0.166402 -0.11074 0.236401 -0.260785 0.964215 0.0477573
0.0796178 0.324915 0.239333 -0.0178337 0.177216 0.98401
0.0587827 -0.242631 -0.208623 0.198877 -0.796046 -0.571628
-0.108422 -0.229055 0.0672319 -0.964516 -0.262341 0.0297661
0.226669 0.0267384 -0.297114 0.0178337 -0.177216 -0.98401
0.498121 -0.139098 -0.23906 0.203079 -0.809191 -0.551333
-0.161463 0.343599 0.17019 -0.260928 0.964343 0.0442558
0.478037 0.12342 -0.219959 0.964522 0.262301 -0.0299306
0.501077 -0.0996599 -0.268264 0.0626062 -0.336776 -0.939501
-0.0533033 0.33895 -0.0268823 -0.263421 0.948563 -0.175607
0.527235 -0.046076 -0.119635 0.964516 0.262341 -0.0297662
0.501389 -0.218661 0.0044839 0.263421 -0.948563 0.175607
0.105772 0.144881 0.272231 -0.0178337 0.177216 0.98401
0.480422 -0.200853 0.132128 0.263421 -0.948563 0.175607
0.494719 0.0712802 -0.138945 0.964516 0.262341 -0.0297662
0.416379 0.292069 0.251352 -0.0178337 0.177216 0.98401
-0.139614 0.319693 -0.00143378 -0.263421 0.948563 -0.175607
0.332647 0.295928 -0.2756 -0.251727 0.947737 0.196032
0.437511 -0.215599 0.0377564 -0.263421 0.948563 -0.175607
0.505242 -0.222694 -0.023079 0.263421 -0.948563 0.175607
-0.0186595 0.321243 -0.174497 -0.263421 0.948563 -0.175607
0.298549 -0.132662 -0.214171 -0.0211102 0.189006 0.981749
-0.142277 0.202905 -0.234315 0.094684 -0.44893 -0.888536
-0.137146 0.0808338 -0.313449 0.0178336 -0.177216 -0.98401
0.50712 0.0548719 0.118266 0.964516 0.262341 -0.0297662
0.491338 0.0647244 0.293654 -0.0178337 0.177216 0.98401
-0.126394 0.34975 0.141095 -0.263421 0.948563 -0.175607
-0.0464094 -0.261819 0.0394556 0.263421 -0.948563 0.175607
-0.0156415 0.37049 0.0869853 -0.263421 0.948563 -0.175607
0.396064 0.11364 -0.309694 0.0178337 -0.177216 -0.98401
-0.218365 0.161226 -0.0555759 -0.964516 -0.262341 0.0297662
0.235908 0.369873 0.234069 -0.0178337 0.177216 0.98401
-0.0288655 -0.161921 0.252795 -0.252847 0.885342 -0.390176
-0.0404377 -0.237159 0.163704 0.263421 -0.948563 0.175607
-0.0101781 -0.144009 -0.270655 0.0178336 -0.177216 -0.98401
0.148078 0.414753 0.16116 -0.198877 0.796046 0.571628
0.399153 0.381146 0.234997 -0.0178336 0.177216 0.98401
0.534833 -0.0609788 -0.00478533 0.964516 0.262341 -0.0297662
0.419031 0.327743 0.244975 -0.0178337 0.177216 0.98401
-0.0127374 0.0221535 0.292186 -0.0178337 0.177216 0.98401
0.493712 0.0928647 0.0186521 0.964516 0.262341 -0.0297662
-0.210626 0.146129 0.0621535 -0.964516 -0.262341 0.0297666
0.511649 -0.0550676 0.272783 0.227275 -0.767598 0.599282
0.352628 0.338545 -0.250141 0.10685 -0.490945 -0.864613
0.528482 -0.0374977 -0.00361623 0.964516 0.262341 -0.0297662
-0.200096 0.0264425 0.0484217 -0.964516 -0.26234 0.0297655
0.0113351 -0.210645 0.229258 0.263421 -0.948563 0.175607
-0.187479 -0.0157813 0.0851058 -0.964516 -0.262341 0.0297661
-0.195554 -0.00590517 -0.0895031 -0.964516 -0.262339 0.0297661
0.322941 0.383959 -0.312717 -0.233596 0.795373 -0.559299
-0.156534 0.300315 -0.0807241 -0.263421 0.948563 -0.175607
-0.123226 0.00890195 0.29257 -0.0178337 0.177216 0.98401
0.489071 0.0814158 -0.232635 0.964516 0.262338 -0.0297838
-0.111903 -0.248032 -0.212792 -0.964517 -0.262338 0.0297654
0.430136 0.132702 -0.31251 0.0178337 -0.177216 -0.98401
0.377427 -0.157852 -0.0347321 0.263421 -0.948563 0.175607
0.523569 0.000299098 0.204528 -0.0946828 0.448926 0.888539
0.0982723 0.186877 -0.328281 0.0178337 -0.177216 -0.98401
0.0278124 -0.176132 0.28209 0.964516 0.262341 -0.0297674
-0.298806 -0.0542323 0.0275214 0.185708 -0.593953 0.782772
0.126952 0.215971 -0.333001 0.0178337 -0.177216 -0.98401
0.00972974 -0.257182 -0.0197071 0.263421 -0.948563 0.175607
-0.220886 -0.033542 0.0247346 0.185708 -0.593953 0.782772
-0.236992 0.26128 0.222688 -0.964516 -0.262342 0.0297667
0.296238 0.426114 -0.0803913 -0.263421 0.948563 -0.175607
-0.188071 0.27988 -0.1438 -0.263421 0.948563 -0.175607
0.523103 -0.2084 0.027341 0.263421 -0.948563 0.175607
0.418385 0.330677 -0.326237 0.964519 0.262328 -0.0297656
0.303945 -0.170152 0.00905756 0.263421 -0.948563 0.175607
0.382203 -0.17604 -0.14014 0.263421 -0.948563 0.175607
0.282778 0.323961 -0.286985 0.194834 -0.631134 0.750806
-0.163633 -0.116386 -0.0288611 -0.964516 -0.262341 0.0297662
0.194577 0.167923 0.26969 -0.0178336 0.177216 0.98401
0.357611 0.430713 -0.147613 -0.263421 0.948563 -0.175607
0.22683 -0.18884 0.023789 0.263421 -0.948563 0.175607
0.40736 0.394077 -0.124708 0.964516 0.26234 -0.029766
-0.133202 0.0419142 0.286443 -0.0178337 0.177216 0.98401
0.330631 -0.195543 -0.16813 0.263421 -0.948563 0.175606
-0.225503 0.202011 0.0725882 -0.964516 -0.26234 0.0297661
-0.18587 0.303314 -0.0205218 -0.263421 0.948563 -0.175607
0.523113 -0.188359 0.13558 0.263421 -0.948563 0.175607
0.122413 0.354044 -0.208938 -0.263421 0.948563 -0.175607
-0.167632 -0.000154174 0.166046 -0.964516 -0.262341 0.0297661
0.452278 -0.253168 -0.108238 0.263421 -0.948563 0.175607
-0.18129 0.0124576 -0.165381 -0.964516 -0.262341 0.0297661
0.291443 0.396367 -0.233881 -0.263421 0.948563 -0.175607
-0.117197 0.308334 -0.0964191 -0.263421 0.948563 -0.175607
-0.2186 0.246852 -0.274456 -0.261395 0.932957 -0.247514
0.53175 -0.125277 0.0285228 0.964516 0.26234 -0.0297661
-0.0253938 -0.283657 -0.110028 0.263421 -0.948563 0.175607
0.524834 -0.198717 0.0770465 0.263421 -0.948563 0.175607
-0.090625 -0.252952 0.153677 0.263421 -0.948563 0.175607
0.246809 0.3902 0.13573 0.176122 -0.555305 0.812784
-0.118953 0.284815 0.242956 -0.0178336 0.177216 0.98401
-0.115901 0.177295 -0.269577 -0.209307 0.828473 0.519446
-0.126116 -0.165159 0.0570455 -0.964516 -0.262341 0.0297661
-0.103478 0.301864 0.153746 0.238695 -0.818244 0.522974
-0.206371 0.239112 -0.29763 -0.233596 0.795375 -0.559296
-0.185379 0.0615782 -0.310856 0.0178337 -0.177216 -0.98401
-0.1614 -0.1287 -0.0650404 -0.964516 -0.26234 0.0297658
-0.110873 0.219486 -0.272187 0.219213 -0.732875 0.644081
0.434886 0.296646 -0.0914695 0.964516 0.262341 -0.0297662
0.41079 -0.105323 0.198962 0.263421 -0.948563 0.175607
-0.0457928 0.274294 0.152427 -0.209308 0.828475 0.519441
0.315563 0.222792 -0.330811 0.0178337 -0.177216 -0.98401
0.0507633 -0.0290427 -0.290256 0.0178337 -0.177216 -0.98401
0.389017 0.413951 0.126917 0.0216256 0.0338639 0.999192
0.0499315 -0.220644 0.117353 0.263421 -0.948563 0.175607
0.221653 0.312635 -0.255958 0.217071 -0.852113 -0.476218
-0.108579 -0.237585 -0.0130185 -0.964516 -0.262341 0.0297661
-0.0597926 -0.236137 0.198257 0.263421 -0.948563 0.175607
-0.14309 0.154477 0.265992 -0.0178338 0.177216 0.98401
0.453838 -0.238767 -0.0327905 0.263421 -0.948563 0.175607
0.109131 0.209549 0.260645 -0.0178337 0.177216 0.98401
-0.197143 0.201586 -0.254582 0.262515 -0.964926 0.00205865
0.206121 0.378527 -0.202257 -0.263421 0.948563 -0.175607
0.472251 0.179032 0.0826907 0.964516 0.262341 -0.0297662
0.402777 0.414216 -0.0957359 0.964516 0.26234 -0.029766
0.153227 -0.0510895 0.308384 -0.0178336 0.177216 0.98401
-0.217351 0.0771545 -0.0637606 -0.964517 -0.262338 0.0297696
-0.179838 0.322312 0.0730538 -0.263421 0.948563 -0.175607
-0.146044 -0.00389363 -0.298352 0.0178337 -0.177216 -0.98401
0.301081 0.400645 -0.225231 -0.263421 0.948563 -0.175607
0.137248 -0.0911282 0.305563 0.173656 -0.545424 0.819973
0.309085 -0.0233439 0.306212 -0.0178336 0.177216 0.98401
0.540426 -0.15183 0.0756517 0.964516 0.26234 -0.0297661
-0.0219245 0.203027 -0.333368 0.0178337 -0.177216 -0.98401
0.381343 -0.148514 0.0098359 0.263421 -0.948563 0.175607
0.301628 -0.152205 -0.187407 -0.264017 0.959151 -0.10161
-0.224604 0.2029 0.109557 -0.964516 -0.26234 0.0297661
-0.155373 0.169783 -0.329799 0.0178338 -0.177217 -0.98401
0.448674 -0.164248 -0.211785 0.248049 -0.939002 -0.238214
0.420057 0.347353 -0.125079 0.964516 0.262341 -0.0297662
0.411099 -0.126071 0.0864286 0.263421 -0.948563 0.175607
0.369238 0.385107 -0.327303 -0.205101 0.673491 -0.710172
0.169047 -0.0150677 0.302183 -0.0178336 0.177216 0.98401
0.457546 0.188026 -0.314537 0.964516 0.262341 -0.0297663
0.030266 0.223319 0.256736 -0.0178337 0.177216 0.98401
0.446548 -0.153165 0.0548306 -0.964516 -0.262341 0.0297662
0.210311 -0.152565 0.244513 0.263421 -0.948563 0.175607
-0.0663645 -0.0220146 0.299168 -0.0178337 0.177216 0.98401
-0.13599 0.19457 0.2589 -0.0178338 0.177216 0.98401
0.482748 -0.165365 -0.152016 0.0178337 -0.177216 -0.98401
-0.0897528 -0.233945 -0.202632 0.0216255 0.0338642 0.999192
0.389869 0.422255 -0.241689 -0.263421 0.948563 -0.175607
-0.237806 0.225984 -0.114768 -0.964516 -0.262341 0.0297662
-0.133579 0.0850131 0.278675 -0.0178337 0.177216 0.98401
-0.183002 0.00217747 -0.156088 -0.0347158 0.0142517 -0.999296
-0.14394 0.301243 0.237324 -0.0751158 0.38074 0.921626
0.308201 0.398796 0.130196 0.0982277 -0.251904 0.962754
-0.186167 -0.027044 0.0283613 -0.964516 -0.262341 0.0297655
0.383909 -0.082122 0.259315 0.173656 -0.545424 0.819973
0.00293471 -0.287308 -0.186863 0.258635 -0.961468 -0.0932033
0.356126 -0.190054 -0.176724 0.263421 -0.948563 0.175606
0.406952 -0.163428 -0.109144 0.263421 -0.948563 0.175607
-0.000700816 -0.252738 0.0199457 0.263421 -0.948563 0.175607
0.294576 -0.175149 -0.00388509 0.263421 -0.948563 0.175607
0.123895 -0.101401 0.301557 0.173656 -0.545424 0.819973
-0.0071166 0.082419 0.281434 -0.0178337 0.177216 0.98401
0.273131 0.119232 0.279883 -0.0178336 0.177216 0.98401
-0.130767 -0.174193 -0.173274 -0.964516 -0.262341 0.0297655
0.283271 0.413641 -0.128316 -0.263421 0.948563 -0.175607
0.18861 0.00859157 -0.294535 0.0178337 -0.177216 -0.98401
0.0616215 0.393855 0.160184 -0.198877 0.796046 0.571628
0.249202 0.43575 0.167102 -0.198877 0.796046 0.571628
0.135367 0.290153 -0.314752 -0.173656 0.545424 -0.819973
0.347667 0.0487954 0.293919 -0.0178336 0.177216 0.98401
0.266297 -0.19712 -0.199805 0.198877 -0.796046 -0.571628
0.260147 0.445576 0.196258 -0.203079 0.809192 0.551333
0.0911614 -0.0138998 -0.292251 0.0178337 -0.177216 -0.98401
-0.0509916 -0.146813 0.320315 0.0403154 -0.0349207 0.998577
-0.0453751 -0.283911 -0.0814256 0.263421 -0.948563 0.175607
0.455989 -0.0650838 -0.180708 0.192244 -0.775092 -0.601892
0.297235 0.393933 0.17791 0.0178338 -0.177217 -0.98401
0.0420784 -0.145354 -0.269466 0.0178337 -0.177216 -0.98401
0.251875 0.430894 0.0119785 -0.263421 0.948563 -0.175607
0.46208 0.226742 0.173577 0.964516 0.262343 -0.0297544
0.0278114 0.391674 0.136235 -0.263421 0.948563 -0.175607
0.394051 0.264624 0.25589 -0.0178336 0.177216 0.98401
-0.118314 0.350194 0.185846 0.964516 0.26234 -0.0297668
0.527869 -0.0198234 0.132283 0.96452 0.262328 -0.0297613
0.405603 0.423958 0.0817068 0.96452 0.262326 -0.0297631
0.105187 0.402415 0.0781824 -0.263421 0.948563 -0.175607
-0.236755 0.21735 -0.156812 -0.964518 -0.262335 0.029764
0.208277 0.301122 -0.322896 -0.173656 0.545424 -0.819973
0.0638735 0.180101 0.265128 -0.0178337 0.177216 0.98401
0.519122 -0.00140364 0.0112103 0.964516 0.262341 -0.0297662
0.22588 0.3986 -0.123468 -0.263421 0.948563 -0.175607
0.151802 0.350106 -0.274296 -0.263421 0.948563 -0.175607
-0.11303 -0.225477 -0.0505246 -0.964516 -0.262341 0.0297661
0.405293 0.0836887 0.288679 -0.0178337 0.177216 0.98401
0.231408 -0.168613 -0.251642 0.198877 -0.796046 -0.571628
0.345693 0.481558 0.15419 -0.260928 0.964343 0.0442558
-0.107298 -0.238622 0.0193574 -0.964516 -0.262341 0.0297661
0.436178 0.290816 -0.101003 0.964516 0.262341 -0.0297662
-0.205023 0.276305 0.161032 0.256322 -0.903381 0.343806
-0.16949 -0.0966431 -0.0446564 -0.964516 -0.262341 0.0297664
-0.472138 -0.0430618 0.00160552 -0.264017 0.959154 -0.101583
0.0397835 -0.274027 -0.192799 0.964517 0.262339 -0.0297669
-0.0501472 0.316494 -0.152916 -0.263421 0.948563 -0.175607
0.423337 0.335393 -0.124222 0.964516 0.262341 -0.0297662
-0.0706106 -0.186711 -0.26406 0.0178337 -0.177216 -0.98401
0.494336 0.111125 0.199817 0.964516 0.262345 -0.0297444
0.333532 -0.0963663 -0.179991 0.21707 -0.852111 -0.476222
0.0761265 -0.167324 -0.17048 0.209308 -0.828476 -0.519439
0.229172 -0.208897 -0.0880701 0.263421 -0.948563 0.175607
-0.148881 0.00315528 0.29314 -0.0178337 0.177216 0.98401
0.549658 -0.199169 -0.0150327 0.994692 -0.0966058 0.0354256
0.128767 0.0830039 -0.309021 0.0178337 -0.177216 -0.98401
0.103679 -0.046379 0.306638 -0.0178336 0.177216 0.98401
-0.0915418 0.344279 0.0592634 -0.263421 0.948563 -0.175607
-0.248393 0.300709 0.200758 -0.964516 -0.26234 0.029765
0.379992 -0.0407018 0.251413 -0.166099 0.515279 -0.840773
0.406758 0.384594 -0.227804 0.964516 0.26234 -0.029766
0.0123168 -0.258204 -0.0291075 0.263421 -0.948563 0.175607
-0.0231149 -0.0539394 -0.287111 0.0178336 -0.177216 -0.98401
-0.168299 -0.0399141 -0.205995 -0.964516 -0.262341 0.0297661
-0.244201 0.259445 -0.027075 -0.964517 -0.262338 0.0297652
-0.222812 0.277299 -0.105626 -0.263421 0.948563 -0.175607
-0.490343 -0.0620984 -0.0216948 -0.185708 0.593953 -0.782772
-0.0399186 0.150226 -0.324185 0.0178337 -0.177216 -0.98401
0.524292 -0.00501072 0.14694 0.964515 0.262345 -0.0297678
-0.0012242 0.252581 -0.250198 0.22429 -0.873619 -0.431838
-0.0511431 0.306258 -0.206716 -0.263421 0.948563 -0.175607
0.270587 -0.0647332 -0.279844 0.0178337 -0.177216 -0.98401
-0.250765 0.290848 0.0369752 -0.964516 -0.262341 0.0297662
0.348054 0.167368 0.272572 -0.0178336 0.177216 0.98401
0.499949 0.0529398 -0.131105 0.964516 0.262341 -0.0297662
-0.146414 -0.116422 -0.278093 0.0178337 -0.177216 -0.98401
0.028914 -0.0356721 0.303355 -0.0178337 0.177216 0.98401
-0.0827213 0.227106 -0.242511 0.182985 -0.745479 -0.64092
0.107926 0.3605 0.149257 0.248746 -0.865116 0.435545
0.414435 -0.13934 0.0693389 -0.964516 -0.262341 0.0297663
-0.0765605 -0.164364 0.265793 -0.155664 0.473977 -0.866669
0.363659 0.449763 0.216186 -0.111443 0.506726 0.854874
-0.034466 0.33151 -0.0953276 -0.263421 0.948563 -0.175607
0.0959449 -0.255652 -0.140774 0.263421 -0.948563 0.175607
0.418805 -0.1774 -0.124504 -0.964516 -0.262341 0.0297663
-0.233588 0.141279 -0.024736 -0.964516 -0.262341 0.0297655
-0.168893 0.0640715 0.281806 -0.0178337 0.177216 0.98401
-0.106085 -0.224793 0.180514 -0.964516 -0.262341 0.0297661
0.426897 0.355014 0.164052 0.964516 0.262342 -0.0297599
-0.212697 0.111965 -0.306036 -0.964516 -0.262342 0.029766
-0.138847 -0.150828 -0.229162 -0.964516 -0.262341 0.0297662
0.287326 0.40757 -0.167189 -0.263421 0.948563 -0.175607
-0.222499 0.169408 -0.117386 -0.964516 -0.262341 0.0297661
0.323103 -0.0416751 0.256643 -0.0216288 -0.0338519 -0.999193
0.470927 -0.250848 -0.136835 0.0178337 -0.177216 -0.98401
-0.21456 0.148506 -0.0443745 -0.964516 -0.262341 0.0297662
0.131764 0.106906 0.279541 -0.0178336 0.177216 0.98401
-0.0412057 -0.113326 0.316069 -0.0178337 0.177216 0.98401
-0.117221 0.0232072 0.290102 -0.0178337 0.177216 0.98401
0.18586 0.406328 -0.0216912 -0.263421 0.948563 -0.175607
0.486184 0.119134 0.00625566 0.964516 0.262341 -0.0297662
0.0449822 0.334743 0.236713 -0.198877 0.796046 0.571628
0.0438627 0.394413 0.153229 -0.198877 0.796046 0.571628
-0.177535 0.239636 -0.307268 -0.21301 0.706583 -0.674809
-0.0553588 0.352313 0.0483793 -0.263421 0.948563 -0.175607
0.308671 0.33764 0.241193 -0.0178336 0.177216 0.98401
0.331329 0.443951 -0.0366787 -0.263421 0.948563 -0.175607
0.0874775 0.156628 0.269783 -0.0178337 0.177216 0.98401
0.0239688 0.379198 0.167495 -0.198877 0.796046 0.571628
0.289392 0.271369 -0.340034 0.0178337 -0.177216 -0.98401
0.00740558 0.199452 -0.332192 0.0178337 -0.177216 -0.98401
0.140583 0.394634 -0.0169402 -0.263421 0.948563 -0.175607
0.434263 0.332096 0.200775 0.964516 0.262341 -0.0297662
-0.0977802 -0.182481 0.248073 -0.264017 0.959152 -0.101598
-0.157694 -0.00765579 0.294927 -0.0178337 0.177216 0.98401
0.162516 0.117345 -0.314594 0.0178337 -0.177216 -0.98401
0.145158 0.371333 0.16748 0.230957 -0.892968 -0.386352
0.392898 -0.176566 -0.159029 0.263421 -0.948563 0.175606
0.429284 0.339369 0.103532 0.964516 0.26234 -0.0297654
0.459664 -0.168837 -0.151809 0.0178337 -0.177216 -0.98401
-0.265808 -0.0409351 -0.0305233 0.106853 -0.490955 -0.864607
0.407496 -0.169604 -0.143318 0.263421 -0.948563 0.175607
0.312458 -0.149007 -0.186109 -0.262894 0.943849 -0.200087
-0.129147 -0.170859 -0.0914 -0.964516 -0.262341 0.0297666
0.436852 0.314501 0.129601 0.964516 0.262341 -0.0297662
-0.24077 0.00487024 0.0266963 -0.130361 0.571232 0.810371
-0.0351629 0.286698 0.185705 -0.155662 0.473968 -0.866674
0.206349 -0.199403 -0.217482 0.198877 -0.796046 -0.571628
0.536199 -0.11988 0.220261 0.964516 0.26234 -0.0297661
-0.29333 -0.0631672 -0.0135032 0.230956 -0.892966 -0.386356
0.191723 0.104354 -0.311725 0.0178337 -0.177216 -0.98401
0.238781 -0.0438122 -0.284188 0.0178337 -0.177216 -0.98401
0.482695 0.110326 -0.184424 0.964516 0.262341 -0.0297662
0.548985 -0.193736 0.0186752 0.994692 -0.0966058 0.0354256
0.502766 0.0529754 -0.0395111 0.964516 0.262341 -0.0297662
-0.460561 -0.0399079 0.00872009 -0.258406 0.961108 0.097461
0.460166 0.22842 0.126357 0.964516 0.262341 -0.0297662
-0.0831279 0.340775 0.0277133 -0.263421 0.948563 -0.175607
0.328987 0.260685 0.25542 -0.0178336 0.177216 0.98401
0.0502566 -0.163582 0.275792 0.173656 -0.545424 0.819973
0.537233 -0.0543391 0.131503 0.964516 0.26234 -0.0297661
-0.132168 -0.121558 0.245216 -0.964516 -0.262341 0.0297677
0.232462 0.440521 0.0930981 -0.263421 0.948563 -0.175607
0.401596 0.450707 0.187604 0.96452 0.262326 -0.0297528
0.111023 0.00123114 0.298197 -0.0178336 0.177216 0.98401
-0.186624 0.0263206 -0.216013 -0.964516 -0.262341 0.0297661
-0.214284 0.120996 -0.277886 -0.964516 -0.262341 0.0297662
0.397312 0.432641 -0.110429 0.964516 0.262341 -0.0297661
0.514982 0.0130971 0.202392 0.0733371 -0.157899 0.984728
-0.141709 0.217597 -0.328155 -0.114322 0.31335 -0.942731
0.423303 0.355805 0.0545774 0.964516 0.262341 -0.0297662
0.149656 -0.0597762 0.309884 -0.0178336 0.177216 0.98401
-0.331928 -0.00553817 -0.00636109 -0.262894 0.94385 -0.200086
0.0572149 0.142882 -0.321102 0.0178337 -0.177216 -0.98401
-0.00914445 0.23243 -0.236109 0.0178332 -0.177215 -0.984011
0.397882 0.430549 -0.110403 0.964516 0.262341 -0.0297661
0.195112 -0.182283 -0.245232 0.198877 -0.796046 -0.571628
0.0156849 -0.0556362 -0.286102 0.0178337 -0.177216 -0.98401
0.00617921 -0.123856 -0.273988 0.0178337 -0.177216 -0.98401
0.357542 0.480696 0.122483 -0.263421 0.948563 -0.175607
-0.229118 0.132041 0.0386766 -0.964516 -0.262341 0.0297667
0.378828 -0.121961 -0.26532 0.198877 -0.796046 -0.571628
0.179561 0.405552 -0.0164349 -0.263421 0.948563 -0.175607
-0.116896 -0.207472 -0.0171329 -0.964516 -0.262341 0.0297661
0.520677 -0.0237659 -0.135518 0.964516 0.26234 -0.0297654
-0.245859 0.273345 0.0416903 -0.964516 -0.26234 0.0297661
0.456317 0.231391 0.0278391 0.964516 0.262342 -0.0297683
0.00192497 -0.280354 -0.133166 0.263421 -0.948563 0.175607
0.0578386 -0.140168 0.238368 -0.258405 0.961107 0.0974666
-0.178944 0.240066 0.153733 -0.182986 0.745484 0.640914
0.546432 -0.176432 0.129064 0.955814 -0.28581 0.0687959
-0.157659 -0.118445 -0.0966448 0.192244 -0.775096 -0.601887
0.203457 0.379194 0.137625 0.185709 -0.593957 0.782769
0.384767 0.437241 -0.153087 -0.263421 0.948563 -0.175607
0.0929148 0.347893 0.140173 0.17612 -0.555296 0.81279
0.313834 0.187397 -0.324468 0.0178337 -0.177216 -0.98401
0.0614166 0.368461 -0.0395644 -0.263421 0.948563 -0.175607
0.4481 -0.171607 -0.0573959 -0.964516 -0.262341 0.0297662
0.16593 0.203177 0.262822 -0.0178337 0.177216 0.98401
-0.225844 0.18579 -0.0814207 -0.964516 -0.26234 0.0297661
0.285487 -0.010986 0.303559 -0.0178336 0.177216 0.98401
0.390365 0.411435 -0.296586 -0.259257 0.919735 -0.294745
0.438145 0.267566 -0.242184 0.964517 0.262336 -0.0297868
0.429765 0.308701 -0.151173 0.964516 0.262341 -0.0297662
0.143526 -0.17693 0.213081 0.263421 -0.948563 0.175607
0.00812665 0.218622 -0.280796 -0.118749 0.531734 0.838545
0.0946502 -0.237648 -0.0415781 0.263421 -0.948563 0.175607
-0.144363 -0.125605 -0.185622 -0.964516 -0.262341 0.0297661
0.0356579 -0.138372 0.259106 -0.203469 0.666715 -0.717002
-0.113918 -0.231745 -0.134564 -0.964516 -0.262341 0.0297661
0.15478 0.375475 0.161497 0.255383 -0.955609 -0.146939
0.2956 -0.129711 0.240018 0.263421 -0.948563 0.175607
0.528697 -0.0284972 0.0826826 0.964523 0.262316 -0.0297556
0.434273 0.301389 -0.0695448 0.964516 0.262341 -0.0297662
0.0321624 -0.263411 -0.0870029 0.263421 -0.948563 0.175607
0.345802 -0.00567591 0.303695 -0.0178336 0.177216 0.98401
-0.0400778 -0.2966 -0.157913 0.263421 -0.948563 0.175607
-0.22246 0.326898 0.164703 -0.263623 0.963123 -0.0538295
0.11651 0.237098 -0.268724 -0.251727 0.947737 0.196032
0.0138744 -0.167127 0.308114 0.158556 -0.485388 0.859801
-0.172049 0.290356 -0.111245 -0.263421 0.948563 -0.175607
0.075376 -0.20906 0.141759 0.263421 -0.948563 0.175607
0.179984 0.34829 -0.285529 -0.173656 0.545424 -0.819973
0.0494247 0.327773 -0.241359 -0.263421 0.948563 -0.175607
0.378118 -0.0899629 -0.211321 0.194832 -0.631123 0.750815
0.440108 0.198823 0.268575 -0.0178337 0.177216 0.98401
-0.0982315 -0.272304 0.0162736 -0.964516 -0.262341 0.0297661
0.0205839 0.0677167 0.284584 -0.0178337 0.177216 0.98401
0.26398 0.404929 -0.146437 -0.263421 0.948563 -0.175607
0.401084 0.429604 0.226305 -0.0178336 0.177216 0.98401
-0.127493 -0.187186 -0.18172 -0.964516 -0.262341 0.0297661
-0.105344 0.346152 0.0900797 -0.263421 0.948563 -0.175607
0.444936 -0.142627 0.0954897 -0.964516 -0.262341 0.0297662
0.00263267 -0.0950203 0.313567 -0.0178338 0.177216 0.98401
0.142858 0.371215 0.151096 0.259159 -0.919164 0.296606
0.274625 0.455828 0.112533 -0.263421 0.948563 -0.175607
0.194709 0.158798 -0.321476 0.0178337 -0.177216 -0.98401
-0.100786 0.303107 -0.149271 -0.263421 0.948563 -0.175607
0.545587 -0.0953215 0.0410014 0.964516 0.26234 -0.0297661
0.0252758 -0.222133 0.146294 0.263421 -0.948563 0.175607
0.413669 0.350714 -0.302459 0.964515 0.262345 -0.0297648
