ply
format ascii 1.0
comment Created by Open3D
element vertex 100
property double x
property double y
property double z
property double nx
property double ny
property double nz
end_header
-0.365046 -0.0581299 0.0361626 0.0858885 -0.205154 0.974954
0.433025 -0.201236 0.122071 -0.263421 0.948563 -0.175607
-0.124338 -0.147886 0.266882 -0.964516 -0.262343 0.0297661
-0.108619 0.298394 -0.162976 -0.263421 0.948563 -0.175607
-0.111467 -0.234989 -0.0837362 -0.964516 -0.262341 0.0297661
-0.164084 -0.106927 0.0398794 -0.964516 -0.262342 0.0297623
0.543286 -0.108595 -0.150533 0.964516 0.262341 -0.0297662
0.435512 -0.0687063 -0.206415 0.244022 -0.84272 0.47987
-0.0376318 0.075921 -0.310761 0.0178337 -0.177216 -0.98401
0.107345 -0.172124 -0.263462 0.0178337 -0.177216 -0.98401
0.139478 0.283152 -0.320279 -0.173656 0.545424 -0.819973
0.138538 -0.232097 -0.0774272 0.263421 -0.948563 0.175607
-0.160155 0.248197 -0.303567 -0.22041 0.737989 -0.637802
-0.140931 -0.132737 -0.13728 -0.964516 -0.26234 0.029765
0.0207556 0.192333 0.262144 -0.0178337 0.177216 0.98401
0.504811 0.0416144 -0.0733983 0.964516 0.262341 -0.0297662
0.312284 -0.18441 -0.0804681 0.263421 -0.948563 0.175607
0.109299 -0.208512 0.0938326 0.263421 -0.948563 0.175607
0.526276 -0.0213462 0.0672616 0.964516 0.262341 -0.0297662
0.22878 0.138364 0.275634 -0.0178336 0.177216 0.98401
-0.156184 -0.0417269 0.170594 -0.964516 -0.262341 0.0297661
0.424934 0.354593 0.0967642 0.964517 0.262339 -0.0297635
0.351747 0.0270934 0.297902 -0.0178336 0.177216 0.98401
0.375586 0.177128 0.271313 -0.0178336 0.177216 0.98401
0.481793 0.138882 0.0380076 0.964516 0.262341 -0.0297662
0.457666 0.207633 -0.137839 0.964516 0.262341 -0.0297662
-0.0255748 0.374991 0.156116 -0.198877 0.796046 0.571628
0.531522 -0.0161083 0.283398 0.964517 0.262338 -0.029767
-0.0494489 -0.0346508 0.30175 -0.0178337 0.177216 0.98401
0.499192 0.0883575 0.156518 0.964516 0.262341 -0.0297662
0.376259 0.415548 -0.257503 -0.263421 0.948563 -0.175607
0.332372 0.466451 0.0832934 -0.263421 0.948563 -0.175607
-0.176591 0.045616 0.279148 -0.964516 -0.262341 0.0297661
0.214988 0.0324348 -0.298351 0.0178337 -0.177216 -0.98401
0.443173 0.275738 -0.0072296 0.964516 0.262341 -0.0297662
0.0166881 -0.178134 0.299978 0.196695 -0.638766 0.743834
0.488842 0.087623 -0.18534 0.964516 0.262341 -0.0297662
0.160408 0.146514 -0.319886 0.0178337 -0.177216 -0.98401
-0.0270924 -0.235994 0.149979 0.263421 -0.948563 0.175607
-0.215498 0.123667 -0.293667 -0.964516 -0.26234 0.029766
-0.205392 0.139497 0.173294 -0.964516 -0.262341 0.0297662
0.343307 -0.115682 0.244238 0.263421 -0.948563 0.175607
0.297909 0.280684 0.251255 -0.0178336 0.177216 0.98401
0.0709662 -0.260241 -0.17986 0.198877 -0.796046 -0.571628
0.326178 -0.147078 0.100341 0.263421 -0.948563 0.175607
0.509597 -9.16223e-05 -0.285894 0.964516 0.262341 -0.0297663
0.459297 0.232976 0.138358 0.964516 0.262341 -0.0297662
-0.164211 0.310586 0.229524 -0.134369 0.584786 0.799981
0.472177 0.135458 -0.303748 0.964516 0.262341 -0.0297663
-0.248076 0.316564 0.144367 -0.263421 0.948563 -0.175607
0.44457 -0.0195533 0.206232 -0.069678 0.361664 0.929701
0.134592 0.377951 -0.0980712 -0.263421 0.948563 -0.175607
0.453977 -0.19254 -0.051455 -0.964516 -0.262341 0.0297662
0.307808 0.341774 -0.341392 -0.114321 0.313343 -0.942734
0.186775 -0.0247432 0.304247 -0.0178336 0.177216 0.98401
0.231075 -0.224152 -0.174413 0.198877 -0.796046 -0.571628
-0.225101 0.118743 0.0516601 -0.964516 -0.26234 0.0297651
-0.0624104 -0.305347 -0.178566 0.262591 -0.964895 0.00479314
0.495745 0.115149 0.280952 0.964516 0.262341 -0.0297662
-0.180516 -0.0154889 0.148817 0.060603 -0.11025 0.992055
-0.0557336 -0.0536141 -0.28776 0.0178336 -0.177216 -0.98401
0.0834601 0.00495629 -0.295786 0.0178337 -0.177216 -0.98401
0.0633395 0.330396 0.238051 -0.0178337 0.177216 0.98401
0.527329 -0.0254907 0.0648488 0.964516 0.262341 -0.0297662
-0.241867 0.253983 -0.202986 -0.263421 0.948563 -0.175607
-0.248497 0.273515 -0.0422696 -0.964516 -0.262341 0.0297662
0.411097 0.418769 0.213991 0.964516 0.262341 -0.0297662
0.226965 0.138872 0.275509 -0.0178336 0.177216 0.98401
0.0443189 0.0713436 0.284361 -0.0178337 0.177216 0.98401
0.154144 0.270258 0.250527 -0.0178337 0.177216 0.98401
-0.103233 -0.197096 -0.262781 0.0178337 -0.177216 -0.98401
-0.104865 -0.244823 0.043533 -0.964517 -0.262339 0.0297661
0.130081 0.415498 0.153862 -0.198877 0.796046 0.571628
0.00412001 0.335189 -0.133337 -0.263421 0.948563 -0.175607
-0.208396 0.0359234 -0.136957 -0.964516 -0.262341 0.0297661
0.250401 0.288134 -0.245541 -0.133656 0.387922 -0.91195
-0.181671 0.00298952 -0.26116 -0.964516 -0.262341 0.0297661
0.260427 0.414248 0.200951 -0.198877 0.796046 0.571628
0.429649 0.263737 -0.336117 0.0178337 -0.177216 -0.98401
0.00388155 -0.256696 -0.00830779 0.263421 -0.948563 0.175607
-0.0861172 0.131747 0.271118 -0.0178338 0.177216 0.98401
0.289198 0.210616 -0.329096 0.0178337 -0.177216 -0.98401
0.094209 0.344348 -0.219005 -0.263421 0.948563 -0.175607
-0.062617 0.342406 0.00575569 -0.263421 0.948563 -0.175607
-0.496135 -0.0820223 -0.001601 -0.964516 -0.262341 0.0297663
0.228254 -0.187133 0.0308731 0.263421 -0.948563 0.175607
-0.273146 0.0112082 -0.00287825 -0.263594 0.963237 -0.0518867
0.292581 -0.111535 -0.207156 0.211606 -0.700673 0.681381
0.343626 0.0584842 -0.300711 0.0178337 -0.177216 -0.98401
-0.0748157 0.262938 0.16731 -0.263594 0.963237 -0.0518824
0.284051 0.428085 -0.0514638 -0.263421 0.948563 -0.175607
0.543822 -0.191076 0.0798658 0.704571 -0.696061 0.138127
0.268002 0.430642 0.214335 -0.145356 0.621737 0.76962
0.406938 0.398866 -0.0961843 0.964516 0.26234 -0.029766
-0.00266961 0.209144 -0.274532 -0.192246 0.775099 0.601883
0.0774008 0.386424 0.0334903 -0.263421 0.948563 -0.175607
0.447476 -0.230373 -0.0569991 -0.263421 0.948563 -0.175607
0.213329 -0.160975 0.194553 0.263421 -0.948563 0.175607
-0.250937 0.285197 -0.0183736 -0.964516 -0.262341 0.0297662
0.541458 -0.13945 0.218193 0.964516 0.26234 -0.0297661
