ply
format ascii 1.0
comment Created by Open3D
element vertex 100
property double x
property double y
property double z
property double nx
property double ny
property double nz
end_header
-0.00519615 -0.255262 0.00522983 0.213233 -0.955745 0.202692
0.420641 0.357739 -0.0265871 0.98226 0.185043 0.0303954
-0.106676 -0.135722 0.235046 0.25169 -0.877777 0.407626
-0.0964627 0.202717 -0.327192 0.97356 0.228364 -0.00551815
-0.0631577 0.235697 -0.307882 -0.161767 0.543044 -0.823975
0.298993 -0.198165 -0.12827 0.2353 -0.94991 0.205684
0.262038 0.0708851 -0.302922 0.0770219 -0.217577 -0.972999
0.428246 0.351277 0.166047 0.962413 0.267829 -0.0450505
0.0233365 0.274148 -0.304528 -0.213339 0.557559 -0.802256
0.418355 0.307246 0.248462 -0.0230518 0.194453 0.980641
-0.176283 -0.0659166 0.0214461 -0.966327 -0.25651 0.0203775
0.492891 -0.0136821 0.301481 0.119397 -0.235947 0.964403
-0.158912 0.207815 0.255306 -0.00469563 0.101914 0.994782
-0.220252 0.172812 0.00671868 -0.959487 -0.279185 0.0379646
0.417563 0.351142 -0.178565 0.970006 0.243076 -0.00147291
0.0197969 0.289207 0.168198 -0.311042 0.94544 -0.0969305
-0.0368687 0.376776 0.150811 -0.271064 0.949097 -0.160435
-0.169497 0.0100019 0.212896 -0.973726 -0.226156 0.0266736
0.43075 0.32285 0.0308629 0.980751 0.194169 -0.0206293
-0.163806 -0.104758 0.0946791 -0.964312 -0.263034 0.0302417
-0.210857 0.0508664 -0.124999 -0.959984 -0.278056 0.0333894
-0.0584775 -0.0735429 0.3088 -0.100896 0.200587 0.974467
0.12124 0.409441 0.086763 -0.255369 0.946579 -0.196916
0.263624 0.193776 -0.325748 -0.0324299 -0.114594 -0.992883
-0.173511 0.157907 0.262788 -0.000288892 0.133715 0.99102
0.461798 -0.107617 -0.187706 -0.216169 0.929796 -0.29791
0.402845 0.432564 0.0494261 0.969024 0.245511 -0.0267837
-0.0427644 -0.240179 0.161061 0.196148 -0.962455 0.187636
0.0356892 0.35713 -0.0522249 -0.252564 0.950585 -0.180553
-0.147833 -0.116938 -0.196023 -0.969569 -0.244054 0.0193127
-0.024305 -0.219844 0.223706 0.244188 -0.949298 0.198004
0.0201241 0.370711 0.0451042 -0.230199 0.95423 -0.19093
-0.126238 -0.0957171 0.313891 -0.0545273 0.203041 0.977651
0.417981 0.145275 0.275147 0.0852431 0.169242 0.981881
-0.14553 0.330474 0.0812627 -0.266393 0.949958 -0.16314
0.169379 0.362632 0.134207 0.163708 -0.379483 0.9106
0.436509 0.29937 -0.0121538 0.967253 0.253638 -0.0094707
0.306005 0.323757 -0.345025 -0.0758789 0.139434 -0.98732
0.447886 0.250255 -0.119618 0.958338 0.284712 -0.0229644
-0.101685 -0.278648 -0.120378 -0.96798 -0.249647 0.0262924
0.396543 0.432902 -0.135397 0.938707 0.34221 -0.0414857
0.151073 0.042364 0.290778 -0.0157186 0.131416 0.991203
-0.18048 0.0463556 0.196672 -0.959125 -0.27797 0.0530287
0.475269 -0.209801 0.0878043 0.236806 -0.951533 0.196234
0.505001 0.0217223 -0.251094 0.94887 0.30966 -0.061294
0.0987765 0.0886185 -0.308681 0.0710974 -0.20328 -0.976536
0.218839 0.393647 0.159304 0.257415 -0.963396 -0.074866
-0.232191 0.317792 0.205401 -0.232168 0.87333 0.428244
0.00665882 -0.238268 0.0820251 0.25419 -0.943643 0.211958
0.350952 0.227359 -0.331709 0.0293215 -0.0850284 -0.995947
0.348812 -0.0922372 0.260262 0.167939 -0.528063 0.832434
0.437159 -0.208 0.154824 0.275391 -0.947369 0.163252
-0.210615 0.11631 -0.262785 -0.967194 -0.253315 0.0191849
-0.223045 0.180145 -0.0833284 -0.980602 -0.193266 0.0326828
-0.0387384 0.242173 -0.247074 0.194471 -0.837161 -0.511217
-0.283301 -0.0618882 -0.00250611 0.267569 -0.957695 -0.105961
0.334614 -0.193979 -0.16962 0.374975 -0.917121 0.135215
0.359646 0.476336 0.0990161 -0.275236 0.947229 -0.164324
0.476477 0.150425 -0.0282616 0.966959 0.254018 -0.0215686
0.52312 -0.141396 -0.161084 0.236505 -0.952819 0.190265
0.23357 0.205619 0.262766 -0.0190381 0.14906 0.988645
0.435242 -0.139975 0.0887421 0.272645 -0.950328 0.150136
0.387085 0.434422 -0.171495 -0.241642 0.950167 -0.196954
-0.218259 0.173054 0.0678896 -0.968972 -0.247163 0.00177715
-0.209893 0.234488 -0.300795 -0.18369 0.744279 -0.642111
0.18304 0.228208 -0.334276 0.0201478 -0.197755 -0.980044
0.298549 0.384486 -0.301093 -0.262163 0.894289 -0.362653
-0.11687 0.294461 -0.172282 -0.257107 0.949451 -0.18011
0.504697 -0.193083 0.139852 0.249416 -0.951021 0.182622
-0.197463 0.274586 0.154469 0.238828 -0.771611 0.589558
0.42248 0.320552 -0.265604 0.961547 0.273506 -0.0249409
-0.100794 -0.238747 0.165696 -0.956728 -0.285648 0.0554683
-0.216096 0.151868 -0.11931 -0.971274 -0.236197 0.0289631
-0.0866871 -0.267055 0.0715955 0.29629 -0.943385 0.14912
-0.196091 0.16203 -0.330189 0.11767 -0.194793 -0.973761
-0.0256196 0.325427 -0.131129 -0.278489 0.957434 -0.0759229
0.514903 -0.228331 -0.0674304 0.25819 -0.947889 0.186665
0.289736 0.457595 0.0999244 -0.25804 0.948864 -0.181859
0.219156 -0.175332 -0.246037 0.200382 -0.798064 -0.568279
0.455285 -0.0941887 -0.218404 -0.0293608 0.286847 0.957526
0.0213405 -0.14648 0.293084 0.161033 -0.538451 0.827127
0.252626 0.253427 0.254814 0.0121959 0.10171 0.994739
0.255351 0.125723 0.278516 -0.0154982 0.172944 0.98481
0.528002 -0.0469514 -0.110093 0.961742 0.270238 -0.04498
0.236613 -0.159759 0.153879 0.266981 -0.95409 0.135767
-0.23242 0.246932 -0.258669 -0.309088 0.939702 -0.146372
0.169183 -0.235067 -0.180661 0.189279 -0.812454 -0.551446
0.494972 0.0516021 -0.256028 0.953101 0.297612 -0.0550071
0.413109 0.355895 -0.299189 0.963938 0.2644 -0.0302707
0.00543395 0.297019 0.182227 -0.231228 0.534177 -0.813135
0.207378 0.384348 0.171187 0.203316 -0.786247 -0.583506
-0.0733254 0.192829 -0.241556 -0.171706 0.615414 -0.769274
0.389933 -0.171452 -0.131834 0.275434 -0.946191 0.169877
0.5032 0.0295325 -0.216395 0.976713 0.214526 -0.00334258
-0.212157 0.0774672 0.0571736 -0.97676 -0.210214 0.0418329
0.488914 -0.0207854 0.215074 -0.196661 0.850523 0.487786
-0.225207 0.10617 -0.0698215 -0.959456 -0.278686 0.0421726
0.227712 0.2266 0.26073 -0.0551057 0.218576 0.974263
0.458788 0.18698 -0.255482 0.960633 0.275091 -0.0388457
0.0994172 -0.150861 -0.266908 0.0105739 -0.257974 -0.966094
