ply
format ascii 1.0
comment Created by Open3D
element vertex 100
property double x
property double y
property double z
property double nx
property double ny
property double nz
end_header
-0.124943 -0.167528 0.125653 -0.944203 -0.32745 0.035465
-0.20086 0.197225 -0.255888 0.261532 -0.939869 -0.219653
-0.0522837 0.318272 -0.152134 -0.229822 0.931908 -0.280587
0.103661 -0.194989 0.172807 0.263444 -0.948577 0.175495
0.315289 0.196148 0.265758 0.0348323 0.171171 0.984625
0.282478 0.461693 0.115689 -0.280797 0.947642 -0.152081
0.326716 0.133063 -0.316198 0.0125852 -0.206116 -0.978447
0.223243 -0.206433 -0.044878 0.304857 -0.93936 0.157048
0.281574 0.281837 -0.277762 -0.174145 0.947271 0.268983
-0.0276789 -0.259321 0.0305163 0.264455 -0.950968 0.160385
0.452304 0.233814 -0.0740896 0.969443 0.244597 -0.0187628
0.203054 0.083249 -0.310277 0.0279486 -0.186168 -0.98212
-0.218897 0.0858609 0.041861 -0.963498 -0.26571 0.0327022
-0.0865734 0.295188 0.146054 0.220205 -0.53614 0.814901
0.237763 0.0962971 0.282097 -0.0412896 0.213601 0.976048
-0.194469 -0.0159784 -0.15349 -0.94734 -0.310842 0.0769706
-0.0867229 -0.300041 -0.100128 0.259509 -0.944694 0.20052
0.535311 -0.0335893 0.146092 0.985417 0.169856 -0.0101369
-0.194136 0.0478552 -0.266628 -0.999436 -0.0333741 -0.00377974
0.421013 -0.0376669 0.218144 -0.228197 0.808859 0.541916
0.295509 0.317966 0.245077 -0.068654 0.211551 0.974953
0.369737 -0.127616 0.132789 0.0496434 -0.958626 0.280307
0.483725 0.168376 0.265257 0.973109 0.230329 0.00272723
-0.0546259 -0.234378 0.195729 0.329769 -0.930638 0.158636
0.24245 -0.168933 0.119956 0.364393 -0.927988 0.0778158
-0.230002 0.272901 -0.126514 -0.321218 0.935764 -0.14548
-0.497659 -0.0679232 0.00119368 -0.975976 -0.217525 0.0123715
0.16028 0.238258 -0.337254 -0.0235029 -0.122217 -0.992225
0.187775 0.389503 -0.114228 -0.243186 0.922332 -0.300273
-0.0941514 -0.169997 0.321704 0.141866 -0.097497 0.985073
0.453638 -0.190186 0.23146 -0.105005 0.225987 0.968454
-0.17863 -0.0434672 0.0705389 -0.959443 -0.269137 0.0838731
-0.000231528 -0.205369 -0.156229 0.110943 -0.271402 -0.95605
-0.202062 0.127567 0.146818 -0.952819 -0.3017 0.033368
0.105892 -0.164758 -0.266015 -0.0791249 0.0204058 -0.996656
0.134637 0.346981 -0.259335 -0.368843 0.921957 -0.118113
-0.0252245 0.237294 0.253618 0.0571646 0.106038 0.992718
0.10661 -0.0378355 0.307532 0.105035 0.0891979 0.99046
0.0348348 -0.152755 0.287539 0.187508 -0.549303 0.814314
0.333442 -0.0967246 -0.186765 0.283392 -0.916797 -0.281375
-0.136951 -0.168587 -0.174635 -0.994526 -0.1021 -0.0222031
0.0878367 0.0595129 -0.303316 -0.0452025 -0.109697 -0.992937
-0.227691 0.215729 0.0121356 -0.971147 -0.165002 -0.172184
0.304176 0.403875 -0.214697 -0.246725 0.952285 -0.179667
0.417192 0.362057 -0.187542 0.908222 0.405095 -0.105026
0.347281 0.0380343 0.292613 0.134807 0.140964 0.980794
0.305421 -0.00448404 -0.289086 0.00834146 -0.266339 -0.963843
0.476766 0.115638 -0.26217 0.900658 0.397093 0.176445
0.473048 0.167492 0.0535205 0.936083 0.343021 -0.0780066
-0.243763 -0.0117265 -0.0384385 -0.0025255 -0.107896 -0.994159
-0.0566561 0.350015 0.0212013 -0.246496 0.950474 -0.189312
-0.165738 -0.0107995 0.194263 -0.970783 -0.23992 0.00438188
0.401589 0.386202 -0.324539 0.920889 0.371868 -0.116953
0.396456 0.442136 -0.0913807 0.952994 0.302126 -0.0228561
0.447245 0.281985 0.22513 0.966447 0.255515 -0.0263065
0.420315 -0.16832 -0.171824 0.291514 -0.947236 0.133281
0.201004 0.386922 0.217526 -0.196261 0.782614 0.590759
0.429456 0.216683 -0.328531 0.104796 -0.296373 -0.949306
-0.0865718 -0.270817 -0.245794 0.135243 -0.595903 -0.791586
0.0791232 0.311183 0.146994 -0.145488 0.747979 0.647581
0.0396636 0.219921 -0.272645 -0.15275 0.874333 0.460662
0.329189 0.430671 0.218472 -0.187717 0.470166 0.862384
-0.0886876 0.259598 -0.290946 -0.246432 0.658549 -0.711044
0.272896 -0.209466 -0.161004 0.274836 -0.949614 0.150662
-0.214548 0.122425 -0.0898531 -0.25161 0.818687 -0.516182
-0.0815797 0.1422 -0.327466 0.0387754 -0.202183 -0.97858
0.364738 -0.160661 -0.0317928 0.302196 -0.951217 0.0621546
0.0558003 0.374568 0.188493 -0.223309 0.761075 0.609014
0.153172 0.416604 0.0848524 -0.288633 0.945617 -0.15
-0.025585 -0.131549 -0.277522 0.0270222 -0.241203 -0.970098
0.504634 0.0830021 0.189539 0.954799 0.29311 -0.0494543
0.475997 -0.208903 0.0982322 0.11487 -0.964198 0.239012
0.037833 -0.0467903 -0.287719 -0.0294575 -0.168212 -0.985311
0.223659 -0.0522713 0.257275 0.192269 -0.482819 -0.854353
0.430142 0.330272 0.112501 0.985132 0.164069 0.0509572
-0.115737 -0.0262189 -0.296773 0.0170734 -0.165958 -0.985985
0.490562 0.104862 -0.0831944 0.982665 0.143775 0.117042
0.504832 -0.230808 -0.0558509 0.364919 -0.92424 0.112315
0.290567 0.435206 0.000993743 -0.238292 0.939023 -0.247895
0.538031 -0.0835185 -0.0170893 0.954227 0.295928 -0.0433267
0.505894 -0.00509666 0.29816 0.0840846 -0.180852 0.979909
0.0563999 0.36825 -0.0339323 -0.305379 0.943105 -0.131519
0.342319 -0.115332 0.247963 0.200135 -0.622813 0.75634
-0.147329 -0.0407539 0.303779 -0.0249323 0.17944 0.983453
0.541436 -0.114862 -0.194312 0.958479 0.279598 -0.0560533
0.408236 -0.106177 -0.271727 0.142441 -0.306112 -0.941279
-0.244296 0.275446 0.114426 -0.967784 -0.250154 0.0285785
-0.15495 0.314587 -0.0110991 -0.23347 0.953739 -0.189401
-0.163001 0.297327 0.234069 -0.0737017 0.548773 0.832716
-0.186811 0.158826 0.26442 -0.192139 0.251664 0.94855
0.394596 0.467987 0.0624617 0.944803 0.323115 -0.0542578
0.42433 0.345847 -0.0135529 0.946277 0.318241 -0.0572832
0.146164 0.219799 0.262411 0.00941764 0.153665 0.988078
0.0479489 0.105138 0.280037 -0.01863 0.214189 0.976615
0.501047 -0.00424865 -0.286919 0.007352 -0.367664 -0.92993
0.0969949 -0.251773 -0.179739 0.207277 -0.822244 -0.530048
0.239428 -0.128947 -0.268207 -0.0482958 -0.171706 -0.983964
-0.13335 -0.155331 -0.0359518 -0.978464 -0.205623 -0.0180777
-0.0632925 0.0521347 0.287441 -0.0263632 0.293688 0.955538
-0.36582 -0.0445666 0.0353596 0.0356835 0.0346614 0.998762
