ply
format ascii 1.0
comment Created by Open3D
element vertex 834
property double x
property double y
property double z
property double nx
property double ny
property double nz
end_header
0.119156 -0.0863495 -0.167958 -0.58241 0.294369 0.757724
0.136191 0.245035 0.523476 -0.10855 -0.372284 0.921749
-0.195585 0.145004 -0.00215935 -0.934559 -0.00176924 -0.355803
-0.186693 0.157743 0.258843 -0.978344 0.123198 0.166326
0.597702 0.338643 -0.0576422 0.0378615 0.889969 0.454447
0.43554 0.237546 -0.0685743 -0.772315 0.34766 0.531659
0.314118 0.00397448 0.402154 0.682411 -0.493943 0.538827
0.461788 0.0913023 0.0831474 -0.60106 -0.08215 0.79497
0.191014 -0.231303 0.286732 -0.564776 0.333266 -0.754958
-0.203127 0.195518 0.0206885 -0.79564 0.328116 -0.509212
0.0831055 0.393512 -0.195933 0.582329 -0.143554 0.800178
-0.142773 -0.141093 -0.0807797 -0.75739 0.0218051 -0.652599
0.449361 0.0687841 0.0632915 -0.604362 -0.00682488 0.796681
-0.124266 -0.244784 -0.0188934 0.877365 0.0473356 0.477482
0.109252 0.519275 -0.268509 -0.409704 0.0944341 -0.907318
-0.215704 -0.00645178 0.0946477 -0.978396 -0.180356 0.101057
0.436818 0.126246 -0.105908 0.712527 -0.681793 -0.16572
-0.0269033 -0.00778786 -0.146271 0.407357 -0.0363515 0.912545
-0.125187 0.153615 -0.00818572 0.854159 -0.0435946 0.518181
0.397069 0.00564838 0.283095 0.896158 -0.400032 0.192031
-0.266161 0.616977 0.212565 0.101379 -0.364616 0.925623
0.27633 0.493247 -0.314061 0.650063 -0.0934597 -0.754111
0.171322 -0.191155 0.382773 0.128174 -0.372158 0.919277
0.206158 -0.196635 0.276396 -0.617088 0.486689 -0.618333
0.215721 0.0106318 -0.155632 -0.313488 -0.107402 0.943499
0.44292 0.395424 -0.157539 -0.440324 0.305764 0.84417
0.409159 0.112431 0.354502 0.864853 -0.450675 0.22118
0.129452 -0.409156 -0.184893 -0.510532 0.00728721 0.859828
0.169085 0.349676 -0.268987 -0.0806654 0.0242629 -0.996446
-0.0844381 0.30036 0.456891 -0.697483 -0.125321 0.705558
0.135983 0.26731 0.480771 -0.0412335 0.485922 -0.873029
-0.157633 0.355397 0.0287116 0.998322 -0.0164766 0.0555105
0.362549 0.121498 0.444848 0.530741 -0.604673 0.593873
0.397107 0.00750472 0.202183 -0.576091 0.452581 -0.680654
-0.185688 0.569227 0.241978 0.537455 0.563864 0.627056
0.143084 -0.494111 -0.177129 -0.60387 -0.00847492 0.797038
-0.214701 0.134904 0.13915 -0.990388 -0.0722455 0.117946
0.358778 -0.196018 0.0717638 -0.693149 0.381659 -0.611458
-0.0390969 -0.329254 -0.197559 -0.486266 0.127929 -0.864395
0.285616 0.0580766 -0.126621 -0.594904 0.498983 0.630163
0.241797 -0.378556 -0.100736 -0.643729 0.23512 0.728238
0.350605 -0.0323464 -0.125837 0.648912 -0.307633 -0.695899
0.463863 0.0535843 0.0266038 0.906578 -0.402061 -0.128308
-0.0833626 0.311923 0.371059 0.746427 0.242679 -0.619639
-0.135603 0.358239 0.407528 -0.753875 -0.267745 0.599987
-0.203652 0.489275 0.029888 -0.855663 0.184191 -0.483648
-0.0475352 0.10968 0.324727 0.795042 0.0527288 -0.604259
0.441972 -0.0168285 0.13068 -0.809226 0.474521 -0.346385
-0.0176559 -0.592891 0.196241 -0.304648 0.419828 -0.854947
0.219544 -0.320762 0.234825 0.728784 -0.50482 0.462634
0.133832 0.470836 -0.216599 0.246134 -0.0352834 0.968594
-0.176323 -0.425432 0.0118299 -0.0515692 -0.736653 -0.674302
-0.173498 -0.360311 0.145393 -0.904426 0.239056 0.353362
0.166888 -0.193109 -0.128355 -0.459002 0.234618 0.856896
0.113282 0.325935 -0.207652 0.304544 -0.0688413 0.950007
0.300505 0.260685 0.537564 0.663513 0.569514 0.485185
-0.190912 0.273823 0.00430797 -0.932185 -0.0191794 -0.361474
0.287772 -0.249428 0.209926 0.564796 -0.578767 0.588247
0.112857 -0.390128 0.249997 -0.710909 0.477269 -0.516548
-0.00214735 -0.460948 0.241217 0.224626 0.258744 -0.939465
-0.0181279 -0.556313 0.212522 -0.00737336 0.356457 -0.934283
-0.110208 0.518464 -0.0242317 0.724714 -0.168137 0.668221
0.145875 -0.283306 0.287947 -0.725127 0.435577 -0.533352
0.0936273 -0.107197 0.333664 0.564841 0.0455736 -0.82394
0.316831 0.0155265 -0.165797 0.610305 -0.320361 -0.724498
-0.15076 0.243838 0.0715718 0.951817 -0.0261351 0.30555
-0.0902489 0.390791 -0.149504 -0.671359 0.0172053 -0.740933
0.34991 0.154562 0.334051 0.396278 0.323758 -0.859154
-0.158431 0.202976 -0.0634211 -0.763772 0.0537324 -0.643246
0.0671564 -0.25491 -0.157494 -0.437482 0.380407 0.8148
-0.0853455 -0.486262 0.193678 0.527739 0.0979032 -0.843745
0.254722 0.436908 -0.21896 0.264014 -0.118135 0.957257
-0.190138 0.444284 0.412133 -0.47431 -0.095849 0.875124
-0.0649936 -0.198081 -0.109282 0.676059 -0.0190569 0.736601
-0.167028 -0.513638 0.179379 -0.644103 0.0318008 0.764278
0.309577 0.513658 -0.233382 0.355559 0.884909 0.300854
-0.137443 0.270047 -0.0994838 -0.869615 -0.00142491 -0.493728
-0.182599 0.000621982 -0.0212532 -0.921331 0.00294993 -0.388767
-0.163137 -0.377462 0.183559 -0.851877 0.23484 0.46814
-0.0890303 0.1693 0.308579 0.738165 0.294839 -0.606781
0.489287 0.163718 -0.0351965 0.861213 -0.456816 -0.22278
0.307163 -0.160942 -0.0330435 -0.644422 0.172067 0.745059
-0.114155 -0.224983 -0.0564854 0.667222 0.0708712 0.74148
-0.0287583 0.431094 -0.205629 -0.552599 0.00839999 -0.833405
-0.0800249 0.443892 -0.154328 -0.598261 -0.0438675 -0.8001
0.118845 -0.36397 0.307717 0.277883 -0.22973 0.932741
0.390685 -0.16292 0.126293 0.767661 -0.457697 0.448564
0.559753 0.297997 -0.107219 0.691629 -0.158275 -0.704698
-0.167017 -0.392814 -0.0274867 -0.0637874 -0.725362 -0.685406
0.293778 -0.143437 0.292408 0.702136 -0.474296 0.531082
0.231955 -0.258933 0.267093 0.785366 -0.43259 0.442794
0.322954 0.211574 0.587971 0.764195 -0.459374 0.452748
0.171084 0.00401088 0.386676 0.748155 -0.165329 -0.642597
0.300421 -0.152991 -0.122262 0.521714 -0.229719 -0.82161
0.330117 0.0818091 0.434845 0.621298 -0.478067 0.620838
0.25648 -0.510428 -0.115819 0.803569 -0.0320638 -0.594347
0.122622 0.112985 -0.24977 0.136456 -0.17384 -0.975274
-0.000814002 0.217495 -0.222683 -0.342608 -0.00848178 -0.93944
-0.210345 -0.177481 0.0678563 -0.997757 -0.0369683 0.0558035
0.134866 -0.322727 0.259142 -0.818154 0.454782 -0.351848
0.15903 -0.263333 -0.14007 -0.179518 -0.284799 0.941628
0.0561485 -0.280272 0.339836 -0.331563 0.0602592 0.941507
0.258106 0.0908998 0.433978 0.013234 0.246881 -0.968956
0.338461 -0.141944 -0.0959419 0.674823 -0.241423 -0.697373
0.185916 0.178293 0.5094 0.0641768 -0.48968 0.869537
-0.216904 0.528924 0.0850306 -0.963984 0.0372838 -0.263332
-0.049219 -0.593267 0.198112 0.181797 0.33111 -0.925914
0.21232 0.109253 0.434734 0.578346 0.0315379 -0.815182
0.32444 0.180886 0.537615 0.773859 -0.489421 0.402007
0.614313 0.271668 0.0763539 0.235272 0.265333 -0.935011
0.32556 0.142639 0.308541 0.662431 0.729889 -0.168665
0.325735 -0.282816 -0.00307821 -0.931676 0.273651 0.238944
0.266046 -0.0343829 -0.175559 0.392322 -0.164653 -0.904971
0.0835317 -0.146502 0.316873 0.538731 0.285304 -0.792698
0.147639 -0.568529 -0.165037 -0.695132 0.259912 0.670252
-0.0286705 -0.109777 0.338205 -0.586562 -0.285741 0.757824
-0.208541 0.187506 0.0475469 -0.776008 0.144246 -0.614007
0.258181 0.340133 -0.254356 0.281615 -0.241051 -0.928756
-0.0573014 0.392655 0.435638 0.432919 0.840106 -0.326806
0.196598 -0.331027 -0.131832 -0.737477 0.160601 0.655999
0.29645 -0.262224 0.175496 0.730821 -0.493075 0.471993
0.27943 0.42467 -0.262849 0.307631 -0.210481 -0.927934
0.238866 -0.0765556 0.359427 -0.411046 0.446535 -0.794763
-0.0311791 0.469672 -0.199494 -0.630108 0.0411788 -0.775415
0.242189 -0.590078 -0.0947165 0.936534 -0.346182 -0.0553409
0.189256 0.252191 0.479912 0.130178 0.895216 -0.426196
-0.215008 -0.443003 0.102186 -0.932403 0.336798 0.131119
-0.0933482 -0.401872 0.182913 0.561491 0.100371 -0.821373
-0.068669 -0.0893448 -0.181227 -0.703048 0.0350999 -0.710276
-0.197693 -0.288361 0.0715182 -0.997729 -0.00569553 0.0671088
0.504825 0.267148 -0.086814 0.791942 -0.136789 -0.595077
-0.0146022 0.31928 0.520491 -0.215511 -0.543546 0.811241
0.122856 -0.557558 0.129546 -0.223912 -0.880851 -0.417091
0.348716 -0.346151 0.00836529 0.89484 -0.421745 0.14626
-0.110675 0.314969 0.335457 0.798728 0.239898 -0.551799
0.302946 0.201145 -0.222198 0.0636617 -0.0372126 -0.997277
0.00926809 0.241409 0.429648 0.349507 0.596908 -0.722181
-0.102115 -0.182418 0.154375 0.729455 0.226129 -0.64557
-0.0372674 -0.253128 0.27825 -0.616699 0.0870014 0.782377
0.0693851 -0.351127 -0.216195 -0.174085 0.382005 -0.907616
-0.0821821 -0.0351886 -0.0839626 0.885117 0.242498 0.397193
0.216936 0.314 -0.262776 0.155985 -0.127879 -0.979447
-0.211575 0.309855 0.225191 -0.986757 0.14301 -0.0765446
-0.107519 -0.398184 -0.0290658 0.90653 -0.020642 0.421635
-0.150259 0.116685 0.167059 0.951383 0.183936 -0.247057
0.478074 0.125703 -0.0582305 0.863687 -0.357706 -0.355094
-0.170121 0.344183 0.221102 0.988178 0.0424585 -0.147314
0.0555391 0.146394 -0.182452 0.175816 0.186684 0.96656
0.692657 0.216134 0.0474139 0.852047 -0.499899 0.155294
0.111544 -0.529087 0.184235 0.677112 -0.485225 0.553241
0.162712 -0.58815 -0.152948 -0.443299 -0.822131 -0.357193
-0.122224 0.0229952 -0.0333326 0.669988 -0.285961 0.685086
-0.0958378 0.497054 -0.141549 -0.286356 -0.0674243 -0.955748
-0.164063 0.392132 0.209144 0.997371 0.0278973 -0.0668822
0.226957 -0.225517 0.23066 -0.609524 0.485355 -0.626826
0.563609 0.355145 -0.102597 0.763597 -0.229224 -0.603635
0.408145 0.233012 0.281701 -0.577323 0.798035 -0.172738
-0.167491 0.114705 0.285114 -0.743076 -0.363423 0.561927
-0.10313 0.278036 0.421366 -0.59083 -0.345717 0.728972
0.0162949 -0.232857 -0.220742 0.0160117 -0.0665816 -0.997653
-0.012911 -0.139763 -0.215089 -0.655892 -0.0142968 -0.754719
0.579169 0.243684 0.214222 0.364037 0.872332 0.326366
0.183285 -0.385471 0.137897 -0.75355 0.490453 -0.437743
0.304299 0.221395 -0.161728 -0.423305 0.304308 0.853352
0.373724 0.245821 0.455339 -0.364299 0.374686 -0.852582
0.555049 0.13795 0.177726 0.910621 -0.39895 0.107743
-0.106387 0.489956 -0.0405395 0.751701 -0.360543 0.552227
-0.208472 0.0566607 0.165691 -0.950095 -0.166229 0.263986
-0.134487 -0.0346404 -0.112141 -0.869994 -0.113751 -0.479761
0.559514 0.163804 0.191359 0.954075 -0.283825 0.0958323
0.0666795 0.00567092 0.36374 0.260692 0.328267 -0.907899
0.075498 0.265486 0.467655 0.271318 0.350725 -0.896314
0.0130316 -0.442816 -0.242394 -0.3297 0.325388 -0.886239
0.410438 0.180763 0.414516 0.593767 -0.520368 0.613725
0.598013 0.258736 -0.0387549 -0.320861 -0.846293 -0.425248
0.167873 -0.332272 0.206614 -0.691652 0.468336 -0.549799
0.176893 0.023584 -0.175057 -0.28737 0.472389 0.833227
0.165549 -0.498727 0.125495 0.780497 -0.556576 0.284689
-0.191402 0.535102 0.174654 0.850781 0.525342 0.0136791
-0.200519 0.184291 0.218841 -0.906169 0.365269 0.213158
0.411814 -0.17522 0.0219502 0.946769 -0.0717218 -0.313823
-0.000478337 0.0324035 0.339708 0.657616 0.176051 -0.732494
0.0853283 -0.522438 -0.241654 -0.423722 -0.862011 -0.278201
-0.203662 0.230775 0.0379121 -0.96333 -0.0946885 -0.251057
0.149865 -0.205814 -0.192027 0.432454 -0.1436 -0.890147
-0.0878639 -0.261824 -0.149217 -0.643631 0.035954 -0.764491
0.236512 0.278817 0.559648 0.453773 0.803048 0.38627
0.271306 -0.199286 -0.07334 -0.559787 -0.142554 0.816283
0.222832 0.149698 -0.232708 0.390102 -0.179943 -0.903018
-0.208616 -0.0474293 0.071424 -0.977696 0.198452 -0.068758
-0.142081 -0.227979 0.0017363 0.863695 -0.145044 0.482693
0.418781 0.189113 -0.0678877 -0.72598 0.387016 0.568481
0.00686065 -0.343133 0.312664 -0.552404 -0.0346605 0.832855
0.113285 0.603545 -0.243265 0.170661 0.98443 -0.0421008
0.335594 0.357053 -0.239144 0.300623 -0.16701 -0.939007
0.597501 0.193787 0.131328 -0.341629 -0.881319 -0.326446
0.49433 0.219913 0.29149 -0.43482 0.866592 -0.244846
-0.0799825 -0.06139 0.320858 -0.635038 -0.306424 0.709106
-0.20875 0.00273314 0.129114 -0.998507 0.0516016 0.0179051
0.37268 0.386385 -0.169966 -0.480612 0.333422 0.811074
0.272347 -0.103507 -0.147548 0.507499 -0.257926 -0.822143
-0.215101 0.183453 0.158474 -0.984351 -0.117559 0.131276
-0.0118277 -0.341428 -0.213012 -0.21951 0.0361829 -0.974939
0.420478 0.189854 0.229435 -0.607549 0.506118 -0.612152
-0.0596244 -0.548054 0.216153 0.291393 0.199863 -0.935492
0.27255 0.0174255 0.391399 -0.657155 0.476094 -0.584364
0.455748 0.035097 0.084478 -0.864989 0.259936 0.429218
0.27318 -0.150662 0.30766 0.678641 -0.471472 0.56317
0.0283091 0.191429 -0.170787 0.465456 -0.0132186 0.884972
0.0432889 0.497816 -0.23525 -0.645213 0.33372 -0.687263
0.265557 -0.533247 -0.084319 0.861272 -0.506584 0.0397909
0.354971 0.498558 -0.258191 0.553197 0.219512 -0.803609
-0.184062 -0.226825 0.12384 -0.831814 -0.211831 0.513042
0.305232 -0.0751402 -0.0732685 -0.675826 0.277257 0.682926
0.048267 0.375174 0.526205 0.121048 0.441558 -0.88903
0.180157 0.131921 0.421317 0.00359575 0.32528 -0.945611
0.141205 0.0434287 0.392191 0.120215 0.242621 -0.962644
0.453296 0.284134 -0.0800151 -0.688143 0.126173 0.714521
0.667371 0.220127 -4.38298e-05 -0.305726 -0.892754 -0.330941
-0.0977018 -0.0881324 -0.0814612 0.744484 -0.224389 0.628803
0.396451 0.114285 0.202241 -0.206594 0.441918 -0.872941
-0.156618 0.278156 0.233271 0.93343 0.132537 -0.333381
0.302209 0.370274 -0.255232 0.288386 -0.196092 -0.93722
0.372766 -0.0323199 0.203982 -0.863765 0.426257 -0.268727
0.424603 -0.151585 0.058601 0.889815 -0.452115 0.061813
0.230648 0.249098 0.642351 0.350795 0.885903 0.30351
-0.161892 0.196647 0.0876575 0.977809 -0.133732 0.161259
-0.08581 0.223643 -0.158591 -0.784312 0.103238 -0.611716
0.0811196 0.643319 -0.300727 0.134298 0.852277 0.505557
-0.121167 -0.342876 0.20818 -0.70434 0.242691 0.667088
0.0389363 -0.219912 0.290029 0.751729 -0.271368 -0.601052
-0.1492 0.470271 0.349005 0.909166 0.389102 -0.148379
0.227411 -0.482413 -0.0988976 -0.944845 0.283147 0.164609
0.037988 0.00361898 0.405069 -0.348452 -0.294937 0.889715
0.336042 -0.278155 0.0356453 -0.648977 0.31151 -0.694111
-0.00111913 0.101875 0.36601 0.533361 0.35789 -0.766447
-0.131624 -0.129639 0.00957137 0.870421 -0.290188 0.397691
0.0230656 -0.392882 -0.217637 -0.796676 0.290014 -0.530282
0.368749 -0.102735 0.150541 -0.699953 0.452427 -0.552608
0.34072 -0.0174037 -0.0577185 -0.848608 0.338723 0.406363
0.295138 -0.342498 0.0940132 0.763647 -0.448941 0.463998
0.0353037 0.202247 -0.23443 -0.320601 -0.0768684 -0.94409
0.390486 -0.0993733 0.116293 -0.473296 0.500705 -0.724766
0.177549 -0.450827 0.0804452 -0.664436 0.440697 -0.603582
0.594688 0.191163 0.169031 -0.375571 -0.8793 -0.292879
0.318456 -0.105693 -0.124907 0.535682 -0.0914763 -0.83945
0.351349 -0.132238 0.133371 -0.748145 0.491126 -0.446178
0.26625 -0.037069 0.412294 0.589446 -0.455012 0.667471
-0.00699813 -0.434809 -0.174408 -0.307279 -0.932459 0.19
0.0126093 -0.40342 -0.146265 0.475785 -0.438131 0.762673
0.202341 0.129033 -0.182516 -0.418932 0.247809 0.873549
0.0122178 -0.0161941 -0.161954 0.467483 0.274559 0.840284
-0.179833 -0.317528 0.0901732 -0.789199 -0.313968 0.527816
0.0635028 -0.0490688 -0.237228 -0.0989713 -0.0105817 -0.995034
-0.0695129 -0.022973 0.256743 0.75412 0.17041 -0.634242
-0.061471 0.284562 0.386472 0.710522 0.22619 -0.666331
-0.00102789 -0.118801 0.273266 0.624099 0.269292 -0.733473
0.586718 0.301185 0.0633231 0.210712 0.937521 0.276867
-0.163521 0.396313 0.0908683 0.995526 0.0216496 0.091972
0.0490284 0.0821992 0.390105 0.294508 0.381365 -0.876257
0.385831 0.00571313 -0.101589 0.700418 -0.143343 -0.69919
0.0321137 -0.228558 -0.177396 0.0725324 0.0534217 0.995934
0.177321 -0.481127 -0.193003 0.614078 -0.107579 -0.781879
-0.223136 0.453 0.11182 -0.999393 -0.00186937 0.0347992
0.446247 0.232912 0.264404 0.221409 0.88789 0.403274
-0.201336 -0.0057534 0.0482297 -0.986995 -0.0578881 -0.149968
-0.15805 0.234072 0.198045 0.981279 0.0361683 -0.189165
-0.250907 0.577012 0.100483 -0.547815 -0.835662 -0.0395885
0.45979 0.291297 -0.146301 0.648025 -0.252464 -0.718558
-0.201359 -0.135247 0.0384358 -0.950762 -0.258076 0.171606
0.0998316 0.334014 0.568627 0.338837 0.88139 0.329152
-0.130895 -0.233578 0.190285 -0.77523 -0.139065 0.616182
0.226391 -0.392113 0.0587921 -0.65558 0.444414 -0.6105
-0.14971 0.223274 0.229226 0.879476 0.178715 -0.441116
0.16911 0.553956 -0.303641 -0.752208 0.493366 -0.436776
0.379625 0.279086 -0.195416 0.452255 -0.161515 -0.877142
-0.0548632 -0.0554077 0.331418 -0.669404 -0.198899 0.715777
-0.146952 -0.179931 -0.0923728 -0.876081 -0.0498534 -0.47958
0.315021 -0.148475 0.258446 0.680463 -0.493924 0.541304
-0.193702 0.106645 -0.00901368 -0.897692 0.0231487 -0.440014
0.0941383 0.105743 -0.192542 0.213844 -0.0313173 0.976366
-0.137671 -0.434289 0.0252566 -0.0778864 -0.769155 -0.634299
0.284284 0.112658 0.487179 0.410253 -0.458601 0.788275
0.372328 -0.178316 0.050355 -0.907426 0.419134 -0.0300841
-0.023832 0.623935 -0.138795 0.363068 -0.498942 0.786917
-0.133336 0.594556 -0.0486258 0.811854 0.109954 0.573413
0.264792 -0.416466 0.0813767 0.696085 -0.465882 0.546279
-0.28796 0.559075 0.331348 -0.609022 0.0273484 0.792682
0.158896 0.257725 -0.199472 0.129767 -0.132458 0.982657
0.305418 -0.0601372 0.349067 0.795536 -0.412436 0.443868
-0.168447 0.477775 0.251278 0.93583 0.213224 -0.280639
0.268365 -0.153539 0.231194 -0.70421 0.480428 -0.522759
-0.0705091 0.415187 0.483101 -0.517602 -0.131196 0.845503
0.31421 -0.033251 -0.157265 0.580565 -0.474993 -0.661306
0.14816 0.198171 0.512039 -0.0609338 -0.372825 0.925899
0.642475 0.198556 0.112049 0.441865 -0.36027 0.82156
-0.137899 0.559156 0.000562493 0.801474 0.293756 0.520909
-0.21428 0.0430385 0.116588 -0.999497 -0.0217032 0.0231233
-0.304459 0.541219 0.270544 -0.257477 -0.773515 -0.579121
-0.185357 0.377605 0.346434 -0.884263 -0.161603 0.438136
-0.0400371 -0.416032 -0.171325 -0.363029 -0.921041 0.141045
-0.11375 0.237945 -0.126828 -0.793406 -0.0236997 -0.608231
0.382244 -0.0304547 -0.0963088 0.718914 -0.285175 -0.633907
0.284419 -0.37602 -0.0554877 -0.887532 0.250787 0.386514
0.107707 0.144983 0.435925 0.295065 0.262329 -0.91876
-0.316149 0.567669 0.206408 -0.530271 -0.794048 -0.297154
0.0882581 0.2501 -0.195395 0.258849 -0.024597 0.965605
0.0449438 0.08525 -0.180624 0.619832 -0.124043 0.774869
0.467155 0.200615 0.037829 -0.858165 0.472009 0.201892
-0.0121325 -0.387758 0.294622 -0.493176 -0.104123 0.863676
0.45429 0.207387 0.230691 0.4046 0.131849 -0.904939
0.518943 0.0972039 0.181319 0.715682 -0.403853 0.569826
0.357619 0.161038 -0.179279 0.498224 -0.381768 -0.778477
-0.131088 -0.52149 0.159341 0.555181 0.045054 -0.830508
-0.222844 0.353981 0.147039 -0.912835 -0.0035323 -0.408314
0.413487 0.0502707 0.0424599 -0.908055 0.390094 0.152522
-0.0820298 -0.119844 0.210438 0.80786 0.0134826 -0.58922
0.4558 0.363734 -0.175504 0.614576 -0.398681 -0.680698
0.171168 -0.434322 0.119367 -0.734443 0.478766 -0.481016
0.478868 0.146759 0.207935 -0.221667 0.381222 -0.897515
0.115812 -0.112123 0.401446 -0.370237 -0.169651 0.913314
-0.134891 0.197614 -0.00854347 0.895597 -0.0185449 0.44448
-0.00979305 -0.249932 -0.153505 0.716724 0.0190807 0.697096
0.445403 0.110723 0.203106 0.0825698 0.283042 -0.955547
-0.207164 -0.524464 0.134511 -0.734782 0.23833 0.635054
0.465529 0.194901 -0.107161 0.616103 -0.062124 -0.785212
-0.0254321 -0.189341 -0.212789 -0.187938 -0.090731 -0.977981
0.139318 -0.351714 0.288882 0.79183 -0.527892 0.307142
0.325788 -0.374785 -0.029926 0.894209 -0.445878 -0.0397734
-0.0986579 -0.223502 0.231047 -0.643012 -0.300939 0.704253
-0.11439 -0.0645256 0.279645 -0.465586 -0.541848 0.699736
0.0159117 0.632634 -0.203679 0.198681 0.932863 0.300486
0.177467 -0.052438 -0.223524 0.326155 -0.14656 -0.933886
0.427421 0.0951206 -0.0997663 0.750033 -0.3027 -0.588068
-0.114472 -0.309321 0.146361 0.896506 -0.442307 -0.0253147
-0.176083 -0.0854557 0.183501 -0.842801 0.203165 0.498409
0.472015 -0.0472572 0.0661248 0.885622 -0.199853 -0.419204
0.260574 0.220946 0.656176 0.653885 -0.426504 0.624923
0.144133 0.580734 -0.227305 0.367259 0.891798 0.264229
0.489798 0.181707 0.0994696 -0.686629 0.123288 0.716478
-0.0850431 -0.248653 0.177072 0.926788 -0.140177 -0.348445
-0.108849 0.01525 -0.131379 -0.672335 -0.00217935 -0.740244
-0.137628 -0.3656 0.111686 0.86473 -0.494934 0.0853378
0.088417 -0.0869812 0.393411 -0.437071 -0.251663 0.863501
0.198617 -0.17111 -0.107092 -0.480402 0.266641 0.835534
-0.142537 -0.325388 0.186721 -0.829036 -0.0829043 0.553015
0.107497 -0.236102 -0.145025 -0.419587 0.188039 0.888025
-0.138646 -0.371938 -0.00387137 0.931658 -0.0311434 0.361999
-0.123242 -0.320561 -0.130843 -0.628007 0.12854 -0.767519
-0.116715 0.0975131 -0.125872 -0.72442 0.00226874 -0.689355
-0.178422 0.600441 0.123119 0.943897 -0.328544 -0.0334442
-0.147218 -0.0251567 0.143895 0.923843 0.170481 -0.342711
-0.151549 -0.301637 0.015045 0.962853 0.0245149 0.268912
0.427284 -0.1432 0.0948584 0.782802 -0.473292 0.403999
-0.13129 0.123309 -0.0159061 0.924325 -0.0588882 0.377034
-0.346172 0.593897 0.219091 -0.832293 0.480532 -0.276366
0.287159 -0.12038 0.318409 0.626024 -0.486947 0.609079
0.206571 0.169422 -0.198903 -0.173344 0.0872502 0.980989
0.205599 -0.007122 0.437417 -0.0511984 -0.314705 0.947808
0.343594 0.0585513 -0.155257 0.623432 -0.385712 -0.680117
-0.175942 0.200468 0.130936 0.999082 0.0409652 -0.0125158
-0.068788 0.000149763 -0.181517 -0.776383 -0.246906 -0.579885
-0.156292 -0.202049 0.0487264 0.994905 -0.036586 0.0939449
0.00565816 0.355141 0.50466 0.52601 0.479539 -0.702393
-0.17186 0.489132 0.100122 0.977261 0.0958776 0.189124
0.174711 -0.0885533 -0.21626 0.458117 -0.342039 -0.82045
0.393416 0.138114 -0.0673226 -0.701777 0.267385 0.660314
-0.134534 0.251402 0.271877 0.91186 -0.0195442 -0.410037
-0.0220068 -0.0653438 0.366194 -0.540658 -0.309413 0.782274
-0.0960458 -0.558871 0.178855 0.703795 -0.128692 -0.69865
0.0385002 0.0388807 0.368472 0.239829 0.498789 -0.832882
-0.173818 0.404996 -0.0403225 -0.933449 -0.0914807 -0.346848
-0.170166 -0.117233 -0.0470258 -0.875467 0.00998839 -0.483174
0.107284 0.303153 0.6232 -0.599576 -0.0144249 0.800187
-0.025842 0.389096 -0.137824 0.537434 -0.0130241 0.843205
0.482916 0.103291 0.0194775 0.914564 -0.178915 -0.362716
0.509153 0.325799 -0.124044 -0.640162 -0.768199 -0.00792288
-0.141498 0.131621 0.0266294 0.942939 0.0318058 0.331443
-0.139673 -0.240427 0.0740617 0.994762 -0.095475 -0.0365177
0.437295 0.0161156 0.154572 -0.474913 0.598245 -0.645415
-0.0979633 -0.359205 0.230135 -0.628502 0.112798 0.769586
0.158396 -0.36888 0.180994 -0.594352 0.249304 -0.764587
-0.178544 0.536798 0.0974206 0.790229 0.0900355 0.606161
0.262174 0.208693 0.46459 0.549207 0.000716758 -0.835686
-0.206189 -0.144592 0.0769861 -0.967175 -0.153579 0.202452
0.176714 -0.37226 -0.146497 -0.456757 -0.218295 0.862392
0.521377 0.197948 -0.0258517 0.856564 -0.318095 -0.406342
-0.207454 0.324718 0.275383 -0.959348 -0.0215495 0.2814
0.631442 0.243298 0.077399 -0.372528 0.618457 -0.691906
-0.147992 0.16435 0.235946 0.811033 0.265499 -0.521282
0.20859 -0.364542 0.211257 0.699251 -0.481834 0.528094
0.321209 0.0535342 -0.100887 -0.564363 0.197211 0.801625
-0.14499 -0.481127 0.150439 0.603604 0.0140359 -0.79716
0.267678 -0.355441 0.0689128 -0.605573 0.461308 -0.648442
0.0339703 -0.422985 -0.24228 -0.423795 0.469603 -0.774513
0.155112 0.0949664 0.464264 0.157093 -0.651075 0.742578
-0.00754024 0.104481 0.42856 -0.793167 -0.126842 0.595649
0.149743 0.299116 0.595591 0.565093 0.770052 0.296123
0.139748 0.154447 -0.248782 -0.192816 -0.00211338 -0.981233
0.414515 0.353806 -0.203351 0.48293 -0.166481 -0.859688
-0.0487456 0.00231274 0.283986 0.623617 0.364023 -0.691801
-0.169832 0.274067 0.139106 0.967308 -0.183721 0.174818
-0.153747 -0.281378 0.14947 -0.802463 0.0126637 0.596567
0.208499 0.247191 0.555175 -0.0695418 -0.294332 0.95317
-0.127274 -0.018201 0.274276 -0.902618 -0.027487 0.429564
0.182473 -0.164396 0.387414 0.287045 -0.423212 0.859358
-0.0370179 -0.219784 0.226682 0.618017 -0.022053 -0.785855
0.216613 -0.379786 0.173441 0.610893 -0.491368 0.62078
0.364952 -0.0741809 0.168819 -0.679332 0.489211 -0.546974
-0.164028 -0.423674 0.178705 -0.57398 -0.150745 0.804875
0.339816 -0.0778518 -0.0132787 -0.850568 0.350911 0.391657
-0.110985 0.173697 -0.127622 -0.816442 0.0230769 -0.576966
-0.0345129 -0.283882 0.234304 0.60013 0.0157719 -0.799747
-0.212245 0.139848 0.0984437 -0.92342 0.105222 -0.369086
0.0215344 -0.541202 0.208274 -0.285001 0.45626 -0.842972
-0.164136 0.387084 0.38037 -0.694734 -0.419172 0.584499
-0.0647593 -0.0738448 0.254559 0.634533 0.358364 -0.684795
0.199732 0.29451 0.520122 -0.141282 0.441846 -0.885896
-0.0365469 0.538473 -0.122614 0.640691 -0.0114857 0.767713
-0.00681661 0.30593 0.439544 0.740379 0.0610359 -0.669413
-0.050755 0.192596 0.437015 -0.411204 -0.647662 0.64144
0.648758 0.230313 0.0179149 -0.828812 -0.0207297 0.559143
-0.0162099 0.208525 0.465385 -0.440809 -0.344457 0.828877
-0.191499 0.0701222 -0.014193 -0.922471 -0.00145616 -0.386063
0.449537 0.0161955 0.0071924 0.885686 -0.29551 -0.358099
0.206677 -0.427639 0.0751178 -0.748641 0.476462 -0.461001
0.458309 -0.0716074 0.124744 0.890426 -0.416021 0.184575
-0.156088 -0.0859053 0.102557 0.971808 0.0930595 -0.216631
0.0773518 -0.497413 0.255416 0.775691 -0.428651 0.463209
0.0163679 0.125597 -0.175251 0.306018 0.206562 0.929347
0.435695 0.209136 0.423 0.727448 -0.48217 0.488192
-0.176284 0.639966 0.00727211 -0.88018 0.424179 -0.212967
0.0851811 -0.506301 -0.21095 -0.795298 0.198913 0.572656
-0.104184 -0.123895 -0.067884 0.810468 -0.0166232 0.585547
0.320053 0.526457 -0.274958 0.310721 0.879401 0.360702
0.369699 -0.0842398 -0.00410168 -0.673754 0.314836 0.668531
-0.0983941 -0.397966 0.229427 -0.430992 -0.0633179 0.900132
-0.0529716 0.447697 -0.181748 -0.762993 0.258955 -0.592271
-0.0468969 -0.234621 -0.123577 0.855337 -0.101127 0.508107
-0.0508722 -0.319839 0.215845 0.587853 0.0598694 -0.806749
-0.134127 0.482489 0.420702 0.388676 0.847968 0.360391
-0.165727 -0.175477 0.182499 -0.752323 -0.232792 0.616294
-0.0764805 0.0662572 0.368756 -0.596806 -0.333855 0.729633
-0.203048 -0.429576 0.0492472 -0.957932 0.236364 -0.16278
0.362769 -0.184646 0.00994586 -0.854942 0.118856 0.504923
-0.203907 -0.17081 0.0191825 -0.993228 -0.0694251 -0.0931614
-0.0425061 0.0254415 -0.198136 -0.458236 -0.305633 -0.834631
-0.0569094 -0.521726 0.262431 -0.532673 -0.0342122 0.845629
0.563549 0.347194 -0.0596074 0.205155 0.914995 0.347412
0.186946 -0.543216 -0.00769721 -0.640849 0.457134 -0.616719
-0.118547 0.370746 0.440176 -0.601644 -0.458422 0.654121
-0.0225015 -0.0477487 0.292933 0.657296 0.243912 -0.71307
0.342837 -0.0260964 0.243852 -0.675238 0.476241 -0.563248
0.376763 0.0806304 -0.150223 0.570159 -0.311035 -0.760379
-0.0515 0.648105 -0.146871 -0.631439 0.484037 -0.6058
-0.214257 0.395254 0.0631064 -0.911298 0.269886 -0.310963
0.0920096 0.195432 0.447965 0.25678 0.270304 -0.927901
-0.226187 0.441415 0.208307 -0.978944 -0.119476 0.16551
-0.157645 0.610574 -0.0389087 -0.645505 0.491801 -0.584341
0.198211 -0.349028 0.155375 -0.878036 0.396567 -0.267934
0.0514095 -0.184541 -0.173767 -0.00531642 0.0721862 0.997377
0.67297 0.23734 -0.0336713 0.707619 -0.092346 -0.700534
-0.032277 -0.00306416 -0.207755 -0.462332 -0.0513653 -0.885218
-0.258075 0.527386 0.349159 -0.681923 0.0779081 0.727263
0.200211 0.584849 -0.297687 0.170334 0.769382 0.615661
0.492213 0.16788 0.291261 0.763736 -0.439426 0.472876
0.243661 0.0665116 0.429273 -0.0296329 0.253747 -0.966816
0.436966 0.118022 0.255145 -0.616948 -0.0065633 0.786976
0.0567311 -0.287527 -0.162478 0.0105949 0.0833687 0.996462
0.389265 0.338257 -0.142849 -0.558562 0.406941 0.722777
0.470968 0.310663 -0.0693925 -0.757452 0.261836 0.598088
0.0249687 -0.000808872 -0.230325 -0.149697 -0.140476 -0.978702
-0.0753298 0.449008 0.465929 0.403813 0.885348 0.230423
0.460037 0.160017 0.0744227 -0.934658 0.29861 0.192995
-0.0226204 0.192075 -0.125972 0.561052 -0.0120145 0.827693
0.319722 0.294775 -0.167847 -0.517262 0.430604 0.739609
0.00976742 0.571696 -0.244885 -0.23621 -0.935427 -0.263022
-0.0926176 0.0542618 0.273587 0.510804 0.517206 -0.686715
0.202051 -0.258244 0.235719 -0.800399 0.450271 -0.395749
0.0107659 0.0398122 0.417726 -0.438222 -0.194358 0.877603
0.352226 -0.194983 0.152206 0.840979 -0.34325 0.418251
0.205338 -0.576278 -0.101501 -0.904171 0.415635 0.0986024
-0.0402763 0.317146 -0.130324 0.63043 -0.160607 0.759449
0.0201935 -0.0477516 0.324604 0.341401 0.583742 -0.736676
0.334484 -0.246941 0.136847 0.705029 -0.477218 0.524593
-0.110733 0.268558 -0.047133 0.778011 -0.0161713 0.628042
-0.216936 -0.505409 0.10519 -0.26293 -0.920182 -0.290058
-0.171773 0.499058 0.31302 0.959053 0.0986052 -0.265508
0.534696 0.246953 0.121343 -0.421937 0.906443 -0.0181447
0.124495 0.54691 -0.226867 0.690537 0.0688578 0.720012
0.138888 0.597094 -0.349471 0.0641171 -0.311806 0.94798
-0.035775 0.548401 -0.185519 -0.599669 0.00724647 -0.800216
-0.0597301 -0.374524 0.216803 0.597611 -0.321597 -0.734464
0.375109 0.0266279 0.329273 0.713712 -0.479403 0.510674
0.278925 -0.100054 -0.0943199 -0.527352 0.00348561 0.84964
-0.157177 -0.364462 -0.06886 -0.888083 0.0860522 -0.451557
-0.0196121 0.334126 -0.200113 -0.729984 -0.0658746 -0.680282
-0.00728731 -0.498674 0.238256 0.0229638 0.326689 -0.944853
-0.05432 -0.158262 -0.112179 0.839343 0.172039 0.51566
0.528614 0.273233 0.0640889 -0.328257 0.9068 0.2645
0.206997 -0.567907 -0.0164774 -0.484748 -0.874356 0.022821
0.278336 0.555965 -0.304171 0.25432 0.874483 0.413037
-0.118815 0.439375 -0.120109 -0.892661 -0.109673 -0.437181
0.589748 0.210712 0.0621506 -0.553306 -0.795718 -0.246343
-0.0237368 0.592048 -0.246483 -0.560407 -0.820215 -0.114853
0.30531 0.0608906 -0.18919 0.455191 -0.215638 -0.863887
-0.128997 0.275965 -0.0156204 0.80557 0.027055 0.591883
0.216991 0.146322 0.485215 0.0321997 -0.24727 0.968412
0.111792 -0.124387 -0.232367 0.205418 -0.0679481 -0.976313
-0.0796452 -0.28937 -0.102934 0.885185 -0.0626025 0.461007
-0.0113065 0.523268 -0.141975 0.772528 -0.0623612 0.631912
0.400772 0.216343 -0.0994166 -0.654837 0.341918 0.674003
0.169149 -0.109549 0.410995 0.0267797 -0.393429 0.918965
0.290437 -0.38269 0.0808385 0.845139 -0.461956 0.268955
0.0155098 -0.292354 -0.216406 0.125483 -0.0874229 -0.988236
0.0625924 -0.278678 -0.214033 0.316948 -0.091847 -0.943985
-0.0294097 0.141508 0.436102 -0.501145 -0.354837 0.789268
-0.222358 0.304103 0.102963 -0.986842 0.000295317 -0.161689
0.284631 0.538371 -0.261388 0.0116466 0.946707 0.321885
0.0246528 -0.404911 0.259502 0.118534 0.340357 -0.932795
0.307945 0.0211458 0.345109 -0.767237 0.320059 -0.555797
0.453247 0.0168577 0.121483 -0.922566 0.385601 -0.013582
-0.154407 -0.449643 0.12913 0.79097 -0.163356 -0.589646
-0.0599164 0.326141 -0.0980027 0.729234 -0.00762092 0.684222
0.165215 -0.521819 -0.187227 0.463334 0.192662 -0.864987
-0.203191 -0.0777609 0.109415 -0.902886 -0.290337 0.317019
0.189637 -0.4582 0.136981 0.90585 -0.3177 0.280184
-0.140628 0.00317293 -0.0946241 -0.877302 -0.105067 -0.468298
-0.209541 -0.103544 0.0728872 -0.982054 0.18739 -0.0213366
0.0346978 -0.00122697 0.341441 0.588925 0.23801 -0.772346
-0.0291299 -0.0477773 -0.210848 -0.460803 -0.231116 -0.856882
-0.0333614 0.491115 -0.130567 0.700517 -0.0469941 0.712086
-0.0269006 -0.278377 -0.150647 0.601461 -0.0352248 0.798126
0.0845591 -0.481059 -0.25209 0.49514 0.117085 -0.860888
-0.184196 -0.517685 0.115479 0.813062 -0.1301 -0.567454
0.16484 0.086487 0.405643 -0.227468 0.394106 -0.890471
-0.147196 0.516787 0.0322431 0.856972 0.123727 0.50029
0.30696 0.139641 0.49033 0.294354 -0.467865 0.833342
-0.156103 0.500866 0.0749209 0.959093 0.0775963 0.272248
-0.114414 -0.260815 0.225597 -0.885095 0.213509 0.413547
0.176135 0.608036 -0.330718 0.17076 0.905869 0.38761
0.0705943 -0.529426 0.173783 -0.665265 0.499238 -0.555143
0.223409 -0.00485718 -0.209241 0.314374 -0.411815 -0.855323
0.0417588 0.568951 -0.264351 -0.287652 -0.879544 -0.379023
0.371367 -0.282711 0.0428424 0.851582 -0.482309 0.205393
0.360161 0.309927 -0.222404 0.317138 0.0617572 -0.946367
0.221766 0.158765 0.433296 -0.293795 0.501904 -0.813497
-0.0961874 0.169307 0.384594 -0.924361 -0.0527159 0.37786
0.142104 -0.476185 -0.216102 0.75321 -0.332183 -0.56774
-0.107978 -0.228254 -0.144714 -0.922734 -0.0135489 -0.385199
0.125721 0.149532 0.489639 -0.239829 -0.215415 0.946614
-0.0516275 -0.391416 -0.19493 -0.424159 -0.0501874 -0.904196
0.453094 0.226835 0.306058 0.214703 0.821902 0.527617
0.440227 0.108371 0.0447864 -0.898242 0.33554 0.283855
0.295219 0.0782296 0.422655 -0.456638 0.456285 -0.763732
0.249676 -0.511725 0.00557434 0.853031 -0.464036 0.238764
0.192999 -0.399975 -0.173033 0.620152 -0.00968267 -0.784422
0.455865 0.336862 -0.0888617 -0.295266 0.70672 0.642935
0.273265 0.208309 -0.229723 0.230671 0.0204143 -0.972818
0.175518 0.236832 0.562739 0.7209 -0.51756 0.460907
0.551288 0.140591 0.144685 0.931915 -0.35718 -0.0629031
0.0215893 0.588407 -0.279439 -0.369756 -0.87891 -0.301328
-0.150019 0.15938 0.0531687 0.921572 -0.0338303 0.38673
-0.0502107 0.395016 -0.114102 0.721649 -0.012349 0.692149
-0.0987457 -0.0530023 -0.14218 -0.66068 0.00698737 -0.750635
0.298912 -0.0815229 0.24861 -0.557775 0.494629 -0.666506
-0.159625 0.252691 -0.0558752 -0.993693 0.0571823 -0.0964603
0.0380844 -0.504889 -0.237075 -0.439995 -0.878715 -0.185106
-0.027868 0.258712 0.410422 0.467563 0.592973 -0.655567
0.33938 -0.180458 0.108943 -0.688361 0.49261 -0.532442
0.0628906 0.214093 -0.186187 0.42915 0.0431695 0.902201
-0.159159 0.15372 0.081692 0.986344 0.0285855 0.162199
-0.176176 -0.0432822 -0.0358577 -0.929561 -0.0014255 -0.368666
0.365763 0.221758 0.534022 0.699848 -0.463208 0.543738
-0.220077 0.223833 0.128642 -0.993065 -0.107264 0.0481308
-0.213659 0.347124 0.0526825 -0.991386 -0.00202971 -0.130957
0.204979 -0.105397 0.367744 -0.441469 0.508788 -0.73908
0.132296 -0.428028 -0.219981 0.572369 -0.00261699 -0.819992
0.126695 -0.351115 -0.175082 -0.270187 -0.142641 0.952183
-0.0843897 -0.221238 -0.0809278 0.72358 -0.122976 0.679197
0.210646 -0.548387 -0.0567744 -0.86402 0.395774 -0.311178
0.305079 0.409378 -0.200383 -0.272171 0.0190237 0.962061
-0.200549 -0.21354 0.0420814 -0.995596 -0.0849413 -0.0396578
-0.00885548 -0.00680509 0.316536 0.585393 0.303222 -0.751912
-0.216737 0.42515 0.23424 -0.923316 0.366851 0.113615
0.241148 0.276941 0.52192 -0.0644708 0.354145 -0.932966
0.629216 0.246778 0.162384 0.346309 0.936419 0.0564734
0.274618 -0.173247 0.27942 0.568147 -0.455989 0.685042
-0.0220966 -0.376333 -0.207526 -0.114934 -0.0526234 -0.991978
0.507113 0.230923 -0.0680894 0.807071 -0.4384 -0.395528
0.0531323 -0.0472992 0.346247 0.570401 0.192981 -0.798374
-0.0368764 0.0637365 0.331075 0.632301 0.253711 -0.732001
0.530968 0.199098 0.151728 -0.901014 0.214714 0.376923
0.0877527 -0.0461505 0.401417 -0.0684419 -0.418371 0.905694
-0.169076 0.29238 -0.0423095 -0.89221 0.00181443 -0.451618
0.360798 0.243665 -0.200605 0.601409 -0.402325 -0.690247
0.143357 -0.0520278 0.418611 -0.342165 -0.1488 0.927783
0.294934 0.172139 0.571611 -0.408922 -0.871457 -0.270823
0.114191 -0.410136 0.289786 0.423283 -0.412513 0.806638
0.359797 0.1884 0.432689 -0.761509 0.56145 -0.32385
0.21711 0.354108 -0.210416 0.00117071 0.0635833 0.997976
-0.0256912 0.262845 0.482586 -0.469573 -0.335655 0.816601
0.525921 0.379983 -0.101421 0.392145 0.895895 0.208793
0.0374051 0.283746 -0.233155 -0.310295 -0.142326 -0.939926
0.381995 -0.114518 0.0199697 -0.635274 0.0517341 0.770552
0.538009 0.187795 0.241742 0.694353 -0.486304 0.530455
-0.227951 0.468429 0.227805 -0.994329 0.0920775 0.0532187
0.113965 -0.461537 -0.234929 0.563637 -0.293983 -0.771938
-0.125213 -0.292333 0.0991175 0.67031 0.303014 -0.677397
0.0125572 0.064604 -0.16105 0.597814 -0.233252 0.766949
0.542821 0.322681 -0.118346 0.626985 -0.124194 -0.769068
0.399729 -0.0611104 0.148506 -0.768766 0.438941 -0.465112
0.642907 0.210045 0.04659 -0.223482 -0.926564 -0.302546
-0.10838 0.227902 -0.0409047 0.748863 0.102802 0.654703
0.539991 0.220321 0.0110613 0.896002 -0.300778 -0.326671
0.103385 -0.304522 0.344687 0.0744824 -0.350869 0.933458
-0.0842617 0.35233 0.379868 0.72513 0.268944 -0.633921
0.0443465 0.24887 -0.233613 -0.339531 -0.00491554 -0.940582
-0.0383085 -0.197127 0.299313 -0.539015 -0.334015 0.773238
-0.0413482 -0.483333 0.271436 -0.426162 -0.123667 0.896154
0.191222 -0.519895 0.071224 0.859339 -0.36049 0.362745
0.255094 0.00964062 -0.193966 0.377096 -0.190348 -0.906403
0.261924 -0.0652375 0.38278 0.661535 -0.477912 0.577902
0.498359 0.226172 0.349477 0.836783 -0.441582 0.323726
0.156484 -0.293225 0.321939 0.543365 -0.513664 0.664006
0.0907697 0.188911 0.503381 -0.262246 -0.311921 0.913199
0.0168358 -0.58452 0.239002 0.471678 -0.528702 0.705687
0.328729 -0.171621 -0.0930897 0.63822 -0.354192 -0.683537
0.541715 0.255991 0.246299 0.427585 0.852592 0.30043
0.233919 -0.306763 0.149858 -0.770584 0.44136 -0.459784
-0.146632 0.247211 0.0202122 0.760235 -0.400559 0.511464
0.28897 0.0303379 0.453244 0.0887321 -0.401662 0.911479
-0.131414 -0.167501 0.124961 0.828504 0.165171 -0.53507
0.280078 -0.48044 -0.0840009 0.945804 -0.300464 -0.123189
0.0804637 0.25414 0.528532 -0.203475 -0.340473 0.917974
-0.197804 -0.208505 0.00586215 -0.944128 -0.181605 -0.275032
0.0424106 -0.575153 0.231393 0.6733 -0.474194 0.567281
0.003648 -0.115107 -0.220029 -0.535191 0.00128819 -0.84473
-0.0713557 0.0539109 -0.101285 0.724881 -0.0127019 0.688756
0.369309 -0.21583 0.112397 0.665411 -0.473427 0.577144
0.491373 0.183361 0.227942 -0.15686 0.386944 -0.908663
-0.180959 0.197651 -0.0295154 -0.910438 -0.159685 -0.381579
-0.119499 0.573334 -0.108627 -0.639056 0.0347402 -0.768375
0.175048 -0.23095 0.355129 0.719402 -0.473793 0.507918
0.0522991 -0.201241 -0.22887 -0.0554872 0.0664131 -0.996248
0.437626 -0.0218764 0.0162059 0.661395 -0.0224286 -0.749702
-0.0197366 -0.218205 -0.153123 0.444812 0.0822723 0.891837
0.15804 -0.227319 0.312721 -0.614442 0.521746 -0.591812
0.314457 -0.260417 -0.0391992 -0.631939 -0.0732903 0.771545
-0.00854392 -0.298847 0.255534 0.628457 -0.196906 -0.752509
-0.291911 0.518178 0.333791 -0.559466 -0.0855155 0.82443
0.406807 -0.177782 0.0844033 0.772868 -0.453904 0.443448
-0.102006 0.38999 -0.0629825 0.883128 0.0477484 0.466697
-0.0961334 0.564893 -0.136761 -0.861067 -0.0653109 -0.50428
-0.201667 0.383192 0.0163664 -0.823823 0.312177 -0.47314
-0.0459639 0.109308 0.399669 -0.537742 -0.433009 0.72342
-0.0978264 -0.440383 0.180413 0.592278 0.0219978 -0.805433
0.22375 -0.471093 0.0865397 0.577 -0.449449 0.681958
0.00909231 0.302655 0.544745 -0.428117 -0.867582 -0.253016
-0.0687532 0.632464 -0.0973955 0.451059 0.835935 0.312664
0.222824 -0.444161 -0.157943 0.596148 0.0361556 -0.80206
0.010965 -0.449745 0.292095 -0.0878693 -0.297434 0.95069
0.278554 -0.402683 -0.0126699 -0.912047 0.40144 -0.0837625
0.094878 0.404666 -0.255331 -0.299174 0.0644541 -0.952019
-0.169172 0.488227 0.416979 -0.570485 -0.256257 0.780307
-0.110918 -0.496376 0.167313 0.584569 0.0285618 -0.810841
-0.157536 0.49385 -0.0772434 -0.916308 -0.106023 -0.386185
0.0832914 0.0649053 0.452494 -0.208909 -0.269925 0.939946
-0.218446 0.353763 0.221557 -0.956545 -0.164887 0.240487
-0.0626595 0.144282 -0.10684 0.623817 -0.0341642 0.780823
-0.0655616 -0.399834 -0.142688 -0.791738 -0.597381 -0.127619
-0.222668 0.320998 0.185002 -0.998632 0.0228915 0.0470184
-0.0830364 -0.21845 -0.171397 -0.738612 0.0273151 -0.673577
-0.115545 -0.277384 -0.0398416 0.870376 0.0241079 0.491797
-0.159648 0.101943 0.0842043 0.911845 0.410004 -0.0208456
0.106704 0.246557 0.465955 0.506127 0.174962 -0.844526
-0.0282744 -0.185065 -0.13274 0.54428 -0.0486666 0.837491
-0.211681 0.429027 0.299788 -0.949591 -0.111736 0.292903
0.0344256 0.165848 -0.239252 -0.491006 0.16036 -0.85627
0.484326 0.0770774 0.125238 -0.926786 0.340582 0.158341
-0.242929 0.524991 0.213384 -0.390466 -0.894522 -0.217639
0.226171 0.186091 0.501174 -0.0913173 -0.292074 0.952026
-0.0809561 -0.125058 -0.0846199 0.84065 -0.0167173 0.54132
-0.184022 0.437792 0.360702 -0.700948 -0.360161 0.615594
0.436287 0.395338 -0.196902 0.43596 0.157786 -0.886026
0.445331 -0.111268 0.042471 0.893931 -0.189179 -0.406322
-0.0960281 0.46165 0.436449 0.358084 0.847477 0.391867
0.250373 0.0313072 0.404036 -0.26315 0.414945 -0.870961
0.165433 -0.249838 -0.180215 0.13304 0.270173 -0.953576
0.328911 -0.344223 -0.0753976 0.793819 -0.138048 -0.592278
-0.117899 0.156932 -0.038667 0.842404 -0.0499315 0.536529
0.103311 -0.303074 0.2981 -0.287675 0.437586 -0.851917
-0.00875564 0.215938 -0.144592 0.642062 -0.069411 0.763504
0.449176 -0.0464659 0.167833 0.773012 -0.552185 0.312321
0.145588 -0.391825 0.268007 0.781119 -0.430392 0.452344
0.123977 0.0184241 -0.177994 0.0428507 0.0342858 0.998493
-0.102305 -0.0940784 -0.138661 -0.484693 0.0581781 -0.872747
0.402741 0.105258 -0.129173 0.657979 -0.101786 -0.746125
0.515222 0.355152 -0.144987 0.607074 -0.051668 -0.792964
-0.0233169 -0.264617 -0.219915 -0.126678 -0.0516596 -0.990598
0.237219 -0.48685 -0.14947 0.661628 -0.144479 -0.735782
-0.131546 0.031083 0.197875 0.864592 0.125764 -0.486481
0.107698 0.380784 -0.209252 0.168857 0.162057 0.972227
-0.15832 -0.258885 -0.0846301 -0.828908 -0.0315153 -0.558497
-0.103155 0.522356 -0.0684326 0.76951 0.073563 0.634383
0.465385 0.0173737 0.212077 0.828811 -0.410572 0.380136
0.199253 0.515635 -0.320391 -0.559675 -0.81712 -0.138128
0.136225 -0.35781 0.233044 -0.888258 0.419138 -0.187942
0.604946 0.269573 0.140931 0.21496 0.90227 0.373767
0.265278 -0.316435 0.0878314 -0.734351 0.519965 -0.436308
0.423046 -0.0410655 0.201882 0.735034 -0.463878 0.494512
0.218026 -0.449295 0.0982052 0.658686 -0.491392 0.569795
0.335716 -0.253975 -0.0684963 0.457924 0.165573 -0.873437
-0.0579445 0.043295 -0.174511 -0.69091 0.00861171 -0.72289
0.38767 -0.173126 -0.0255473 0.721591 -0.0901272 -0.686428
0.340079 0.23924 0.473767 -0.47182 -0.838345 -0.273064
0.173739 0.46035 -0.218263 0.00995649 0.21122 0.977388
0.0844181 -0.26213 0.315894 0.297422 0.219958 -0.929063
0.377113 0.433013 -0.198748 -0.226714 0.669581 0.707292
-0.0329702 0.581622 -0.202838 -0.698076 -0.640946 -0.319183
0.00814594 -0.144257 -0.161788 0.362809 0.0221766 0.9316
0.0066255 0.615814 -0.266104 -0.729459 0.48412 -0.483236
0.219901 -0.251612 0.20868 -0.679984 0.473504 -0.559836
0.284234 0.0112039 0.432928 0.605367 -0.474605 0.638968
-0.0669043 -0.176955 -0.180407 -0.43625 0.0594113 -0.897862
0.0291734 0.0430209 -0.22941 -0.313217 0.0786566 -0.946419
0.323594 0.372661 -0.191768 -0.325026 0.176519 0.929085
0.258537 -0.201652 0.281986 0.759472 -0.459905 0.460098
0.139697 -0.149326 0.352502 0.112347 0.257425 -0.959745
0.501838 0.331046 -0.0619725 -0.595784 0.746756 0.295631
-0.189828 -0.323865 -0.0247917 -0.951275 0.0599614 -0.302456
-0.0644262 0.3155 -0.173309 -0.582205 0.00453179 -0.813029
0.27421 -0.0786802 -0.159801 0.520882 -0.407364 -0.750158
0.0247332 -0.427196 -0.197526 0.471172 -0.448708 0.75938
0.394904 0.0423591 0.224555 -0.573335 0.0663963 -0.816626
0.536395 0.183757 0.0621778 0.895399 -0.427366 -0.124978
0.0160809 0.120019 0.455113 -0.349635 -0.37343 0.859247
-0.115837 -0.0617875 -0.0346353 0.893998 0.0101518 0.447956
-0.149532 0.23025 0.354113 -0.701915 -0.329821 0.631294
-0.160527 0.428901 0.285939 0.91168 0.146392 -0.38394
0.250224 -0.311616 0.120678 -0.561586 0.571615 -0.598228
0.020502 -0.22306 0.321615 -0.461017 -0.113955 0.880044
-0.116628 0.242987 0.304385 0.654391 0.265576 -0.707984
0.161162 0.626648 -0.37332 0.424648 0.898017 0.115061
-0.0918466 0.131959 -0.076513 0.689089 -0.137368 0.711538
0.489358 0.283004 -0.110504 0.712366 -0.162133 -0.682824
-0.0293932 0.19448 -0.184149 -0.561491 -0.115426 -0.819393
0.312922 0.117604 -0.140468 -0.577103 0.516632 0.63249
-0.211121 0.260995 0.216497 -0.983125 0.156684 0.0944247
-0.144751 0.426945 0.0289564 0.83426 -0.158227 0.52818
-0.111402 0.618838 -0.110774 -0.86444 0.461473 -0.199465
-0.177101 -0.473295 0.093818 0.907697 -0.2894 -0.303865
0.0851544 -0.0874226 -0.183321 0.0949531 -0.0969013 0.990754
0.11034 0.15659 -0.188399 0.0938159 -0.321995 0.942082
-0.0820202 0.196463 0.40245 -0.651283 -0.296736 0.698411
0.0192276 0.194211 0.483254 -0.285318 -0.424696 0.859201
0.0399075 0.414671 -0.178047 0.723977 -0.0140815 0.689681
0.511214 0.221245 0.248979 -0.811828 0.442412 -0.38106
-0.122707 0.444794 0.403984 0.751262 0.339032 -0.566271
0.317766 0.10228 0.468335 0.666814 -0.388546 0.635917
-0.139975 0.409014 -0.0925024 -0.717892 0.0286435 -0.695565
0.105566 -0.353416 -0.211926 0.0248414 0.3029 -0.952698
0.576847 0.21675 0.105522 -0.261945 -0.960929 -0.0894473
-0.0558566 0.576658 -0.173563 -0.842388 0.0391981 -0.537445
0.281829 0.212055 0.633512 0.486097 -0.504496 0.713577
0.0974511 0.0584645 -0.193215 0.0935916 0.00565789 0.995595
-0.0959485 0.38586 0.46531 -0.57944 -0.0316806 0.814399
0.165043 -0.410302 0.152998 -0.686813 0.479225 -0.546472
0.110515 -0.264377 -0.193064 0.283483 0.0564626 -0.957314
0.244288 0.22157 0.595992 -0.890507 0.424478 -0.163757
0.336645 -0.188621 0.185985 0.63808 -0.521534 0.566442
-0.203864 0.546831 0.334503 0.331629 0.941877 0.0537694
0.462667 0.166247 -0.0904822 0.764497 -0.279626 -0.580822
-0.144194 -0.475131 0.196868 -0.63841 0.325516 0.697476
-0.0504866 -0.281409 -0.194688 -0.677041 0.228239 -0.699659
0.163768 0.174962 -0.201974 0.0642264 -0.0274389 0.997558
0.498772 0.0139078 0.0764407 0.904018 -0.255056 -0.343071
0.256927 -0.0853889 0.318497 -0.507913 0.519806 -0.686896
-0.00223623 -0.421271 0.29399 -0.375781 -0.164079 0.912067
0.306508 -0.102948 -0.0584546 -0.689721 0.479195 0.542823
0.00280783 -0.261611 0.263073 0.482275 0.218074 -0.848443
0.109834 -0.0180126 0.417588 0.134107 -0.487601 0.862705
-0.00850442 -0.0781899 -0.157465 0.232385 0.192442 0.953396
-0.064265 -0.123664 0.304484 -0.727628 -0.149548 0.669472
0.236089 -0.351239 0.107637 -0.749309 0.594665 -0.291392
0.368367 0.479775 -0.200685 0.0387656 0.988575 0.145663
-0.15735 -0.250217 0.155298 -0.684638 -0.308289 0.660476
-0.145814 0.0974995 0.204909 0.943583 0.106056 -0.313693
0.320368 0.101259 0.372879 -0.908617 0.41386 0.0559897
-0.182892 -0.481079 0.164643 -0.494615 -0.386536 0.778425
0.181152 0.233767 0.532622 0.161783 -0.476788 0.864002
-0.176916 -0.541446 0.141868 -0.287929 -0.860536 -0.420208
0.16437 0.206001 0.656038 -0.610481 -0.78551 0.10142
-0.0492585 0.383327 0.505131 -0.432535 -0.192545 0.880818
-0.136181 -0.123817 0.221282 -0.806588 -0.106015 0.58153
0.25084 -0.324608 0.168179 0.720764 -0.477412 0.50257
0.0542198 0.28213 0.543846 -0.445259 -0.785955 -0.428974
0.0466882 -0.135584 -0.162284 0.290332 -0.167121 0.94222
0.26779 -0.480948 0.0145972 0.801721 -0.482296 0.353035
0.247143 0.0237274 -0.135375 -0.470001 0.315857 0.824217
0.172251 0.291242 -0.263967 0.12882 -0.507749 -0.85182
0.152125 0.534565 -0.236838 0.198699 0.206318 0.958098
-0.0760725 -0.227258 0.208082 0.811124 -0.0593108 -0.581859
0.32535 -0.213946 -0.0184909 -0.67283 0.137802 0.726849
0.463234 0.0684807 -0.00989693 0.8082 -0.552608 -0.203559
0.249562 -0.251092 -0.080831 -0.599489 -0.00803997 0.800343
0.0201129 0.31237 -0.225826 -0.172602 -0.238103 -0.95578
0.4141 -0.0784765 0.0584677 -0.931101 0.362641 -0.0392726
0.182919 0.419586 -0.222866 0.0608139 0.0487598 0.996957
0.297019 -0.402648 0.0511185 0.742659 -0.45414 0.492152
-0.150294 -0.326135 -0.0928814 -0.991499 -0.0265561 -0.127377
0.152071 0.599926 -0.387791 0.219823 0.228911 -0.948302
0.0824025 -0.145643 -0.178157 -0.194635 0.28961 0.937146
0.212705 -0.403612 -0.118001 -0.559264 -0.0916328 0.82391
0.163632 -0.218265 -0.135785 0.105463 -0.387583 0.915782
-0.199319 0.525759 0.0135254 -0.940917 -0.207635 -0.267511
0.292031 -0.345833 0.0245874 -0.690721 0.512085 -0.510562
0.619655 0.239552 -0.0358626 -0.229428 -0.805498 -0.546385
-0.044766 0.355208 -0.120274 0.720549 0.0872411 0.687894
0.420074 -0.139699 -3.49421e-06 0.89716 -0.245419 -0.36725
0.129128 -0.0207856 0.364309 -0.131387 0.410462 -0.902363
0.150392 0.503254 -0.222473 0.201618 -0.00332308 0.979459
0.120311 -0.537684 -0.233557 0.33489 0.124797 -0.933956
0.140871 -0.198169 0.340164 0.32437 0.216696 -0.920775
0.581054 0.268018 0.171087 0.234131 0.895911 0.377527
0.136528 0.197653 -0.253182 0.0333731 -0.308308 -0.950701
-0.135319 -0.0308906 -0.000961364 0.891079 0.0070454 0.453793
0.44794 0.185485 0.285315 -0.559398 -0.780311 0.279621
0.334867 0.42652 -0.250362 0.30083 -0.415056 -0.858621
-0.302157 0.569637 0.253111 0.82208 -0.0602797 -0.566172
0.420839 0.448521 -0.205601 0.565939 0.0577592 -0.822422
-0.0160527 0.169267 -0.147835 0.797337 -0.000621112 0.603534
0.473177 0.00342551 0.0412401 0.819572 -0.211605 -0.532471
-0.19333 0.519419 0.245331 0.934631 0.345852 0.0827725
