ply
format ascii 1.0
comment Created by Open3D
element vertex 512
property double x
property double y
property double z
property double nx
property double ny
property double nz
end_header
-0.169181 0.217485 -0.0799694 -0.948706 -0.315958 0.0112973
-0.100771 0.394926 0.190525 -0.405182 0.847497 0.342895
-0.0984178 0.205847 0.568459 -0.148657 0.380826 0.912619
-0.166468 0.287603 -0.215024 -0.198969 0.914627 -0.351949
0.0886869 -0.203635 -0.139804 0.129247 -0.798377 0.588123
-0.126402 0.11723 -0.286752 -0.919171 -0.393125 0.0240192
-0.132531 0.0701274 -0.102428 -0.918169 -0.248138 -0.308858
0.167409 -0.334436 -0.221272 0.194644 -0.52986 -0.825446
0.0614733 -0.000936757 -0.0717967 -0.294346 0.906744 0.301952
-0.197306 0.307414 -0.09928 -0.917313 -0.374501 0.135225
-0.0112039 -0.326311 -0.00293026 -0.992399 -0.0472137 -0.113645
-0.133998 0.469098 -0.0284337 -0.180047 0.963787 0.196718
-0.203824 0.289438 0.21515 -0.937942 -0.346699 -0.00802319
0.118868 -0.15388 0.266511 0.424001 -0.706218 0.566992
0.147678 -0.175287 0.21892 0.880778 0.46474 -0.0908117
-0.0701222 0.0110902 0.491691 0.125974 -0.665247 0.735919
0.0566266 0.200356 -0.210897 0.950464 0.310681 0.00973557
-0.0646657 -0.204426 0.254943 -0.937748 -0.0659443 -0.340999
0.101421 -0.0194685 0.342884 0.960778 0.243371 0.132952
0.140773 -0.125546 0.211315 0.965431 0.243566 0.0928353
0.00725107 -0.266498 0.167722 0.153164 -0.689237 0.708162
-0.132003 0.367289 -0.157084 -0.18238 0.264184 -0.947071
0.0221286 -0.406846 -0.0687062 -0.968595 -0.246369 -0.0335519
-0.0883693 0.509455 -0.328091 -0.176035 0.714402 -0.677231
0.131829 -0.0742299 -0.279544 0.170416 -0.208909 -0.962972
-0.034395 0.233036 -0.35726 0.0743159 -0.118982 -0.990111
-0.012246 0.167106 0.346919 0.130309 -0.214553 0.967981
0.0437837 -0.2212 -0.27031 -0.0536722 0.105794 -0.992938
-0.152017 0.315513 -0.166687 -0.183844 0.624152 -0.759365
-0.0710189 0.0899101 0.569791 0.0638251 -0.349468 0.934772
0.036985 0.270713 -0.221839 0.966182 0.248372 0.0693049
-0.14454 0.223707 0.546724 -0.217156 0.174645 0.960387
-0.0733754 0.429882 0.149546 -0.266145 0.915488 0.301743
0.160228 -0.162387 -0.118458 0.93849 0.221705 0.264734
-0.0187703 0.210523 0.576113 0.34273 0.0113146 0.939366
-0.13328 0.256471 0.52062 -0.148784 0.807641 0.570595
-0.00333844 0.33359 0.197034 0.921967 0.38525 -0.0394909
0.0126858 0.314027 -0.24661 0.956021 0.215926 0.198494
0.00244698 -0.170659 0.266592 -0.0545615 -0.494077 0.867704
-0.128285 0.124048 -0.346773 0.134416 -0.394955 -0.908814
0.0426117 0.240567 -0.0379317 0.983013 0.154448 0.0991563
0.00569387 -0.135119 0.319954 0.188591 -0.723298 0.664285
-0.099084 -0.000985529 -0.281764 -0.999288 0.022154 0.0305417
-0.149938 0.526043 -0.235706 -0.202526 0.964936 -0.166977
-0.00873501 0.373956 0.0240065 0.945924 0.32103 0.0465523
0.210413 -0.316134 -0.038023 0.972805 0.22488 0.0554887
0.0345637 -0.0274897 0.42248 0.123276 -0.719926 0.683015
0.165622 -0.377437 0.00412421 0.133547 -0.715158 0.686086
-0.115853 0.0531417 -0.19682 -0.661417 -0.358781 0.658638
0.119623 -0.0626497 0.320222 0.917044 0.287526 -0.27633
-0.193779 0.275159 0.456886 -0.290067 0.899181 0.327619
0.112801 -0.370884 0.0232944 0.159317 -0.712056 0.683809
-0.144178 0.442798 -0.244052 0.14733 -0.922925 0.355672
-0.0432807 0.470221 0.0571368 -0.172799 0.960738 0.217079
-0.0760617 -0.0560111 -0.311319 -0.0923586 0.00767869 -0.995696
0.140341 -0.0948786 -0.0710501 0.949963 0.258358 0.175562
0.0881804 0.0431957 0.155598 0.990149 -0.128117 0.0564883
-0.0458345 -0.158991 0.305255 0.0543032 -0.692247 0.719614
0.0211484 -0.00204444 -0.305269 0.280759 -0.184888 -0.941802
0.148708 -0.319363 -0.0864605 -0.279385 0.957033 -0.0776659
0.0240469 -0.00234474 0.457312 0.0898037 -0.706929 0.701561
-0.171788 0.443872 0.00471091 -0.528066 0.771895 0.354011
-0.0231815 0.44873 -0.0798299 0.898696 0.436237 -0.045206
0.0587573 0.205932 -0.14641 0.853762 0.447451 -0.26623
-0.0894235 -0.0467779 -0.198779 -0.949205 -0.314657 0.000269226
-0.11551 0.154693 0.350495 0.134779 -0.216868 0.966852
-0.10208 0.296894 -0.370945 0.0409067 0.0220727 -0.998919
0.0353275 0.197466 0.216743 0.961403 0.272595 0.037365
0.209423 -0.291694 -0.217625 0.970353 0.0461327 0.237248
0.161319 -0.164647 -0.0528266 0.96398 0.259111 0.0600389
-0.0076079 0.0660724 -0.321126 0.0260328 0.241849 -0.969965
-0.035713 0.0577359 0.541184 0.312634 -0.788497 0.529653
-0.217236 0.38907 -0.323919 -0.967856 -0.179359 -0.176309
-0.222517 0.414154 -0.0864964 -0.93516 -0.223542 -0.274781
0.0211605 0.318787 -0.12846 0.957552 0.284606 0.0457433
0.082258 -0.033666 -0.29861 0.0364261 -0.105252 -0.993778
-0.111183 -0.0541329 0.4009 -0.88567 -0.452086 0.105858
0.0948906 -0.054599 0.370312 0.358704 -0.763434 0.537121
0.00997562 -0.361934 -0.0205103 -0.900929 -0.433126 -0.0269922
0.00393759 0.311695 0.341841 0.813162 0.237232 -0.531496
-0.189289 0.398566 -0.374483 0.0911991 0.141813 -0.985683
-0.00134131 0.131548 0.173337 0.0888359 -0.164402 -0.982385
-0.0703015 -0.146572 -0.0162251 -0.962384 -0.263681 -0.0654944
0.125497 -0.0515462 0.0197239 0.906667 0.372532 -0.197929
-0.0139528 -0.198011 -0.276794 -0.0140522 -0.1426 -0.989681
0.16809 -0.223569 0.0412978 0.913765 0.406166 -0.00794005
-0.0755723 0.488676 -0.042806 -0.264017 0.962175 0.0671861
-0.0559761 -0.170479 0.0689865 -0.881958 -0.465652 -0.0729296
0.0776275 -0.226429 -0.042852 0.16087 -0.470549 -0.867585
0.136321 -0.085448 0.126981 0.970569 0.219989 0.0979878
-0.168324 0.143465 0.335055 -0.950591 -0.310191 -0.0125613
-0.00967407 -0.31549 0.119651 0.16603 -0.704585 0.689923
-0.0626052 0.109192 -0.337905 0.151854 -0.240352 -0.958734
-0.0356455 -0.204783 -0.0362583 -0.94652 -0.263944 -0.185561
0.119191 -0.290062 -0.163638 -0.224085 0.514436 0.827733
-0.105749 0.00888378 -0.232746 -0.945362 -0.32482 -0.0279665
-0.000353147 0.415544 -0.365458 0.96886 0.190162 0.158584
-0.0389987 0.114498 0.154304 0.943197 0.329464 0.0428117
0.0011246 0.00643014 -0.0284207 0.887106 0.45323 -0.0873269
0.0427424 0.201169 0.276731 0.949723 0.312431 -0.0203139
-0.0861526 -0.124672 0.248805 -0.978517 -0.193747 -0.0704737
-0.196097 0.488681 -0.130723 -0.235034 0.961489 0.142473
0.00433542 0.314429 0.108189 0.887287 0.457816 0.0559163
-0.179635 0.297334 -0.37215 -0.956536 -0.28295 -0.0705529
0.129411 -0.0421561 -0.222622 0.983603 0.00428412 0.180296
0.157842 -0.165115 0.0320497 0.883336 0.451466 -0.126081
-0.0583586 0.173549 -0.0334072 0.967656 0.207194 0.143921
-0.150073 0.204264 0.428737 0.226365 -0.955121 0.191055
-0.115961 0.42517 -0.164196 0.336075 -0.61931 -0.709583
-0.104506 -0.0262941 0.245205 -0.936847 -0.348099 0.0338214
0.0220844 0.341246 -0.371389 0.914429 0.400079 -0.0612838
0.17977 -0.371142 -0.185008 0.273811 -0.785945 -0.554362
0.0970422 0.0905059 -0.309534 0.967745 0.248463 0.0416636
-0.097791 -0.0774823 0.3284 -0.981441 -0.103695 -0.161313
0.180332 -0.26639 0.0949628 0.975542 0.192215 0.106636
0.0205586 -0.150047 -0.279056 0.0931743 -0.223854 -0.970159
-0.204043 0.324482 -0.163836 -0.970445 -0.215792 -0.108033
0.0796681 0.0688235 0.203901 0.953118 0.301017 0.0308863
-0.0915707 0.122671 -0.0566974 0.0290043 -0.498736 0.866268
-0.0607618 0.453945 -0.1713 0.0850741 -0.298865 -0.950496
-0.0191906 -0.290815 0.0622242 -0.969591 -0.169584 -0.176448
-0.0932219 0.0740506 -0.330037 0.11915 0.011811 -0.992806
-0.15106 0.380712 0.173736 -0.282407 0.916727 0.282593
0.00602124 -0.335374 -0.233705 -0.930822 -0.293555 -0.217705
0.0120584 -0.232079 -0.0518776 0.324283 -0.609074 -0.723788
-0.0698604 0.24536 0.551312 -0.144762 0.518205 0.842916
-0.150587 0.520933 -0.161235 -0.241486 0.938178 0.248004
0.121831 0.027797 -0.301671 0.895451 0.440742 0.0625618
0.00935554 0.253107 0.402426 0.964033 0.261642 0.0467274
-0.0894913 0.288275 0.516579 -0.302797 0.72364 0.620209
0.0367167 -0.0848977 -0.294752 -0.136723 0.132626 -0.981691
0.00336268 0.363283 -0.141279 0.951374 0.307367 0.020325
0.0845592 0.0616121 -0.1117 0.902826 0.293904 -0.313888
-0.064487 0.455219 -0.365208 -0.0768855 0.326969 -0.941902
-0.0999403 0.00417422 -0.156272 -0.947338 -0.302111 0.106207
-0.229647 0.389583 0.0157247 -0.950989 -0.298683 0.0800493
-0.148172 0.0407137 0.455104 -0.986917 -0.150195 -0.0586221
-0.212311 0.298414 0.261828 -0.882326 -0.266514 -0.387906
0.0403018 -0.00556378 0.125151 -0.34436 0.737562 -0.580877
-0.0797558 -0.0403112 0.450448 0.430347 -0.716488 0.549042
9.8559e-05 0.319313 0.0282549 0.8371 0.537663 -0.10091
-0.158333 0.294324 0.426883 -0.336405 0.768544 0.544216
0.119804 -0.0153262 -0.160648 0.882421 0.470147 -0.0171608
-0.227473 0.428344 -0.139945 -0.907933 -0.404712 0.10893
-0.111012 0.342696 -0.288594 -0.261347 0.46176 0.84763
-0.0439514 0.159974 0.160991 0.120687 -0.182659 -0.975741
-0.184967 0.186988 0.372829 -0.918211 -0.395296 -0.0250841
0.0453019 -0.333653 -0.0508211 -0.173164 0.733844 -0.656877
-0.0479791 0.294007 -0.364753 0.102032 -0.0600408 -0.992968
-0.00695224 0.131612 -0.115704 -0.252685 0.215883 0.943157
0.0462623 0.233815 -0.257331 0.966642 0.241695 0.084777
0.0682734 0.107053 -0.110066 -0.0552738 0.0302381 0.998013
-0.0231122 0.0650829 0.186863 0.950859 0.295497 0.0924635
-0.0404551 0.221382 0.475692 0.202737 -0.790424 -0.578038
-0.00473131 0.372754 -0.0813147 0.887189 0.452926 0.0880558
0.0732136 0.0660682 0.397159 0.930333 0.347315 -0.117699
0.063977 -0.0262323 0.00761776 -0.271909 0.962039 0.023363
0.00695397 0.0787084 -0.104697 0.00498886 -0.028562 0.99958
0.11062 -0.290303 -0.247857 0.112318 -0.221571 -0.968654
-0.174675 0.222573 -0.0212156 -0.965314 -0.246589 -0.0858033
0.0475488 -0.252495 -0.168267 0.139696 -0.421023 0.896228
0.0900478 0.013913 0.392441 0.937824 0.345911 -0.0288442
0.148466 -0.144668 0.0926116 0.958187 0.277999 0.0677849
0.00365289 0.347979 0.0856524 0.964127 -0.0225511 0.264483
-0.124332 0.0156391 0.270963 -0.96243 -0.265045 -0.0589898
-0.05167 0.527473 -0.122218 0.978927 0.171301 0.11117
-0.0692756 -0.119509 -0.0904751 -0.928418 -0.371511 0.00442497
-0.118619 0.377667 -0.3865 0.0295998 0.167269 -0.985467
-0.118528 0.426055 0.105491 -0.159095 0.978862 0.128518
-0.120218 -0.0239439 0.358681 -0.954496 -0.286915 -0.0813421
-0.0408816 0.508959 -0.22059 0.717241 0.6964 0.0243211
-0.147309 0.128751 -0.066176 -0.908374 -0.416674 -0.0352147
0.190531 -0.246869 -0.195536 0.976237 0.176287 0.12603
0.00770758 -0.0169007 0.0917049 0.956994 0.149101 0.248861
0.132641 -0.244733 -0.256194 0.0646778 -0.585387 -0.80817
0.0253259 0.150799 -0.328593 0.0410496 -0.105221 -0.993601
-0.129992 0.0941449 0.482757 -0.0237081 0.409257 -0.912111
-0.0444767 0.0418709 -0.0618562 -0.583512 0.541032 0.605639
-0.0841149 -0.0542705 -0.0523994 -0.946605 -0.322271 -0.00898461
0.208083 -0.317564 -0.124472 0.855801 0.508175 -0.0967578
-0.202951 0.439059 -0.361228 -0.0656802 0.536587 -0.841285
-0.167637 0.149079 0.288867 -0.983199 -0.103791 -0.150156
-0.0922642 -0.0491321 0.0808002 -0.925025 -0.277505 -0.259462
0.0386451 -0.426942 -0.16131 0.222739 -0.672357 -0.70592
-0.10732 0.0817242 0.445407 0.160337 0.919384 -0.359201
0.039487 -0.212868 0.20727 0.278799 -0.757592 0.590191
0.0583203 0.147846 0.231899 0.957681 0.280261 0.0655741
-0.0747103 -0.124308 0.359531 0.229078 -0.725355 0.64914
0.0190964 -0.412174 -0.0111232 -0.920466 -0.390163 0.0226933
0.0603915 -0.194557 -0.0871247 0.202706 -0.978077 -0.0477063
0.13338 -0.103238 -0.123735 0.982821 0.0798825 0.166379
0.10297 -0.32939 -0.0732801 -0.249289 0.8793 -0.405815
0.0661046 0.0949795 0.246942 0.975363 0.185291 0.119725
0.2148 -0.372551 -0.0319764 0.246743 -0.886322 0.391856
-0.149708 0.129824 0.172099 -0.899321 -0.436072 -0.0325995
-0.205037 0.320858 -0.0455405 -0.995849 0.0768727 -0.0487396
0.0615549 -0.104426 0.328005 0.124447 -0.740422 0.660521
0.0817424 0.133867 -0.276646 0.903244 0.413436 -0.114986
-0.0253502 0.475565 -0.268946 0.897063 0.440202 0.038732
-0.0545027 0.181259 0.101369 0.965317 0.227724 0.127688
-0.0794286 -0.0944172 -0.000571661 -0.949645 -0.310847 -0.0393529
-0.130732 0.443451 0.0478623 -0.174951 0.967006 0.185177
0.0579832 0.0319711 -0.314115 0.0907013 -0.34421 -0.934501
-0.0693305 0.16576 -0.351608 -0.0316249 0.183791 -0.982456
-0.0382268 -0.248854 0.184543 -0.943151 -0.332337 0.00429215
0.0383147 -0.44707 -0.0820709 0.277239 -0.948771 0.151566
-0.112294 -0.0215366 0.314726 -0.935185 -0.352723 -0.0318715
0.0468 -0.311325 -0.248211 0.172259 -0.404627 -0.898111
-0.220939 0.362311 0.128919 -0.945643 -0.324878 -0.01463
0.0974297 0.0101281 0.245669 0.955516 0.291865 0.0424821
0.0225421 0.32161 -0.310262 0.912786 0.17912 0.367066
-0.022307 -0.0317064 -0.311329 -0.0719967 -0.114732 -0.990784
0.0284434 0.286399 -0.169276 0.944644 0.287079 0.158848
-0.0609591 -0.148265 -0.140923 -0.925338 -0.138354 -0.352998
0.129073 -0.0471844 -0.125187 0.955927 0.289253 0.0503644
0.0685746 -0.35697 0.0430317 0.330796 -0.793483 0.510842
0.030527 0.158374 0.49107 -0.0689579 0.332427 -0.940605
0.0780286 -0.289534 0.11272 0.177731 -0.71438 0.67681
0.130828 -0.061446 -0.171692 0.753028 0.634417 -0.174538
-0.152074 0.338363 -0.378217 0.0730038 -0.135566 -0.988075
-0.163759 0.315324 0.365798 -0.399507 0.704758 0.586268
-0.155689 0.401443 -0.291563 0.39972 -0.55588 0.728849
0.126231 -0.03035 -0.0820684 0.978066 0.203575 0.044087
-0.209322 0.331485 0.0651761 -0.908651 -0.41538 0.0425885
-0.0273522 0.327989 -0.203962 -0.331809 0.93665 -0.112209
0.0231579 0.28808 -0.0797706 0.90889 0.412209 0.0632661
0.100774 -0.00566232 0.201784 0.968752 0.219602 0.115303
-0.100785 0.306286 0.436484 -0.359545 0.819732 0.445833
-0.0193491 0.215355 -0.0395714 0.166412 -0.707562 0.686778
-0.100532 0.391532 0.235594 -0.26151 0.953756 0.148197
0.0124538 0.300618 -0.0150668 0.961811 0.208953 0.176801
0.0249455 0.0494574 0.182318 -0.0328258 0.628372 -0.77722
-0.0566887 0.356015 -0.280446 -0.237913 0.468416 0.850872
-0.194859 0.234812 0.244874 -0.944792 -0.327666 0.00175791
-0.120182 0.0660098 -0.255758 -0.931719 -0.363134 0.00583014
0.000278258 0.292025 -0.362227 0.0369466 -0.0764382 -0.99639
0.12441 -0.284633 0.104097 -0.0822548 -0.657428 0.749014
0.111427 -0.0664294 0.258867 0.956925 0.283958 0.0605167
-0.051648 0.00745257 0.109294 -0.105994 0.649937 -0.752561
-0.174658 0.3679 -0.152453 0.281867 -0.0510507 -0.958094
0.134197 -0.227584 -0.0282415 0.248816 -0.637657 -0.729029
-0.0237065 0.219314 0.371417 0.00535508 -0.532719 0.846275
0.152243 -0.135951 0.139049 0.972861 0.00472336 0.231343
0.0582093 -0.320114 -0.166347 -0.237429 0.214042 0.94753
-0.0778253 -0.102707 0.05177 -0.947732 -0.163955 -0.273721
0.0404241 -0.274483 -0.0258842 0.255744 -0.135734 -0.957168
-0.179288 0.517617 -0.197683 -0.292117 0.944755 0.148677
0.0293691 0.0949967 -0.321065 0.0514985 0.102482 -0.993401
-0.156035 0.157455 0.0102445 -0.903075 -0.394116 0.170672
-0.0817803 -0.0516714 -0.131058 -0.93793 -0.247311 -0.243154
0.11878 -0.000928772 -0.267228 0.909377 0.38487 -0.157822
0.0233982 0.258588 0.18131 0.947487 0.318375 0.0301118
-0.150259 0.248239 -0.365645 0.0987957 -0.207764 -0.973177
0.120552 -0.0633197 0.193297 0.967186 0.0536084 0.248351
0.0324315 0.224336 0.319748 0.97814 0.0767678 0.193256
-0.160591 0.308715 -0.278067 -0.317388 0.687933 0.652697
-0.00438799 0.263261 0.556143 -0.190717 0.531995 0.82499
0.0837903 -0.234573 0.177678 0.529536 -0.742222 0.410729
0.0536181 -0.266085 0.145688 0.230461 -0.797976 0.556886
0.0985289 -0.427564 -0.143536 0.325725 -0.882117 -0.340254
0.180365 -0.185455 -0.173758 0.921856 0.352551 -0.160902
-0.195733 0.240509 0.177137 -0.96388 -0.25891 -0.0624628
0.0346672 -0.328403 0.0871167 0.100527 -0.719191 0.687501
-0.0064081 0.307523 0.513314 0.954235 0.291833 0.0653369
-0.150923 0.0941565 0.328804 -0.948316 -0.315919 0.0298705
0.0545873 0.217699 -0.0925351 0.954892 0.295059 0.0334918
-0.085455 -0.116174 0.30441 -0.926272 -0.376256 0.0212691
-0.193675 0.292036 0.00963946 -0.962352 -0.148272 -0.227804
-0.0987634 0.466459 -0.209599 0.259089 -0.806504 -0.531436
0.18611 -0.25243 -0.254303 0.0680075 -0.102863 -0.992368
-0.0267651 0.243629 0.0347895 0.314505 -0.870013 -0.379688
-0.1873 0.174292 0.496434 -0.812941 -0.570155 0.118533
0.00194805 0.0132109 0.153947 0.00398317 0.685486 -0.728075
-0.136001 0.0551874 0.238388 -0.854129 -0.398405 0.334271
0.0714568 -0.397459 -0.200369 0.220904 -0.820731 -0.526879
-0.0640171 0.164048 0.499348 0.266496 -0.135817 -0.954219
0.00820835 0.204682 0.163377 -0.036814 -0.0995435 -0.994352
0.203609 -0.302822 0.0633436 0.936795 0.346284 0.0500295
0.0574742 0.135963 0.307904 0.937222 0.346968 0.0350361
-0.171825 0.36519 0.229112 -0.320065 0.943331 0.0876648
0.00336582 0.394639 -0.322918 0.815137 0.579186 -0.00975811
-0.0786435 0.377148 0.271424 -0.306339 0.9486 0.0794587
0.0256031 0.253797 0.0547836 0.958763 0.27612 0.0673095
-0.113986 0.0250164 0.130238 -0.156152 0.643434 -0.749406
-0.12585 0.140396 0.0972072 0.506284 -0.748394 -0.428466
-0.0454814 0.533337 -0.303638 -0.0833977 0.781189 -0.618699
0.170153 -0.201576 -0.00593455 0.955512 0.254723 0.148701
-0.194115 0.507361 -0.287267 -0.176118 0.860408 -0.478206
-0.177941 0.234094 0.0261457 -0.960495 -0.273064 -0.053719
-0.149868 0.0441328 0.526885 -0.931773 -0.362824 -0.0125911
-0.227157 0.436125 -0.291645 -0.940623 -0.338975 -0.0179929
0.0872398 -0.114728 -0.286212 0.064382 -0.132816 -0.989047
0.153896 -0.120453 -0.170506 0.982213 0.167971 0.0839236
-0.2275 0.377717 -0.0457293 -0.845646 -0.533662 -0.00940032
-0.0587551 -0.149606 -0.204541 -0.90041 -0.420522 0.111457
-0.163817 0.121514 0.573831 -0.0616262 0.0316587 0.997597
-0.101877 -0.00100786 -0.105712 -0.965851 -0.255579 -0.0425616
-0.0547645 -0.0269609 0.0521914 -0.143309 0.845316 -0.514687
0.0489526 -0.178986 0.244843 0.0774209 -0.645039 0.760218
-0.11128 0.503833 -0.0788048 -0.295426 0.724741 0.622474
0.0921205 0.10092 -0.207208 0.965012 0.249388 0.0809761
-0.0104246 0.170866 0.504161 -0.0530527 0.0910011 -0.994437
-0.154958 0.0941505 0.517851 -0.87528 -0.442886 -0.19426
0.229799 -0.375873 -0.142243 0.938378 0.339504 -0.0646786
-0.0512363 -0.151917 -0.295217 -0.904511 -0.423522 -0.0498858
-0.0954054 0.523919 -0.128685 -0.288765 0.906012 0.309446
-0.132545 0.522875 -0.283222 -0.429686 0.902818 -0.0170063
-0.0433198 0.405864 -0.297433 0.137919 -0.211721 0.96755
-0.0605758 0.0297635 -0.318543 -0.0471706 -0.0557192 -0.997332
-0.00553075 0.215559 0.106614 0.246678 -0.957169 -0.151581
0.216489 -0.328424 -0.170046 0.932862 0.346202 -0.0995645
0.0608757 0.105641 0.190993 0.0384996 0.0163355 -0.999125
0.0177165 0.345731 -0.189965 0.862648 0.505398 0.0202555
-0.0714497 0.358519 0.340006 -0.233733 0.931797 0.277712
0.184496 -0.274331 -0.164736 -0.0445654 0.00885975 0.998967
0.0396418 0.138578 0.573075 0.855161 0.483085 -0.187959
-0.0465624 -0.201351 0.0156569 -0.987303 -0.109188 -0.115373
-0.15367 0.167637 -0.0897339 -0.955211 -0.29234 -0.0459209
-0.129845 0.336676 0.340491 -0.441874 0.79324 0.418949
-0.23664 0.382794 0.0769178 -0.95831 -0.18857 -0.214671
-0.138802 0.0852506 0.559614 0.0499434 -0.325777 0.944127
-0.237567 0.434834 -0.0191379 -0.933062 -0.359012 -0.022487
0.00680518 -0.250458 -0.154951 0.0754178 -0.622346 0.7791
-0.0210006 0.144065 0.581873 0.0937732 -0.315694 0.944216
0.010285 0.0935145 0.561477 0.425593 -0.767149 0.479951
-0.124144 0.280492 0.481288 -0.275445 0.897824 0.343574
-0.0135041 0.403877 0.0944974 0.94764 0.180213 0.263633
-0.0637966 0.200707 0.0301631 0.932194 0.361954 -0.00174492
-0.112646 0.230151 -0.348453 0.210033 -0.283136 -0.935799
-0.0100039 0.124059 0.381797 -0.0469574 0.82158 0.568156
-0.247754 0.464243 -0.166429 -0.98212 -0.141907 -0.123702
-0.196144 0.211517 0.528118 -0.66816 -0.73397 0.121862
-0.0978837 0.175546 0.0120158 0.27972 -0.927113 0.249435
0.117793 -0.327317 0.0703088 0.173452 -0.702745 0.689974
-0.0566482 0.241455 -0.00190139 0.143125 -0.709846 0.689662
-0.194488 0.260492 0.122611 -0.850484 -0.472944 -0.230218
-0.19244 0.271339 -0.0538244 -0.960444 -0.276264 -0.0349954
-0.134141 0.12603 -0.1493 -0.980131 -0.191966 0.0499306
-0.0770341 -0.0600025 -0.25511 -0.951497 -0.304796 -0.0418735
0.0648123 0.0786249 0.469693 0.959189 0.151098 0.239008
-0.0800848 0.119696 0.113674 0.18213 -0.263336 -0.947356
-0.0886214 -0.0849133 0.137453 -0.964847 -0.243614 -0.0986012
-0.222201 0.409302 -0.195392 -0.993627 -0.048762 -0.101624
-0.184773 0.221012 0.0750118 -0.914808 -0.399481 0.0595092
-0.0324836 -0.219458 -0.202364 -0.912049 -0.406984 -0.0502975
-0.0577547 0.55367 -0.229978 -0.448419 0.889941 0.0832178
-0.0839973 0.00515584 -0.0527536 -0.368392 0.641819 0.672574
-0.185471 0.402099 0.119501 -0.269733 0.873212 0.405889
-0.185125 0.421256 0.0546097 -0.287106 0.944279 0.160955
-0.103031 -0.0338735 0.142502 -0.986165 -0.161932 -0.0354489
-0.0136948 0.446127 -0.318522 0.936306 0.350961 0.0125359
-0.102314 0.392389 -0.290643 0.180186 -0.262342 0.948003
-0.198261 0.259258 0.291953 -0.949274 -0.133526 -0.284694
-0.161121 0.349814 -0.300553 -0.11094 0.199878 0.97352
0.0279249 0.104279 0.445647 -0.450824 0.888369 -0.086943
0.161047 -0.139116 -0.211925 0.903713 0.427244 -0.0276492
-0.0618947 -0.160552 0.133306 -0.950291 -0.276896 -0.142394
-0.0918217 -0.0912639 0.19792 -0.986551 -0.157206 -0.04476
-0.0302162 -0.223635 -0.120845 -0.885785 -0.219047 -0.40915
0.000660874 0.0168731 -0.0820083 0.936597 0.348995 0.0314387
-0.225811 0.469686 -0.314438 -0.957352 -0.285648 -0.0433867
-0.0287082 -0.052334 0.40516 0.108939 -0.572938 0.812326
-0.109267 0.201676 0.469626 0.216296 -0.60403 -0.767049
-0.162858 0.17125 0.137588 -0.845782 -0.522808 0.106418
-0.18141 0.274644 -0.319655 -0.970945 -0.148791 -0.187424
-0.132794 0.161396 0.571717 -0.0943599 0.0749917 0.99271
-0.166034 0.1487 0.220599 -0.954486 -0.208317 -0.213451
-0.0349266 0.499416 -0.34787 0.954077 0.28688 0.0862358
0.147901 -0.120355 -0.00344243 0.942797 0.333202 0.0104909
-0.12327 0.355799 0.279813 -0.312293 0.930458 0.191626
-0.043839 0.533903 -0.174465 0.951508 0.288439 0.106931
-0.0709802 -0.0957178 -0.207692 -0.892717 -0.262774 0.366068
0.217565 -0.387143 -0.0966675 0.377546 -0.924855 -0.0458416
-0.215185 0.343472 0.0174783 -0.916748 -0.332535 0.221344
-0.00712287 -0.215622 0.233429 0.181182 -0.72657 0.662774
0.122166 -0.0109651 -0.0249431 0.924494 0.378845 0.0422735
0.12548 -0.1814 -0.103711 0.265579 -0.956691 0.119209
-0.0773149 0.40553 -0.379022 0.110065 0.0471513 -0.992805
0.0195381 0.208889 -0.344097 0.117784 -0.171219 -0.978167
0.067312 -0.355762 -0.115013 -0.350304 0.922773 0.160554
-0.0207071 -0.0847497 -0.291848 0.131365 -0.224593 -0.965557
-0.080117 0.0786757 -0.0762973 0.288682 -0.194511 0.937458
0.0288019 -0.0407073 0.0878411 -0.227742 0.733189 -0.640756
-0.0877515 0.219957 0.426971 0.405878 -0.899298 -0.16287
0.00679301 -0.263176 -0.271612 0.0941363 -0.191076 -0.977051
-0.185567 0.197251 0.181992 -0.958428 -0.281816 -0.0446656
-0.0168982 -0.278408 -0.025151 -0.955089 -0.293362 -0.041755
-0.143137 0.0745436 0.183447 -0.988123 -0.101118 -0.115704
-0.207941 0.357788 -0.127232 -0.886815 -0.46179 0.0175789
0.0238316 0.200723 0.53223 0.810757 0.581391 -0.0682526
0.105222 0.010657 0.118119 -0.277876 0.729746 -0.624704
-0.0810833 -0.13275 0.175614 -0.994444 -0.0996111 -0.0340417
0.175008 -0.401778 -0.0614302 0.35268 -0.929611 0.106958
-0.0900647 0.0266459 0.534463 0.123562 -0.677564 0.72501
-0.0362478 -0.257761 0.0140146 -0.932746 -0.359439 -0.0280777
0.00874064 -0.382681 -0.120655 -0.97701 -0.158193 -0.142922
-0.0199501 -0.282646 -0.202857 -0.931576 -0.360656 -0.0457554
0.0447379 0.119681 0.385016 -0.324863 0.728918 0.602613
-0.0329611 -0.0179933 0.452946 0.0694271 -0.737825 0.671412
-0.00480541 0.353398 0.161629 0.95797 0.279601 0.0641564
-0.19489 0.197294 0.445566 -0.840662 -0.467148 0.273973
0.00742951 -0.0184812 0.0138419 0.93474 0.35456 0.0234192
-0.0510158 0.353959 -0.164376 -0.276224 0.622196 -0.732511
0.0827735 -0.0413274 0.0601451 -0.232939 0.813799 0.532419
-0.0318708 0.41674 0.226444 -0.198937 0.951993 0.232666
0.0216639 -0.397044 -0.204187 -0.79623 -0.599315 0.0827007
-0.148064 0.102771 0.258705 -0.957924 -0.181956 -0.221978
0.0696518 0.154116 -0.195123 0.794442 0.593655 -0.128206
-0.125504 0.156825 0.493619 0.142775 -0.374112 -0.916327
-0.129422 -0.00853855 0.490136 -0.915272 -0.378021 0.139202
0.115215 -0.243047 -0.166839 0.0871934 -0.301973 0.949321
-0.172217 0.42912 -0.188912 0.219568 -0.867036 -0.447257
0.112746 0.00616949 -0.0927982 0.98528 -0.00229666 0.170933
-0.17145 0.246879 -0.194552 -0.93654 -0.348427 0.0386281
-0.0909608 0.312744 -0.224673 -0.326972 0.944742 -0.0234872
0.0407753 0.259862 -0.310394 0.956723 0.287045 0.0478153
0.0115583 0.298367 0.161739 0.94303 0.331475 0.0286224
-0.146913 0.168741 -0.290339 -0.956043 -0.290176 -0.0421988
-0.137474 0.0965744 0.125599 0.13412 -0.368001 -0.920102
-0.124695 0.444515 -0.366839 -0.0500826 0.408893 -0.911207
-0.144377 0.0588366 0.399505 -0.244743 0.962232 0.119204
-0.0421151 0.240983 0.415064 0.221153 -0.963882 0.148403
0.0769105 0.122328 -0.155417 0.96361 0.257103 0.073171
-0.0938829 -0.0384975 0.028565 -0.0765194 0.996826 0.0219594
-0.0432347 -0.229318 0.0656115 -0.986942 -0.135084 -0.0877352
0.0671169 0.0796436 0.296961 0.936473 0.28822 0.199867
0.13302 -0.39417 -0.174134 0.319609 -0.818868 -0.476764
0.0282873 0.241385 0.121319 0.809006 0.582901 -0.07573
0.116925 -0.342919 -0.225338 0.176324 -0.46106 -0.869674
0.126685 -0.215289 0.191758 0.226304 -0.727818 0.647354
-0.0540867 -0.20067 0.186378 -0.920896 -0.388756 0.0286213
0.177619 -0.268186 -0.0319675 -0.304286 0.511327 -0.803713
-0.182016 0.46601 -0.0562628 -0.285951 0.916674 0.279177
-0.0169724 0.323966 0.422476 0.982445 0.0320158 0.183787
0.0223658 -0.213215 -0.110746 0.500053 -0.864294 -0.0542431
-0.0199211 0.378589 0.34692 0.95562 0.291599 0.0419507
-0.0203695 0.174913 -0.0808171 0.394192 -0.839279 0.374464
-0.0304173 0.480508 -0.147694 0.904477 0.403963 -0.136878
-0.085255 0.0739055 0.133786 -0.242179 0.132521 -0.961139
-0.108046 0.539254 -0.225135 -0.295839 0.955132 0.0142116
-0.034972 0.108882 -0.0759073 0.917513 0.391667 0.0690417
0.097409 0.0472035 -0.171536 0.774455 0.627226 0.0824988
-0.165162 0.214344 -0.296812 -0.973549 -0.226162 -0.0324396
-0.0263813 0.392407 0.289968 -0.36227 0.699537 0.615961
0.0636023 0.190127 -0.291757 0.951055 0.308471 0.0184437
0.0420038 0.16377 0.346204 0.962423 0.233346 0.138895
-0.134215 0.137014 -0.21627 -0.88989 -0.439659 0.121634
-0.0110383 0.334756 0.256126 0.947453 0.319449 0.0169041
-0.0181795 0.401582 -0.0252985 0.973754 0.204633 0.0996441
-0.00059509 -0.346094 -0.173771 -0.932199 -0.354551 0.0727928
0.0213925 0.261758 0.299746 0.967068 0.238731 0.0882461
0.14699 -0.125688 -0.281665 -0.148583 -0.0763898 -0.985945
-0.0420571 0.397825 -0.158944 0.120855 -0.181585 -0.975921
0.148474 -0.0933885 -0.228161 0.942922 0.332343 0.0211389
-0.0464648 0.512887 -0.0708856 0.977299 0.193372 0.0865681
-0.133739 0.0301554 0.370441 -0.943299 -0.275785 -0.184741
-0.158913 0.15596 0.0556635 0.405482 -0.794924 -0.451309
0.0851937 0.0395742 0.34094 0.978387 0.203181 0.0384311
0.0815482 -0.195372 -0.267247 0.0850253 -0.116539 -0.98954
0.159146 -0.19007 0.139754 0.944794 0.325562 0.0370622
-0.214603 0.313974 0.112002 -0.928597 -0.370875 0.0126169
-0.117509 -0.00535899 0.191928 -0.967167 -0.236422 -0.09323
0.112199 -0.11595 0.30817 0.261434 -0.759212 0.596028
0.0572396 0.0779601 0.531343 0.105757 -0.526943 0.843295
-0.0329572 0.44427 0.105147 0.987018 -0.120887 0.105746
-0.137849 0.0284566 0.315861 -0.912837 -0.155777 -0.377441
0.182394 -0.201024 -0.220118 0.930741 0.365063 0.02123
-0.196968 0.355177 -0.363685 -0.948921 -0.314058 -0.0302683
0.0446715 0.15865 -0.113083 -0.351888 0.376505 0.856982
0.0401976 -0.0706906 0.377442 0.34199 -0.807391 0.480794
0.106274 0.0363459 -0.246398 0.957041 0.211731 0.198099
-0.170405 0.223044 -0.135111 -0.942914 -0.235606 -0.23538
-0.247145 0.490539 -0.27605 -0.977668 -0.197907 -0.0706894
-0.0948534 0.201777 0.376254 0.122194 -0.651933 0.748366
-0.157464 0.174226 -0.249026 -0.812596 -0.577281 0.0802123
-0.0258949 0.407694 0.146145 0.940034 0.263272 0.216852
-0.0447266 0.345358 0.387158 -0.524455 0.744915 0.412369
-0.198314 0.252243 0.413189 -0.997874 0.0495074 0.0423947
0.0254448 0.239461 0.253624 0.78892 0.509488 0.343551
0.139201 -0.10295 0.0659296 0.947438 0.317371 0.040458
-0.0813384 0.0958158 0.357223 -0.192544 0.737869 0.646897
0.12082 -0.0474567 0.0927268 0.993122 0.0798046 0.0856702
-0.231885 0.45881 -0.0887405 -0.294297 0.807314 0.511501
0.00597428 -0.374727 0.0445489 0.2262 -0.727198 0.648087
-0.153268 0.199681 -0.35487 -0.949468 -0.281738 -0.13833
0.102274 -0.430381 -0.0754144 0.307878 -0.946917 0.0925208
0.0676401 -0.147186 0.290044 0.180689 -0.72061 0.669382
0.189695 -0.274448 0.0246588 0.992584 0.116615 0.03433
-0.0934965 0.166609 0.0584969 0.294517 -0.892049 -0.342794
-0.110847 0.329213 0.391117 -0.212724 0.959275 0.18585
0.0822646 0.011344 0.462524 0.252797 -0.776252 0.577518
-0.152141 0.481289 -0.339921 -0.193935 0.651682 -0.73328
-0.18057 0.339951 0.285838 -0.267994 0.952804 0.142635
0.180318 -0.399228 -0.131249 0.383152 -0.847855 -0.366519
-0.00616543 -0.0975628 0.356481 0.270128 -0.759483 0.59179
-0.0225716 0.108273 0.470095 -0.407087 0.845267 -0.346128
-0.0413283 -0.00682302 -0.00680016 -0.286734 0.782782 0.552301
-0.044457 0.0883967 0.412404 -0.29583 0.955241 0.000141673
-0.219111 0.327466 0.181129 -0.982327 -0.181137 -0.0471415
-0.0118747 0.424681 -0.112058 0.96712 0.198171 0.159394
-0.0783421 0.15156 0.581237 0.0990341 -0.0405973 0.994256
0.0182838 0.0479947 0.505249 -0.0604002 -0.719465 0.691897
0.119091 -0.253946 0.141139 0.181107 -0.716476 0.673693
-0.0745192 0.461575 -0.261546 0.336094 -0.854663 0.395718
-0.0449722 0.324768 0.470344 -0.281169 0.915685 0.287167
-0.0491749 -0.181902 -0.0830706 -0.958738 -0.279323 -0.0529097
0.0859489 -0.404569 -0.0139397 0.209435 -0.776614 0.594144
-0.218847 0.423068 -0.24426 0.37388 -0.926579 -0.0407948
-0.149782 0.173312 -0.18994 -0.91253 -0.386618 0.133471
0.103356 -0.291242 -0.019967 -0.10285 0.387019 -0.916318
-0.210256 0.271388 0.348048 -0.953945 -0.230001 -0.192584
0.0124606 0.238911 0.480647 0.920206 0.254238 0.297629
