ply
format ascii 1.0
comment Created by Open3D
element vertex 825
property double x
property double y
property double z
property double nx
property double ny
property double nz
end_header
0.0632621 0.0170384 0.133949 -0.461615 0.187748 -0.866985
0.0704391 -0.102119 -0.160441 0.341601 0.0231556 -0.93956
-0.102051 -0.226414 0.066994 -0.791806 -0.296787 0.533818
-0.272427 0.353573 0.058193 -0.982146 -0.186964 0.0208183
0.187803 0.424668 0.0779445 0.983488 -0.0366146 0.177232
-0.0490352 0.0050671 -0.176158 -0.259242 -0.0851343 -0.962053
-0.181716 0.143798 0.0171878 0.961798 0.267265 -0.0592854
0.0804891 -0.310549 0.0538008 -0.402435 0.0119632 -0.91537
-0.0215715 0.0420586 -0.14734 0.122171 0.0413781 0.991646
-0.0665567 0.0718124 -0.135365 0.344992 0.117446 0.931229
0.106743 -0.0150719 0.0960515 -0.707736 0.0687766 -0.703122
0.070779 -0.427164 0.051028 -0.191505 0.0644727 -0.979372
0.0986102 0.263114 -0.152756 0.51326 0.0701469 -0.855362
0.24597 0.536792 -0.07303 -0.120243 0.961529 0.246988
-0.142753 0.00489996 -0.0380152 0.871119 0.435193 0.227505
-0.0669996 -0.39827 0.0403726 -0.800581 -0.190386 0.568175
0.163353 0.3402 -0.0739639 0.868623 0.0467149 -0.493267
0.0114805 -0.298945 -0.158437 -0.118265 -0.15229 -0.981234
-0.0527186 0.346221 -0.16211 0.0632702 0.0712998 0.995446
0.154949 -0.286093 -0.0806796 0.91976 -0.0127908 -0.392272
-0.0279642 -0.177682 0.135923 -0.233651 -0.244085 0.941185
0.0630108 -0.154478 -0.162083 0.275111 0.037153 -0.960694
0.186983 0.323466 -0.0244989 0.907513 0.0504423 -0.416985
-0.142667 0.105282 -0.0862409 0.83502 0.14808 0.529918
0.0581082 -0.409377 -0.170668 0.102991 0.0818682 -0.991307
0.283236 0.487323 0.134886 0.212792 -0.976728 0.0268549
0.183111 0.505243 -0.168507 0.0643878 -0.99708 -0.041051
0.126821 -0.438308 0.0737843 0.491665 -0.00593455 0.870764
-0.0116815 -0.438997 0.0310462 0.591637 0.150559 -0.792021
0.134085 0.393684 0.1239 -0.878538 0.00388918 -0.477657
-0.16707 0.342616 -0.114645 0.64708 0.231186 0.726526
0.19447 0.464888 0.0621524 0.999044 -0.0277996 0.0337395
0.0179259 -0.272033 -0.161334 -0.0926171 -0.0468513 -0.994599
0.213982 0.536008 -0.093597 -0.0895477 0.994885 0.0467396
-0.11559 0.0619473 -0.102496 0.539339 0.0433377 0.840973
-6.06775e-05 -0.129589 -0.172023 -0.158887 -0.0440837 -0.986312
-0.0886355 0.234296 0.228191 -0.282953 -0.202985 0.937408
0.166264 0.0354365 -0.0658156 0.920308 0.00434822 -0.39117
0.146706 0.526744 -0.10339 -0.105877 0.981813 0.157586
-0.105634 0.0105042 -0.1042 0.687049 0.148512 0.711272
0.146421 -0.365809 0.0439662 0.777409 -0.0677821 0.625332
-0.0462399 0.305664 -0.194565 -0.0631461 -0.06583 -0.995831
-0.315451 0.455925 0.16805 -0.206358 0.96999 0.128592
-0.0283276 -0.0895542 -0.13531 0.477941 0.104744 0.872124
0.0936931 0.367205 -0.151737 0.665885 -0.0645489 -0.743257
0.00405279 0.138527 0.213902 0.102976 -0.213236 0.971559
0.147407 0.444393 0.17937 0.879967 -0.295541 0.371905
0.150267 0.478324 -0.0209937 -0.966807 0.146738 0.209171
0.273861 0.504835 0.184337 0.924539 0.128261 0.358854
0.0640048 0.0920059 -0.172489 0.322867 0.0225899 -0.946175
-0.061966 -0.428433 -0.116996 -0.779742 -0.0294339 -0.625409
-0.317659 0.453843 0.234018 -0.154564 0.974372 0.163431
-0.0906963 0.369181 0.22285 0.2259 0.202782 -0.952811
0.0147246 0.167883 0.216609 0.0358473 -0.201652 0.978801
-0.278609 0.405915 -0.0188138 -0.935719 -0.285215 -0.207563
0.133342 0.282923 0.118007 -0.861717 0.0920902 -0.498962
0.017971 0.488137 -0.231692 0.0188526 -0.998877 -0.0434618
0.175762 -0.131631 -0.00587161 0.999355 -0.0219124 0.0284334
0.143797 0.210033 0.0646591 -0.968224 0.0423166 -0.246479
-0.0612863 0.467121 0.368956 -0.12847 0.985525 0.110617
-0.195863 0.45265 0.36558 -0.0795945 0.995644 0.0485493
0.182661 0.400693 -0.0285616 0.960171 -0.0391213 -0.276662
-0.0934797 0.0813673 0.143977 0.510301 0.259037 -0.820057
0.13598 -0.178466 0.00848393 -0.942746 0.0487687 -0.329926
-0.15275 0.018058 -0.0978078 -0.808312 -0.163329 -0.565646
-0.0718934 0.0838692 -0.17268 -0.30765 -0.0692085 -0.948979
0.143263 0.465515 0.119822 -0.880911 0.137075 -0.452996
0.185335 0.456956 0.097312 0.944123 -0.132768 0.30167
-0.0741385 0.182166 0.21685 -0.282731 -0.166121 0.944705
-0.221867 0.496393 -0.162727 -0.0224525 0.998857 0.0421965
0.171086 -0.190926 -0.00284213 0.998018 0.0601468 0.0185224
-0.267473 0.378098 0.109414 -0.962069 -0.174007 0.210106
0.138372 -0.445397 -0.0541168 -0.970987 -0.123823 0.204577
-0.0709945 -0.380656 -0.0977353 -0.827058 -0.162288 -0.53818
0.183616 0.281108 -0.0207161 0.979356 -0.0684037 -0.190219
0.189446 0.459009 -0.00508581 0.968758 -0.0509279 -0.242722
0.183681 0.371255 0.0764356 0.932939 -0.211137 0.291626
0.0311857 -0.421817 -0.133091 -0.00133735 0.0157554 0.999875
-0.0601274 -0.462997 0.0391637 -0.852804 -0.0731354 0.517085
0.00755184 0.518037 -0.197901 -0.168154 0.972378 0.161883
0.123594 -0.493955 0.0296443 0.102965 -0.991349 -0.0813906
-0.0926277 0.0985252 0.190803 -0.361864 -0.274567 0.89088
-0.0806537 0.522482 -0.287181 -0.112269 0.986167 0.121946
0.0874329 0.288893 0.215895 0.399909 -0.155687 0.903235
0.0956172 -0.0257032 -0.111042 -0.689724 0.0548086 0.721995
0.167276 0.148372 0.0946414 0.830454 -0.195094 0.521809
0.104506 -0.260755 0.0582292 -0.765533 0.0941728 -0.636467
0.155451 -0.305186 -0.0847972 0.953573 -0.12941 -0.27194
-0.0110579 0.392591 0.270869 0.186639 -0.246102 0.951104
0.140994 -0.00391963 -0.0400774 -0.965272 -0.0988954 0.241805
-0.0371114 -0.196424 0.127494 -0.357946 -0.183946 0.915444
-0.181968 0.154231 -0.018711 0.94819 0.29075 0.128066
0.0879914 0.407892 -0.158646 0.54043 0.0841069 -0.837175
0.0145837 -0.0760079 -0.140993 0.102825 0.00411939 0.994691
0.0127366 -0.23398 -0.170431 -0.078492 -0.0742237 -0.994148
-0.0400668 -0.170124 0.134295 -0.305159 -0.345371 0.887467
0.10655 -0.211788 -0.101076 -0.755069 0.0359459 0.654659
0.0428185 -0.387722 -0.162258 -0.025345 0.535778 -0.843978
-0.212868 0.262543 0.0462734 0.937503 0.311347 -0.155405
0.0735413 -0.0481045 0.114902 -0.329855 0.102671 -0.938432
0.114521 -0.328264 -0.0754396 -0.830875 -0.148834 0.536185
0.0467168 0.385727 -0.143404 -0.372674 -0.177267 0.910874
0.26759 0.48847 0.115094 0.115635 -0.954305 -0.275557
0.150292 0.16801 0.00901895 -0.998565 0.0101127 0.0525846
0.0844325 0.214644 -0.161798 0.498779 -0.0238344 -0.866402
0.028116 0.0440423 -0.142397 -0.190475 -0.0688825 0.979272
-0.333493 0.452239 0.199632 -0.0358384 0.996937 0.0695199
-0.0181931 -0.132932 -0.134356 0.35177 0.0577469 0.934304
0.115826 -0.109471 -0.13554 0.670455 -0.182987 -0.719031
0.0130964 0.177277 0.218141 0.202327 -0.200851 0.9585
0.00533711 -0.153021 -0.17081 -0.221631 0.0352253 -0.974494
-0.158331 0.509994 -0.267095 -0.128404 0.985747 0.108697
-0.124077 -0.212302 -0.0663031 -0.933337 -0.161724 -0.320512
-0.0353961 0.466397 0.391271 -0.171328 0.97965 0.104557
0.0323943 -0.0408917 0.170181 0.208249 -0.214329 0.954303
0.117368 0.449384 0.172995 -0.816526 0.145695 -0.558622
-0.210557 0.29562 0.0889947 0.890459 0.311478 -0.331759
-0.0418154 -0.428052 0.0206755 -0.400724 0.877433 -0.263687
0.177343 -0.468688 0.00700252 0.965509 0.106748 0.237481
-0.191078 0.452434 0.36977 -0.446734 -0.0446964 0.89355
0.0595978 0.152997 0.158032 -0.626672 0.192132 -0.755227
-0.0491009 -0.0718184 -0.168841 -0.242523 -0.219522 -0.944983
0.143137 0.0156698 -0.0257324 -0.9784 0.019852 0.205767
0.154497 0.512633 0.147654 -0.0783719 0.995748 -0.0484198
0.162113 -0.161254 -0.0703794 0.918413 0.0401699 -0.393579
-0.135232 -0.0772848 -0.0930793 -0.868153 -0.193883 -0.456858
0.00644203 0.150468 0.2167 0.24746 -0.327822 0.911754
0.0540709 -0.11026 -0.132052 -0.357428 -0.0546806 0.932339
-0.17173 0.0238505 0.093504 -0.825813 -0.283922 0.487258
-0.045602 0.206545 -0.187546 -0.148752 0.0107504 -0.988816
-0.354241 0.448045 0.218813 -0.155657 0.979398 0.128646
-0.101604 0.461355 0.389148 -0.0741577 0.99429 0.0767396
0.145103 0.342504 0.0831724 -0.964097 0.0044746 -0.265514
0.0997499 0.0970318 0.168855 0.56222 -0.114763 0.818986
0.00888694 -0.456321 -0.168841 -0.387462 0.0495956 -0.920551
0.115247 0.410599 -0.0826708 -0.791462 0.106176 0.601926
0.0771638 -0.48067 -0.168316 0.0445259 -0.99882 -0.0193825
0.122601 0.000620958 -0.079186 -0.84977 0.00400762 0.527138
-0.17158 0.470937 -0.244269 0.178246 -0.975081 -0.132082
-0.104848 0.191059 0.17217 0.455665 0.300948 -0.837735
0.0897812 0.288926 -0.111793 -0.665656 -0.0338835 0.745489
0.139643 -0.055476 0.0251105 -0.964458 0.0860041 -0.249846
-0.221272 0.295912 0.0105653 0.968464 0.225487 0.105991
0.137208 -0.230996 -0.0229738 -0.99053 0.0690551 -0.118667
-0.016404 -0.358387 0.0465391 0.524735 0.132541 -0.840884
-0.0995018 -0.0241571 0.103983 0.668656 0.264527 -0.694928
0.102632 0.503538 -0.274605 0.169384 -0.959993 -0.222986
0.149315 0.255646 0.148305 0.812053 -0.0976468 0.575357
0.109159 0.531029 -0.176692 -0.135329 0.967379 0.214157
-0.0502135 -0.195233 -0.111815 0.601821 0.124503 0.788866
0.121384 -0.0129592 0.0788866 -0.879406 0.0641389 -0.471732
-0.0186773 -0.440791 0.024946 0.672887 0.191496 -0.714529
-0.297675 0.481444 -0.110126 -0.106385 0.990644 0.0854752
0.00562697 -0.000950482 0.181508 0.108601 -0.254102 0.961061
-0.26217 0.32562 0.0685217 -0.926453 -0.349138 0.14067
-0.122753 -0.0981452 -0.0291977 0.957756 0.244892 0.150772
-0.140176 0.126995 -0.0963875 0.743793 0.170938 0.646182
-0.146638 0.446987 0.224147 0.35987 0.370323 -0.856361
0.170603 0.131348 0.0874171 0.922737 -0.0855818 0.375809
0.0835952 -0.181867 0.0865031 -0.490746 0.143688 -0.859373
-0.154895 -0.0337561 -0.0920915 -0.844301 -0.191273 -0.50057
-0.24173 0.375209 0.0388212 0.932125 0.361534 0.0208855
0.104431 -0.241746 -0.101889 -0.682455 -0.131706 0.718963
-0.0477361 0.0355536 0.148529 0.181097 0.326064 -0.92784
-0.339755 0.463019 0.028404 -0.108889 0.990009 0.0895894
-0.032455 -0.409855 -0.082541 0.809248 0.00581449 0.587438
0.0307185 0.478843 0.382483 -0.211182 0.967237 0.140906
0.128549 0.529877 -0.156781 -0.0809719 0.994402 0.0678877
6.20652e-05 -0.48411 -0.122526 0.558101 -0.0247048 0.829405
-0.0654846 -0.256674 0.0892834 -0.564605 -0.39171 0.726487
0.14553 0.185777 0.0558103 -0.962053 0.0801369 -0.260831
-0.209131 0.24496 0.028176 0.940212 0.33954 -0.02671
0.0977732 0.337661 0.165567 -0.752735 0.0831319 -0.653054
-0.0154883 -0.344537 0.0961535 -0.535188 -0.0987088 0.838946
0.103664 -0.0118523 -0.101491 -0.753742 0.0213904 0.656822
-0.0291315 0.217109 -0.188252 -0.0691177 -0.0069082 -0.997585
-0.217719 0.287433 0.0108261 0.961389 0.265036 0.0740702
-0.0298679 0.366505 -0.198561 0.168993 -0.152872 -0.97369
0.264706 0.531311 0.0425268 -0.12317 0.976334 0.177765
0.160757 -0.321582 0.00720285 0.974589 -0.0319597 0.221709
0.104931 -0.468794 -0.163997 0.414991 0.0677937 -0.907296
-0.0515972 -0.0348935 0.127253 0.468454 0.143135 -0.871816
0.0246021 -0.101473 0.123513 -0.318553 0.332005 -0.887861
-0.0311612 -0.460748 -0.0913683 0.837515 0.0377283 0.545111
0.12624 -0.312186 -0.0109466 -0.979078 0.0596126 -0.194558
-0.184183 0.461822 0.266441 -0.0841456 0.995671 0.0394862
0.0747039 0.126852 0.152977 -0.603129 0.163828 -0.780638
0.108568 -0.479211 -0.117611 -0.471912 -0.245869 0.846668
-0.220738 0.396421 0.14184 0.87963 0.185965 -0.437799
-0.257105 0.420269 0.258658 0.165169 -0.971654 -0.169137
-0.182254 0.258061 -0.124086 -0.766159 -0.137101 -0.627856
0.261393 0.508585 -0.114144 0.636089 -0.684406 -0.356342
-0.0867881 0.253135 0.234886 -0.206835 -0.253905 0.944855
0.172184 -0.197197 -0.0249112 0.997523 -0.0304986 -0.0633915
-0.170033 0.462343 0.269162 -0.200605 0.964322 0.172744
0.0263431 -0.0190473 -0.141672 -0.165801 0.0239297 0.985869
0.18794 0.356063 0.0140245 0.985612 -0.160033 -0.0543851
-0.201262 0.116425 0.0879803 -0.879617 -0.295162 0.373033
0.152653 0.367849 0.0175829 -0.996576 0.0232955 0.0793299
-0.18466 0.0217253 0.0492958 -0.872545 -0.306826 0.380162
0.170007 -0.0411742 -0.0430663 0.9803 -0.115027 -0.160566
0.0249667 0.311251 -0.186687 0.272826 -0.0680777 -0.959652
-0.10656 -0.0697167 -0.0837689 0.765963 0.207487 0.608481
-0.247501 0.247614 0.0197474 -0.957165 -0.288322 -0.0265558
0.0317502 0.146004 -0.146415 -0.189768 -0.120669 0.974386
0.155694 0.463147 0.0666966 -0.967333 0.0994426 -0.23319
-0.100087 -0.343202 -0.0166027 -0.880947 -0.473051 -0.0124436
0.1091 0.236925 -0.141454 0.722457 -0.178051 -0.668097
-0.27175 0.368371 -0.0121383 -0.939498 -0.159937 -0.302926
0.00127885 0.0708079 -0.149443 -0.0976906 0.261241 0.960318
0.0770256 0.341255 0.182719 -0.60428 0.139242 -0.784511
0.0182336 0.446056 -0.15595 -0.161518 0.00494795 0.986857
0.22337 0.474779 0.18997 0.312153 -0.9357 -0.164393
0.0150824 0.368963 0.223108 -0.305253 0.187555 -0.933618
0.105427 -0.0819274 -0.0954682 -0.729256 0.0358291 0.683302
0.18975 0.505615 0.204668 -0.0855233 0.994628 0.0583149
0.0492259 -0.242435 -0.169862 0.109261 0.0982077 -0.98915
-0.18539 0.360029 0.212879 -0.631388 -0.172406 0.75606
-0.00605492 -0.385572 0.0485132 0.686432 -0.026696 -0.726703
-0.164513 0.0744981 -0.0125158 0.958597 0.237595 0.15697
0.042067 0.445443 0.383188 0.284299 -0.404479 0.869236
0.148761 0.183289 0.131909 0.849586 -0.114319 0.514912
0.155417 0.509436 0.164484 -0.252125 0.934576 0.250999
0.0667163 0.145926 0.198844 0.487022 -0.197371 0.850796
0.117616 -0.0594651 0.0682884 -0.844076 0.0858423 -0.529308
0.142277 -0.330287 -0.109515 0.823489 0.036397 -0.566164
-0.131579 -0.0343289 -0.0456486 0.931571 0.211354 0.295812
0.072299 0.430143 -0.127916 -0.574729 -0.0801851 0.814406
-0.130782 -9.44486e-05 0.0695299 0.831152 0.380649 -0.405329
-0.0183884 0.489212 -0.257974 0.151881 -0.9704 -0.187765
-0.289563 0.45104 0.27211 -0.171932 0.976535 0.129689
-0.0898755 -0.279886 -0.0984789 -0.89946 -0.0526919 -0.433815
-0.205663 0.0947256 -0.00473124 -0.966592 -0.174276 -0.187957
0.169656 -0.210008 -0.034994 0.980745 0.0893981 -0.173629
0.141982 -0.233742 0.0702882 0.74812 -0.207182 0.63039
0.164729 -0.175019 0.0437348 0.936809 -0.0575646 0.345074
-0.223066 0.449085 -0.0750211 0.831938 0.17169 0.527639
0.168291 0.516895 0.0927931 -0.0974556 0.994662 -0.0339128
-0.178778 -0.0242324 -0.0265391 -0.962851 -0.220994 -0.155177
-0.058525 -0.353484 -0.127105 -0.738111 -0.163485 -0.654573
-0.166906 0.469454 -0.235707 0.214213 -0.963611 -0.159897
0.115916 0.0244964 -0.134028 0.647736 0.00657227 -0.761836
-0.0362027 -0.392106 -0.0781099 0.882438 0.0590949 0.466702
-0.0652105 -0.386378 0.0466051 -0.714867 -0.130347 0.687004
-0.0547355 -0.387997 -0.0348736 0.988914 -0.0144419 0.147783
0.170075 0.153412 0.0849271 0.988841 -0.00016058 0.148974
0.118344 -0.142373 0.110213 0.673435 -0.125383 0.728536
0.0727833 0.0960486 0.186293 0.505406 -0.233787 0.830607
0.152385 0.329374 -0.0148676 -0.960681 -0.0728822 0.267918
0.179301 0.179318 0.0448491 0.991521 -0.0422834 0.122876
0.207115 0.484817 0.0948193 0.0940993 -0.994668 -0.0422111
-0.13753 -0.0600131 0.00418991 0.892215 0.426638 -0.148094
0.18618 -0.472481 -0.0301622 0.979906 0.191317 0.0564099
0.0655122 0.179941 0.166205 -0.499715 0.161146 -0.851068
0.167593 -0.107774 0.0413123 0.951119 -0.0580033 0.303329
0.159619 0.330095 -0.0805727 0.887589 -0.0570717 -0.457088
0.153293 0.332623 -0.0962859 0.811995 0.0969398 -0.575558
0.125874 -0.311404 -0.0150345 -0.989783 0.0116319 -0.142107
-0.209604 0.199069 0.12487 -0.780268 -0.313277 0.541331
-0.0334094 -0.365148 -0.133827 -0.465142 -0.129734 -0.875678
0.14111 0.0309128 -0.110972 0.728305 0.183088 -0.660341
0.110552 0.537853 -0.244592 -0.0900977 0.993691 0.0667918
-0.0354297 0.318366 0.253454 0.022754 -0.238868 0.970785
-0.106389 -0.0486747 0.136372 -0.499989 -0.347566 0.793227
0.0182988 0.0062773 -0.145364 -0.136141 0.105888 0.985014
-0.238444 0.38933 0.0857183 0.934749 0.259145 -0.243082
-0.159241 0.120263 0.0903093 0.872932 0.195565 -0.446926
-0.223562 0.465758 -0.232702 0.0338519 -0.999425 0.00209658
0.0494041 -0.157831 0.104004 -0.20439 0.167165 -0.964511
-0.274571 0.39686 0.0940198 -0.950468 -0.247161 0.188475
-0.087175 0.0396696 -0.123767 0.59194 0.0849256 0.801495
-0.10929 0.238598 -0.134624 0.548431 0.0637568 0.833762
0.15095 0.538445 -0.208773 -0.125382 0.975899 0.178609
0.0953013 0.432061 -0.112049 -0.680601 -0.173292 0.711865
-0.0271262 -0.372184 0.0337306 0.668395 0.169852 -0.724154
0.0968889 -0.287063 -0.101095 -0.56753 0.137166 0.811847
0.0717431 0.439894 0.207451 -0.555036 0.0288391 -0.831326
-0.231525 0.430909 0.131217 0.890808 0.138587 -0.432729
0.0823023 -0.0478673 -0.158272 0.380873 0.0582654 -0.92279
-0.050245 -0.402943 -0.0350511 0.982954 0.183836 0.00219714
0.0932408 -0.198191 0.0799354 -0.531568 0.135319 -0.836137
0.0979066 0.129444 0.128387 -0.633563 0.134436 -0.761921
0.150725 0.310207 0.0720201 -0.970606 0.0532622 -0.234707
0.166095 0.000585018 -0.0696201 0.912865 0.0478077 -0.405453
0.139352 0.264191 -0.0417937 -0.960357 0.0612823 0.271953
-0.0418889 -0.476938 -0.0460097 0.984487 0.164587 -0.0608037
0.0238065 -0.270171 -0.128062 0.00202672 0.0939453 0.995575
-0.0742907 0.216627 0.187288 0.196026 0.262751 -0.944741
-0.0918583 -0.223721 0.0801776 -0.750155 -0.250149 0.612122
0.185437 0.28228 0.0141847 0.999876 -0.0142194 -0.00679067
-0.0411889 -0.512604 0.0211488 0.228194 -0.959411 -0.165703
0.11676 -0.15949 0.1102 0.707616 -0.0987687 0.69966
0.175036 0.280884 0.105335 0.952885 -0.04338 0.300214
-0.140532 0.198537 0.19743 -0.562723 -0.216024 0.79792
-0.247522 0.418065 -0.0949745 -0.908622 -0.15678 -0.387073
0.0983503 0.18169 -0.150247 0.574535 -0.00409965 -0.81847
-0.0909953 -0.282463 0.0476395 -0.862978 -0.208108 0.460391
-0.245101 0.292539 -0.0457641 -0.919525 -0.256701 -0.297623
-0.179624 0.378358 -0.10872 0.689437 0.124393 0.713585
-0.032376 0.526645 -0.305325 -0.107227 0.989025 0.101644
0.263446 0.479517 0.192356 0.112615 -0.971391 -0.209086
0.010975 0.158063 -0.153355 -0.256806 0.0825784 0.962929
0.171441 -0.203488 -0.0335626 0.975207 0.0604039 -0.212891
-0.243895 0.422357 -0.0957661 -0.69844 -0.434943 -0.568336
-0.0737297 0.0358074 0.181152 -0.402664 -0.126104 0.90662
-0.0403048 -0.200265 0.126989 -0.319659 -0.256088 0.91227
0.262724 0.499906 0.211921 0.835366 0.0561302 0.546821
-0.216698 0.486126 -0.274025 -0.44434 0.110406 -0.889029
0.182019 -0.0258422 -0.00851022 0.992084 0.120225 -0.0362736
0.164559 -0.469478 -0.111187 0.892865 0.0479631 -0.447764
-0.0336351 0.250231 0.243955 0.0118343 -0.254613 0.966971
-0.333078 0.441634 -0.153653 0.293095 -0.94595 -0.138831
0.109582 0.202633 0.131353 -0.807784 0.143183 -0.571825
-0.0108918 0.473855 0.278442 -0.0470888 0.998872 0.006072
-0.0594732 -0.206306 -0.148412 -0.472198 -0.21769 -0.85419
0.157016 0.456336 0.172321 0.761207 -0.363484 0.537069
-0.0328308 -0.191233 -0.161857 -0.340335 -0.158318 -0.92688
-0.0330178 -0.245669 0.120135 -0.361289 -0.228522 0.904018
-0.284888 0.478778 -0.0922326 -0.117775 0.988111 0.0988236
-0.00830853 -0.274991 0.115508 -0.239428 -0.0222535 0.970659
-0.213926 0.126919 0.0597642 -0.97792 -0.0586278 0.200587
-0.189245 0.178536 -0.00310531 0.953458 0.230686 0.194168
-0.081433 0.398669 -0.19537 -0.247768 -0.0856023 -0.96503
-0.257467 0.462833 0.181909 -0.101966 0.994087 0.0373337
-0.113101 -0.105946 -0.0524845 0.904861 0.16034 0.394356
-0.0847955 0.244449 -0.147904 0.352955 0.0987273 0.930417
0.017213 0.266115 -0.152857 -0.217231 -0.0801141 0.972827
-0.27529 0.366893 0.0760605 -0.977959 -0.181293 0.10358
-0.194863 0.0664672 0.0462699 -0.955925 -0.246745 0.159138
0.12239 0.00929391 0.131338 0.544947 -0.122951 0.829407
0.0411751 -0.0816418 0.125937 -0.0775522 0.0504896 -0.995709
-0.2741 0.374056 -0.021096 -0.922569 -0.353748 -0.15404
0.108139 0.291783 0.149537 -0.739787 0.114365 -0.663051
-0.00474456 0.462986 0.243459 -0.349771 0.241472 -0.905181
0.229592 0.492499 -0.00325084 0.106683 -0.982228 -0.154427
0.183198 -0.458893 -0.0356121 0.992061 0.123379 -0.0243431
0.143231 0.136264 0.0488093 -0.979757 -0.0215333 -0.199031
0.103698 -0.478767 -0.163242 0.103106 -0.983314 -0.149876
0.153425 0.456602 0.0833878 -0.971357 0.0549982 -0.231171
0.0228912 -0.358382 -0.122341 0.207895 -0.212628 0.954761
0.123428 0.0770982 -0.0734144 -0.865872 0.0918894 0.491755
0.220283 0.489771 0.0677609 0.0457107 -0.998141 -0.0403144
-0.2722 0.482984 -0.104102 -0.107769 0.990183 0.0890122
-0.022605 0.477688 0.267248 0.0324165 0.997324 0.0655349
-0.0249221 -0.261625 -0.11854 0.579597 0.0136337 0.814789
-0.112582 0.195355 -0.172166 -0.400783 -0.084259 -0.91229
0.0442733 -0.296274 0.114757 0.114935 -0.208971 0.971144
0.169399 -0.318628 -0.055661 0.983752 -0.0371059 -0.175655
0.116952 -0.0501432 0.128627 0.558745 -0.176775 0.810281
0.113198 -0.394887 0.0250855 -0.693365 0.0252214 -0.720145
0.178885 0.509773 0.128834 -0.132806 0.97617 0.171625
-0.0967744 -0.268526 -0.0986932 -0.820181 -0.204934 -0.53414
-0.178249 0.419245 0.244581 -0.457888 -0.470112 0.754542
-0.242087 0.447087 0.119266 0.871371 0.312368 -0.378337
-0.133642 -0.0864843 -0.100329 -0.773339 -0.159697 -0.613549
-0.000732147 0.0145355 0.188309 -0.0377155 -0.182385 0.982503
0.135215 0.38709 -0.0544996 -0.900641 0.0143942 0.434325
-0.156524 -0.0539049 -0.0705143 -0.913532 -0.150215 -0.378015
0.0645053 0.402709 0.246219 0.430692 -0.122623 0.89413
0.0742131 -0.224831 -0.156506 0.349331 -0.0713531 -0.934279
0.0995545 -0.231515 -0.110578 -0.637212 0.0673012 0.767745
-0.0583365 0.230945 -0.192098 -0.112288 -0.120787 -0.986307
0.174509 0.502521 0.20596 -0.0918441 0.995752 -0.00655024
0.104746 0.491774 0.278412 -0.0783545 0.996897 -0.00749651
-0.0744776 -0.24687 -0.0745893 0.844402 0.155072 0.512774
-0.275355 0.385741 0.0667826 -0.956609 -0.253145 0.144283
0.236225 0.504324 -0.0990079 0.127417 -0.97861 -0.161514
-0.137022 0.142096 -0.0937592 0.715874 0.154588 0.680902
0.154967 0.354367 -0.0914233 0.849436 -0.00881473 -0.527619
0.151512 -0.248017 -0.0930458 0.801087 0.12499 -0.585352
-0.125344 0.508056 -0.183753 -0.0965004 0.982791 0.157507
-0.0814332 -0.431448 0.0101619 -0.934069 -0.134175 0.330927
0.121022 0.500997 -0.197005 0.109005 -0.989808 -0.0916419
0.169947 0.149754 -0.0475175 0.947252 0.0115459 -0.320283
0.170272 0.5375 -0.165112 -0.0888956 0.99359 0.0698377
-0.214398 0.443321 0.16969 0.754999 0.283843 -0.591109
-0.236506 0.466583 0.153338 0.792795 0.30768 -0.526127
-0.0958614 0.153907 0.204138 -0.297225 -0.327392 0.896924
0.182559 -0.47215 -0.0194576 0.982539 0.127632 0.135381
0.147265 0.154058 -0.00957355 -0.979929 -0.0234102 0.197968
-0.0796125 -0.285475 0.0639462 -0.741185 -0.269029 0.615035
-0.0323112 -0.462738 -0.0884964 0.780621 -0.0205579 0.624666
-0.264117 0.457552 0.074184 0.975213 0.216147 -0.0473346
-0.112293 -0.277542 -0.0546328 -0.967429 -0.139402 -0.211301
0.128625 0.34964 0.126071 -0.879471 0.063833 -0.471653
0.132361 0.410573 -0.0621475 -0.900369 0.0978542 0.423981
0.132093 -0.0159493 -0.120616 0.727731 -0.00314284 -0.685855
0.0417318 0.0852971 -0.13939 -0.226727 -0.0548541 0.972412
-0.059361 -0.102624 -0.153635 -0.377333 -0.0643695 -0.923838
-0.0938596 -0.107993 -0.0918427 0.795111 0.170358 0.582046
-0.0461782 -0.454916 -0.0177198 0.972172 -0.0270095 -0.232707
0.102965 -0.223666 -0.148121 0.517854 0.11965 -0.84706
0.151477 0.499662 -0.176693 0.108725 -0.990148 -0.0882362
0.13945 -0.316703 -0.113406 0.743552 0.0195828 -0.668392
-0.112559 0.0244251 -0.145935 -0.590133 -0.0470374 -0.805935
-0.273213 0.457859 0.205825 -0.124192 0.988052 0.0912622
-0.0298393 -0.375725 0.0744473 -0.432756 -0.297468 0.85102
-0.243121 0.265046 -0.0155998 -0.94539 -0.218979 -0.241425
0.0724085 0.45011 0.356694 0.0417434 -0.997592 -0.0553895
0.179327 0.110407 -0.0249438 0.976565 -0.111505 -0.184087
-0.191131 0.0140641 0.00330538 -0.930742 -0.364377 -0.0308014
-0.137074 0.385746 -0.142721 0.525464 0.091004 0.845935
0.0642637 0.180101 -0.132713 -0.458725 -0.0334732 0.887947
0.0498175 0.302333 0.236604 0.374696 -0.172765 0.910909
-0.0923476 0.431435 0.331618 0.126321 -0.984912 -0.118285
-0.209565 0.176042 -0.0741741 -0.901696 -0.246906 -0.35494
0.131466 0.172847 0.0966847 -0.948858 0.103181 -0.298366
0.0435824 0.0990625 0.196631 0.281318 -0.179188 0.942736
-0.133859 -0.032407 0.0330391 0.907204 0.316332 -0.277336
-0.0139512 -0.467508 -0.15651 -0.429024 -0.00792833 -0.903258
0.167488 -0.223884 -0.0668505 0.949654 -0.0318996 -0.311672
-0.201519 0.235655 0.151997 -0.716622 -0.355551 0.60003
-0.077849 -0.247691 0.0881497 -0.632935 -0.276321 0.723215
0.18798 0.320402 -0.00310673 0.994196 -0.104373 -0.0261002
-0.339158 0.446468 -0.148732 -0.0262919 -0.974106 -0.224557
-0.277509 0.460321 -0.230009 -0.148457 -0.847823 -0.509075
-0.088999 0.20387 -0.141184 0.521937 0.11698 0.844924
0.159823 -0.0514161 0.0687118 0.923096 -0.0498915 0.381319
-0.115685 0.000777477 -0.0881844 0.734618 0.216292 0.643082
0.17007 -0.22934 -0.00914935 0.999932 0.00678909 0.00948644
0.0914199 0.487895 -0.163993 0.483196 -0.650475 -0.586007
0.0653214 0.0872796 -0.173449 0.302433 0.0196792 -0.952968
-0.259705 0.456602 -0.205033 0.0543551 -0.998004 -0.0321394
-0.0846586 -0.409578 -0.0217926 -0.956259 -0.240651 0.166302
-0.159171 -0.0976116 -0.0121714 -0.924044 -0.378117 0.0563065
0.134499 -0.361775 0.0602543 0.586504 -0.0663619 0.807223
-0.186475 0.336965 0.154945 0.708446 0.299883 -0.638885
-0.0872757 -0.0810881 0.136219 -0.626012 -0.0446863 0.778532
0.0908321 0.474329 0.368054 0.419669 -0.156209 0.894135
0.00310171 -0.41913 -0.165779 -0.338255 0.0770276 -0.937897
0.0882752 -0.384707 0.0477317 -0.506707 0.0100332 -0.86206
-0.329741 0.426782 0.264168 -0.741932 -0.165375 0.649759
0.11424 0.100428 0.104207 -0.802152 0.0869003 -0.590763
0.0575223 -0.0319024 0.130564 -0.210156 0.18898 -0.959229
0.145227 0.210913 0.0698616 -0.910219 0.136524 -0.390977
0.0738365 -0.176924 0.0933451 -0.38065 0.150685 -0.912359
0.168176 0.109839 -0.0598162 0.956848 -0.0526755 -0.285776
0.207527 0.489102 0.00827832 0.224657 -0.969025 -0.102566
0.0450383 0.0129535 0.181513 0.238333 -0.118226 0.963961
0.117533 0.480205 -0.0862261 -0.816367 0.110942 0.566778
0.189311 0.358571 0.0487851 0.998752 -0.037737 0.032721
0.0522352 -0.327447 -0.158979 0.214615 -0.167163 -0.962287
0.114729 0.481267 -0.0889593 -0.820848 0.0556368 0.56843
-0.298811 0.460851 0.13915 0.0514794 0.99805 0.0353086
0.0845251 0.0587111 -0.114698 -0.682564 0.166784 0.71154
-0.0279 -0.508923 0.0255091 0.128869 -0.97892 -0.158459
0.0996393 0.143663 -0.104808 -0.70366 0.0743187 0.706639
0.143303 -0.47739 -0.128205 0.107528 -0.990405 -0.0868094
-0.0946327 0.449667 -0.161449 0.247511 0.0700074 0.966353
-0.0470191 -0.0829604 -0.128663 0.324891 0.179352 0.92859
-0.102085 0.119428 -0.122392 0.624956 0.117552 0.771759
-0.132142 0.124761 -0.145494 -0.631208 -0.304657 -0.713274
-0.203123 0.124952 0.0875971 -0.945373 -0.150555 0.289142
-0.163242 -0.0628806 -0.0387156 -0.91956 -0.333239 -0.208233
0.189364 0.502309 -0.175215 0.194778 -0.964719 -0.177139
0.14429 0.333474 -0.0318354 -0.951983 0.0458294 0.302701
0.129776 0.399171 0.13408 -0.860018 0.0894205 -0.502368
-0.0463283 -0.515812 0.0435329 0.0867511 -0.993557 -0.0729237
0.171267 0.308955 -0.0593574 0.909233 0.0345412 -0.414853
0.115215 0.32311 0.142454 -0.858313 -0.0150451 -0.512905
0.082894 0.257508 0.163154 -0.621427 0.153809 -0.768226
0.184474 0.188723 -0.00574984 0.991928 0.00860302 -0.126511
-0.0668207 0.248732 -0.149195 0.158526 0.213505 0.963995
0.178091 0.250768 0.0802625 0.922382 -0.181678 0.340888
-0.0814487 0.477438 -0.246688 0.111867 -0.989774 -0.0885083
0.148791 -0.240078 0.0609213 0.894322 0.0213118 0.446916
0.0166764 -0.384081 -0.120351 0.28161 -0.0512087 0.958161
-0.139481 0.0773357 -0.132787 -0.571189 -0.140314 -0.808737
-0.137232 -0.140498 -0.0668926 -0.900104 -0.169332 -0.401422
-0.118778 0.309323 0.238143 -0.383618 -0.184738 0.904825
0.196169 0.493565 -0.0293292 0.266028 -0.90074 -0.343361
-0.216972 0.460128 0.227916 -0.0549122 0.997401 0.0466452
-0.28765 0.463887 0.0848571 -0.114425 0.98877 0.0961302
-0.207735 0.240762 0.0331744 0.982059 0.183325 -0.0441783
0.0534092 0.0197842 0.179167 0.344625 -0.209215 0.91513
0.183908 0.129273 0.0126785 0.99098 -0.122712 0.0538544
0.183993 0.450099 0.11519 0.903755 -0.262317 0.338256
0.190178 0.45436 0.0451778 0.992338 0.00667583 -0.123372
0.105255 0.213386 -0.103815 -0.742615 0.0588996 0.667123
-0.0072526 -0.234179 -0.128451 0.359199 0.152458 0.920724
-0.158743 0.252658 0.154394 0.696622 0.269472 -0.664908
0.169844 -0.281753 -0.031693 0.997128 -0.0754302 -0.00679826
0.0796569 0.203164 -0.119082 -0.609747 -0.0082396 0.792554
-0.147215 0.0652464 0.0769613 0.770727 0.351533 -0.531417
0.124069 0.0623903 0.0869309 -0.904607 0.143719 -0.401286
-0.034318 0.169687 0.185444 0.155846 0.101945 -0.982507
-0.181499 0.448431 0.206693 0.699492 0.213134 -0.682118
-0.151714 0.151042 -0.085815 0.81417 0.298031 0.498302
-0.176353 0.154001 0.0767642 0.873272 0.301116 -0.383047
0.00870333 -0.244207 -0.132045 0.151238 0.00383042 0.98849
-0.168616 -0.0315846 0.060645 -0.969999 -0.0869502 0.227028
0.115582 0.116658 -0.0864078 -0.80682 0.0555713 0.588178
-0.153693 -0.0663661 -0.0676818 -0.870243 -0.196796 -0.451607
-0.151179 0.210233 -0.149351 -0.570506 -0.15057 -0.807373
0.00920562 0.129276 0.211213 0.201905 -0.202612 0.958218
0.168038 0.291004 0.113245 0.909779 -0.0992493 0.403053
-0.00364868 -0.369378 0.0915531 -0.32752 -0.183205 0.926912
0.170093 0.518932 0.0512261 -0.109984 0.990169 0.086427
0.0325484 0.482416 0.297215 -0.105497 0.990907 0.0835127
-0.0972244 -0.00448279 0.110009 0.636472 0.256985 -0.727229
0.231734 0.484352 0.079421 0.169406 -0.977147 -0.128398
0.11422 -0.0481723 0.0801918 -0.809733 0.0958881 -0.578911
0.153781 0.444413 0.00704721 -0.987626 0.0378154 0.152198
0.0899987 0.0824781 -0.155296 0.502722 -0.0511577 -0.862933
0.096676 -0.169916 0.118607 0.471705 -0.153477 0.868297
-0.192573 0.382688 0.222283 -0.670321 -0.220256 0.708631
0.130019 -0.421042 -0.0029113 -0.932342 -0.00670556 -0.361515
-0.329922 0.45534 -0.176584 -0.615708 -0.550183 -0.564094
0.171193 -0.0921057 -0.0374063 0.994482 -0.104627 -0.00766051
0.189661 0.359773 0.0149238 0.998458 -0.0306577 -0.046285
0.0333389 0.48775 -0.220991 0.0892767 -0.992782 -0.0800894
0.165451 0.468942 0.160884 0.695718 -0.657839 0.288487
0.100388 0.215657 0.188252 0.383652 -0.211577 0.898914
0.0275143 -0.32266 -0.1218 0.0944514 -0.0765005 0.992586
-0.034948 0.436564 0.245803 -0.0110209 0.188799 -0.981954
-0.127377 0.0655082 0.112644 0.757732 0.241062 -0.606409
0.0662695 -0.380738 -0.12274 -0.203019 -0.171217 0.964089
0.111652 0.496102 0.247176 -0.0634333 0.991101 -0.117025
0.117338 0.124129 0.157679 0.60062 -0.152801 0.784798
-0.188918 0.339989 0.155254 0.72036 0.318577 -0.616109
0.111326 -0.21672 -0.0932968 -0.792264 0.0386416 0.608954
-0.160692 0.451469 0.38297 -0.230001 -0.133489 0.963992
0.0289428 -0.468436 0.0488822 0.212738 0.0934846 -0.972627
-0.0599343 0.51872 -0.251352 -0.0766353 0.993378 -0.0855979
0.183085 0.399201 -0.0295665 0.953306 0.0327963 -0.300221
-0.0406401 0.11606 -0.143439 0.270802 -0.0589241 0.96083
-0.149483 0.159556 0.12669 0.79497 0.193361 -0.575007
0.0344077 -0.241459 -0.133205 -0.0590803 0.00267928 0.99825
-0.00452864 -0.301609 -0.114072 -0.112767 0.986425 0.119373
0.0571154 0.512068 -0.295911 0.232959 0.221771 -0.946862
-0.0156816 0.413077 0.27194 0.238468 -0.304317 0.922239
-0.0781728 0.425478 0.27812 -0.0269033 -0.499533 0.865877
-0.053291 -0.0182162 -0.134955 0.330171 0.100025 0.938606
0.08413 0.500712 -0.23589 -0.0652291 -0.995448 -0.0694874
-0.0609737 0.0139301 0.138763 0.339096 0.37355 -0.863409
0.0819737 -0.16196 0.0906944 -0.387942 0.211925 -0.896989
0.290873 0.525115 0.0930297 -0.105803 0.98451 0.139803
0.140598 -0.0808326 -0.0260801 -0.993157 0.0255074 0.113969
-0.153039 0.224162 -0.0991817 0.668868 0.0892834 0.738
0.191577 0.510152 0.204375 -0.102255 0.991448 0.081083
0.015476 -0.0265383 0.177956 0.0414539 -0.0808184 0.995866
0.130829 0.281502 -0.123234 0.832756 -0.0480586 -0.55155
0.235614 0.497868 -0.04139 0.0852866 -0.993738 -0.0721819
-0.0860552 0.427894 0.391645 -0.0810997 -0.646774 0.758357
-0.148348 0.479761 -0.245767 0.107176 -0.992492 -0.0589321
-0.148121 0.300533 0.219527 -0.464299 -0.261396 0.846226
0.0926589 0.453354 0.243069 0.456891 -0.674105 0.580373
0.174298 0.280906 0.101758 0.922024 -0.0824055 0.37826
0.0808903 0.27983 0.215997 0.524679 -0.150195 0.837946
-0.296408 0.479913 -0.0783194 -0.100685 0.99323 0.0579422
0.144767 0.130802 -0.0116057 -0.992154 0.0566628 0.111446
-0.052868 -0.118403 0.14655 -0.348562 -0.233669 0.907691
0.160986 0.11645 0.0955088 0.789114 -0.226936 0.570788
-0.280101 0.415091 -0.0318083 -0.944438 -0.177461 -0.276667
0.0728199 0.134388 0.15367 -0.437922 0.161183 -0.884446
0.06689 -0.408816 0.0923599 -0.00160881 0.8071 0.590413
-0.0776289 0.223172 -0.14922 0.304051 0.0895679 0.948436
0.17543 -0.0343753 -0.0265275 0.98426 0.0206604 -0.175516
0.0823168 -0.501915 0.069556 0.088118 -0.953189 -0.28925
0.191015 0.530226 -0.0656622 -0.150848 0.966672 0.206857
-0.251984 0.405835 -0.0833677 -0.83163 -0.179317 -0.525582
-0.198582 0.124648 -0.0602772 -0.865523 -0.322789 -0.382984
0.101031 -0.177482 -0.145775 0.522549 0.0523225 -0.851002
0.169788 -0.066491 -0.0583657 0.847274 0.0853024 -0.524262
-0.0776074 0.154783 -0.143211 0.365264 0.0732848 0.928015
0.0582454 -0.0404608 0.126989 -0.393021 0.174404 -0.902839
0.0783824 -0.0445509 -0.120012 -0.498751 -0.0194563 0.866527
0.0908269 -0.445093 -0.121024 -0.469709 -0.103055 0.876786
-0.130052 0.51337 -0.241976 -0.182034 0.952647 0.24357
0.171955 -0.222827 -0.00790029 0.999797 0.0199757 -0.00248838
0.136869 -0.199587 0.000312877 -0.994472 0.0231444 -0.102419
0.141376 -0.431492 -0.129405 0.715261 0.125693 -0.687461
-0.251753 0.425049 0.0635428 0.90804 0.388769 -0.155957
-0.160761 0.230349 0.144059 0.620421 0.48148 -0.619076
-0.0165975 0.0451743 -0.148192 0.215419 -0.00157847 0.97652
-0.0280577 -0.495908 -0.146058 0.144406 -0.981575 -0.125132
-0.0654962 -0.313753 -0.0361283 0.299868 0.927548 0.223011
-0.0382136 0.327985 0.222253 -0.00215227 0.216628 -0.976252
-0.137673 0.292547 0.18808 0.461051 0.29587 -0.836596
-0.217707 0.289699 0.15108 -0.811902 -0.180993 0.555028
-0.0484769 0.254428 0.206409 0.0154711 0.236048 -0.971618
-0.0343051 -0.446586 -0.0729861 0.90565 0.0589724 0.419906
0.043503 -0.227133 0.0922392 -0.267056 0.250236 -0.930625
0.121343 -0.349256 0.0132718 -0.877422 0.0289056 -0.478847
-0.104738 -0.0956384 0.0643319 0.836571 0.225875 -0.49913
-0.117173 0.395748 -0.151878 0.383692 0.0476048 0.922233
0.167852 0.145981 -0.0585301 0.806182 0.291943 -0.514626
-0.0487781 0.11914 -0.180952 -0.173677 0.000301904 -0.984803
-0.363304 0.469604 -0.0646042 -0.112658 0.976533 0.183553
-0.0895295 0.106393 -0.170961 -0.277672 -0.188102 -0.94208
-0.168285 0.195645 -0.0739297 0.780673 0.136118 0.609935
0.113319 0.244024 0.134559 -0.807331 0.107541 -0.580216
-0.213749 0.213809 0.116629 -0.850693 -0.292317 0.436889
-0.242465 0.233607 0.0317329 -0.985324 -0.167133 -0.034693
0.00315273 0.00342002 0.184149 -0.0870126 -0.111063 0.989997
-0.228366 0.177437 0.0593716 -0.928058 -0.318761 0.192611
-0.0358221 -0.103681 0.152579 -0.197722 -0.310208 0.92988
-0.164334 0.386073 0.244487 -0.39729 -0.290586 0.870471
0.137604 -0.0505779 0.10943 0.805723 -0.0814227 0.586669
-0.0216796 0.077679 0.165808 0.133346 0.142201 -0.980815
0.0149857 -0.198281 -0.133903 0.0732089 0.0848366 0.993702
-0.15466 0.284904 -0.117635 0.742714 0.176043 0.646053
0.155316 0.510807 0.12329 -0.0574513 0.997672 -0.0367343
0.185786 -0.467521 -0.0767711 0.986456 -0.0162259 -0.163223
-0.1412 0.0540775 0.0783221 0.822414 0.340739 -0.455556
0.0723022 0.513091 -0.12876 -0.572438 -0.106921 0.812947
0.110611 0.32279 -0.139129 0.670516 -0.130431 -0.73034
0.116437 0.291114 0.189454 0.781805 -0.10058 0.615357
0.165076 0.471559 0.319001 0.574801 -0.0394434 0.817342
0.00370315 -0.0454409 0.141275 -0.0148133 0.261889 -0.964984
-0.0235777 -0.173713 -0.166057 -0.294943 -0.0599439 -0.953633
-0.312942 0.418251 0.193188 0.0347736 -0.999278 -0.0153315
-0.0580618 -0.316447 0.00489893 -0.335559 0.904158 0.264385
0.167113 -0.253999 -0.0648692 0.974454 -0.0882068 -0.206542
-0.313928 0.460352 0.105492 -0.0150418 0.999828 -0.010854
-0.331457 0.426305 0.112571 -0.0521193 -0.996616 0.0635668
0.138702 -0.399857 0.0616129 0.716304 0.0131745 0.697664
-0.152863 -0.117115 -0.037812 -0.964889 -0.20535 -0.163767
-0.251381 0.290055 0.00286552 -0.942609 -0.330901 -0.04463
0.179992 -0.454244 -0.0264133 0.990454 0.137841 -0.00114536
0.191581 0.456953 0.0790917 0.987172 -0.101622 0.123144
0.0660792 -0.20099 0.125457 0.382653 -0.178553 0.906474
0.0324652 0.367683 0.213294 -0.366996 0.150845 -0.917911
0.0902176 0.351843 -0.156204 0.584779 -0.00119388 -0.811192
0.0943765 0.174291 -0.153239 0.379817 0.0436608 -0.924031
0.202818 0.488077 0.0105227 0.36866 -0.926927 -0.0699769
0.0663123 -0.233958 -0.160366 0.202201 0.0295794 -0.978897
-0.129922 0.462814 0.303932 -0.0883784 0.994772 0.0511644
0.27202 0.488249 0.0832803 0.116363 -0.987332 -0.107868
-0.0705326 -0.432502 0.0368155 -0.840779 -0.116866 0.528614
-0.173915 -0.0373878 0.022188 -0.987295 -0.134335 0.0848695
-0.1165 0.14801 -0.162698 -0.651971 0.0351406 -0.757429
-0.0740219 0.323343 0.217439 0.208476 0.180377 -0.96125
0.188762 0.150208 -0.000734828 0.997333 -0.0223269 -0.0694857
-0.103504 -0.285969 0.0377121 -0.875381 -0.271318 0.400118
-0.188296 0.282907 0.132352 0.779545 0.353591 -0.516993
0.121185 -0.0554224 -0.0797489 -0.882407 0.0901835 0.461762
-0.105873 0.0471449 -0.155565 -0.562415 0.00668996 -0.826828
-0.168479 0.51134 -0.279572 -0.0761157 0.995683 0.0531133
-0.243402 0.487107 -0.0722588 -0.139245 0.978532 0.15194
-0.314793 0.46843 0.0497373 -0.0977967 0.991965 0.0802531
-0.158428 0.0631127 -0.0359003 0.922009 0.328323 0.20519
-0.147545 0.455413 0.32251 -0.234558 0.939485 0.2497
0.0508627 -0.0406779 -0.170218 0.271318 -0.104717 -0.956776
0.0900209 0.45775 0.250284 0.184191 -0.971287 0.150586
0.0992263 -0.200408 0.06459 -0.662345 0.0705881 -0.745866
0.132722 -0.0530577 0.113863 0.718524 -0.128972 0.683439
0.224443 0.518532 0.12699 -0.233561 0.962583 0.13742
0.226451 0.527553 -0.0199962 -0.0370151 0.999078 0.0217592
-0.129103 -0.202319 -0.0516879 -0.913795 -0.40194 -0.0585133
-0.402302 0.42345 0.0701727 -0.624193 -0.780043 0.0437769
-0.071531 0.433562 -0.163704 0.170381 -0.12779 0.977057
-0.134465 -0.0443669 0.0175878 0.985163 0.140587 -0.0984365
-0.257453 0.463989 0.128728 -0.124738 0.987992 0.0911663
-0.126265 -0.207542 0.025857 -0.950684 -0.184364 0.24942
-0.193531 0.194103 0.137028 -0.780135 -0.28191 0.558494
-0.0406618 -0.468436 -0.0397864 0.923219 0.382437 -0.0375329
0.00945385 -0.389545 0.0888163 -0.354477 -0.174338 0.918669
0.03374 -0.31377 0.111048 0.0462026 -0.225904 0.973053
-0.150225 -0.0481128 -0.0888946 -0.853849 -0.18406 -0.486892
-0.0886305 -0.233623 -0.0324939 0.961607 0.202506 0.185209
-0.0923622 0.484611 -0.272978 0.109759 -0.98991 -0.089621
-0.0390674 0.489171 -0.165862 -0.104692 0.162255 0.981179
0.0091469 0.531384 -0.293835 -0.307763 0.943087 0.125973
-0.0514992 0.295303 -0.156688 0.239061 0.0541049 0.969496
-0.266291 0.486659 -0.129595 -0.122411 0.965754 0.228768
-0.118207 -0.0897983 0.0374142 0.930369 0.211948 -0.29915
-0.153401 0.0102093 0.0107736 0.886475 0.401861 -0.229497
-0.0459721 0.4198 -0.20084 -0.0270581 -0.161672 -0.986474
-0.274612 0.368679 -0.00375166 -0.96086 -0.231113 -0.152759
-0.300033 0.478434 -0.0557464 -0.125791 0.9865 0.104853
-0.288491 0.483188 -0.0719792 -0.0959308 0.995209 0.0188837
0.0492732 0.111041 -0.134037 -0.433963 0.0391176 0.900081
0.117335 0.409335 -0.139009 0.779106 -0.0857298 -0.621002
0.0800343 -0.158312 0.093513 -0.507863 0.143047 -0.849478
-0.354499 0.419793 0.116342 0.136846 -0.980972 -0.13772
0.138497 0.502113 -0.21577 0.139622 -0.985528 -0.0961318
0.148297 0.305052 0.156323 0.786444 -0.113692 0.607108
-0.127129 0.248825 -0.164332 -0.50269 -0.117592 -0.856432
-0.116628 0.213842 0.213286 -0.428795 -0.23293 0.872857
0.127095 -0.0737116 0.0532056 -0.918237 0.0640281 -0.390821
0.0464202 0.450041 0.298499 0.202085 -0.967412 -0.152565
-0.0489316 -0.122303 0.14498 -0.386444 -0.211283 0.897786
-0.199386 0.421079 0.300136 0.00357842 -0.999364 0.0354808
-0.0485483 -0.310149 0.0869638 -0.668313 -0.245233 0.702295
-0.0128252 0.515063 -0.165351 -0.207034 -0.0410238 0.977473
-0.174322 0.115695 0.130379 -0.856551 -0.169506 0.48743
0.140724 -0.255763 0.0689791 0.86683 -0.0913949 0.490156
-0.0196594 -0.264978 -0.117993 0.594964 -0.0606608 0.80146
-0.128205 0.161211 0.191815 -0.453766 -0.374817 0.80846
0.0199157 -0.461457 0.0464735 0.199306 0.125286 -0.971895
-0.0678315 -0.312935 0.0711739 -0.710326 -0.227233 0.666185
-0.048908 0.329594 -0.195296 -0.113093 0.00318718 -0.993579
-0.160892 0.0790311 0.0622169 0.843227 0.356527 -0.402314
-0.122716 0.0501109 -0.144623 -0.763644 -0.140191 -0.630233
-0.219601 0.293061 0.0347495 0.981604 0.186982 -0.0386196
-0.00882611 -0.394044 -0.113883 0.581758 -0.0173592 0.813177
0.150618 0.325407 0.069677 -0.975822 0.0105875 -0.218308
-0.0453283 -0.396714 -0.0105826 0.978606 0.0391809 -0.201979
-0.292184 0.464357 0.141665 0.0183743 0.999142 -0.0371255
-0.153606 0.0703318 -0.0513393 0.903533 0.263669 0.337797
0.237497 0.491106 0.0283625 0.0615715 -0.997863 -0.0218879
0.15135 -0.374585 0.034554 0.918787 0.0470806 0.391936
0.0800137 -0.152873 0.132647 0.372934 -0.116228 0.92055
-0.0706412 -0.128791 0.0832441 0.669666 0.255222 -0.697431
0.141465 0.0810919 -0.0243579 -0.965173 -0.00124311 0.261609
-0.361314 0.450897 -0.126468 -0.894019 -0.0561317 -0.4445
-0.208221 0.41843 0.168429 0.729223 0.270372 -0.628596
0.0104665 0.328509 0.217201 -0.249454 0.196233 -0.948296
-0.306448 0.424621 0.129814 0.203479 -0.950342 -0.235471
0.165632 -0.0891761 -0.0680219 0.867593 0.0412043 -0.495565
-0.154384 0.480023 -0.295106 0.190181 -0.956837 -0.21976
-0.152137 0.155557 0.11899 0.828456 0.141966 -0.541762
0.126322 -0.137516 0.10756 0.730887 -0.163895 0.662527
0.133357 -0.364607 -0.0455894 -0.992166 -0.0967873 0.0789885
0.193285 0.455164 0.0187919 0.992714 -0.10767 -0.0540919
0.113411 -0.254446 -0.136716 0.578451 -0.0473672 -0.81434
0.0911072 0.244535 -0.114132 -0.646821 -0.0113207 0.762558
-0.168434 0.267031 -0.143567 -0.584789 -0.304129 -0.752016
-0.184658 0.175275 0.143231 -0.792573 -0.232587 0.563677
-0.0808707 -0.271219 -0.0296949 0.968236 0.184998 0.168212
-0.222474 0.196063 -0.032662 -0.924624 -0.259268 -0.279017
0.268229 0.528856 0.0516949 -0.100665 0.992618 0.0676432
0.129647 -0.478144 -0.126662 0.0520748 -0.998482 -0.0179495
-0.0451045 -0.45523 -0.0423882 0.989956 0.13771 0.0319829
0.00798266 -0.440273 0.0921296 -0.26598 -0.113524 0.957271
-0.167345 0.363824 0.230022 -0.551645 -0.0162676 0.83392
-0.161483 -0.0557907 0.0460998 -0.844024 -0.39295 0.364985
-0.231807 0.226615 -0.0451392 -0.911428 -0.204753 -0.356898
0.15837 0.425562 0.0123623 -0.991636 0.0156501 0.128116
-0.0275228 0.200258 -0.190178 -0.0327322 -0.0483478 -0.998294
0.00553468 0.242203 -0.18804 0.151634 -0.0275142 -0.988054
0.0847637 -0.068686 -0.159361 0.506984 -0.0413227 -0.860964
-0.106587 0.136203 0.154479 0.472821 0.305981 -0.826327
0.0803415 0.301615 0.217562 0.592119 -0.159313 0.789946
0.000572847 0.460525 -0.161613 -0.276293 0.0356273 0.960413
-0.0365757 -0.41873 -0.147401 -0.44165 -0.0322164 -0.896609
-0.372072 0.451238 0.137872 -0.041139 0.999144 0.00428345
-0.131286 -0.0700599 0.0105171 0.916144 0.397947 -0.048148
0.066827 0.192483 -0.170248 0.393442 -0.00144 -0.919348
0.0656351 -0.193193 -0.126975 -0.277618 0.0042695 0.960682
-0.0600847 0.194876 0.189129 0.321876 0.187959 -0.927937
-0.102232 0.165255 0.164771 0.375266 0.351107 -0.857846
0.173322 -0.432489 0.0111037 0.952081 0.160963 0.260062
0.146285 -0.332557 -0.100245 0.819999 0.0645558 -0.568712
-0.108611 0.136118 0.192925 -0.431299 -0.204605 0.878702
0.137832 -0.213455 -0.113373 0.737277 0.0519042 -0.673594
0.135702 0.082632 0.13255 0.7021 -0.118369 0.702172
-0.196627 0.466464 -0.236839 0.0871653 -0.993497 -0.0732525
0.126618 -0.375533 -0.0780717 -0.890533 -0.1288 0.436304
-0.190962 0.196965 -0.0317076 0.932585 0.203477 0.298132
-0.177035 0.0186181 -0.0779941 -0.868636 -0.182244 -0.460715
-0.0217748 0.529038 -0.286211 -0.0772548 0.996881 -0.0161496
-0.206295 0.0863277 -0.0117225 -0.948073 -0.124574 -0.292642
0.111003 0.527627 -0.165722 -0.135832 0.984319 0.112541
0.153371 0.26029 0.143721 0.864028 -0.0668508 0.498986
-0.329832 0.408981 0.241435 0.0105286 -0.999184 -0.0390053
0.00618621 -0.0962304 -0.139362 0.0187512 0.0638965 0.99778
-0.139582 0.0741879 0.150178 -0.657127 -0.208 0.724514
-0.166651 -0.0781524 -0.0284998 -0.959262 -0.241951 -0.145865
0.162594 -0.189558 0.0381424 0.878445 -0.193418 0.436949
-0.346605 0.426488 0.0433812 0.0155334 -0.998817 -0.0460771
0.0819613 0.208992 0.155913 -0.545705 0.101052 -0.831862
-0.0799972 0.126667 0.16793 0.311994 0.260689 -0.91362
-0.0456643 -0.256917 0.0635903 0.514548 0.416841 -0.749322
0.0808659 0.0612795 -0.115304 -0.599877 0.0800385 0.796079
-0.181011 0.466476 0.266775 -0.177716 0.977116 0.116881
-0.0163067 -0.43782 -0.158491 -0.443493 -0.0680189 -0.893693
0.0381201 -0.0667223 0.164305 0.204505 -0.200072 0.958201
0.0594527 0.421622 -0.139636 -0.590849 0.0853573 0.802254
-0.0791441 -0.0137132 0.12382 0.521463 0.253838 -0.814642
-0.142832 0.4177 0.21919 0.512477 0.205049 -0.83386
-0.276388 0.424102 0.172736 0.155537 -0.977759 -0.1407
-0.0119181 -0.10571 0.119422 0.195832 0.180393 -0.963903
0.0964428 0.457606 0.263364 0.0909861 -0.992733 -0.0787527
-0.302953 0.44782 -0.123468 0.126413 -0.984898 -0.118305
0.138681 0.133574 0.137861 0.760435 -0.0937068 0.642618
-0.311816 0.425566 0.279461 -0.738023 -0.0498592 0.672931
0.0580899 0.367684 0.205173 -0.42371 0.172889 -0.889145
-0.0876601 0.160284 -0.173236 -0.331163 -0.105751 -0.937629
-0.0783457 -0.47935 -0.0871799 -0.935406 -0.186581 -0.300339
0.134738 -0.0819825 0.0414688 -0.962515 -0.0652948 -0.263253
0.125984 -0.275605 -0.0776469 -0.868528 -0.0661744 0.491203
0.0656972 0.465898 0.38017 0.254434 0.0165742 0.966948
-0.202969 0.244443 -0.0158032 0.923166 0.246641 0.294842
-0.0612044 0.0944777 0.166168 0.309537 0.218747 -0.925385
-0.217528 0.463236 0.179856 0.559657 0.418772 -0.715132
0.127605 0.401769 -0.07029 -0.861112 0.0142068 0.508217
-0.169209 0.0573253 -0.100257 -0.797635 -0.204809 -0.567302
-0.232462 0.477181 -0.267008 -0.498664 -0.301368 -0.812718
-0.19205 0.182795 0.0142734 0.946357 0.317181 -0.0616862
0.138575 0.157328 -0.109573 0.799285 -0.0109641 -0.600853
0.107441 -0.300765 -0.082101 -0.690508 -0.218916 0.689401
-0.236756 0.222031 0.0491976 -0.938831 -0.281902 0.197805
0.260869 0.50933 -0.122274 0.589078 -0.741837 -0.320414
0.219532 0.520853 0.0745047 -0.0972156 0.991829 0.0826045
-0.067872 -0.169908 0.120077 -0.653182 -0.11633 0.748211
-0.110741 0.266149 0.229764 -0.344031 -0.214963 0.91402
-0.240653 0.374193 0.00423225 0.962166 0.212688 0.170294
-0.101233 0.238791 -0.181532 -0.325135 -0.028768 -0.94523
-0.386554 0.459364 0.021032 -0.062391 0.996728 0.0513797
-0.159492 0.276385 0.20654 -0.544911 -0.272397 0.793015
0.135111 -0.210295 -0.00457459 -0.976619 0.11357 -0.182529
-0.120154 -0.0111479 -0.133761 -0.70035 -0.140265 -0.699883
-0.221338 0.154345 0.0291648 -0.971437 -0.232705 0.0464564
0.284279 0.521302 0.146894 -0.0269707 0.999635 -0.00141982
-0.147288 0.295765 -0.157783 -0.478986 -0.132331 -0.867791
-0.244056 0.486755 -0.0633899 -0.0257216 0.99901 0.0363011
-0.0664423 0.35941 -0.159509 0.130897 0.0576954 0.989716
0.149919 0.161153 0.00965793 -0.99764 0.0674922 0.0126444
0.30103 0.50528 -0.0137827 0.865164 -0.456329 -0.20798
0.144926 0.449068 -0.100739 0.797232 0.0640094 -0.60027
-0.19632 0.321083 0.194919 -0.616785 -0.357154 0.70144
0.288161 0.536974 -0.0586087 0.0136551 0.99951 0.0281735
0.208931 0.504315 0.234502 -0.19213 0.967119 0.166635
-0.0344976 0.468664 -0.168512 -0.066441 0.0393416 0.997014
0.112974 -0.0251328 -0.139454 0.709004 -0.0641594 -0.70228
-0.0222069 -0.0125401 0.141593 0.102638 0.279321 -0.954696
0.297967 0.533495 -0.00218425 -0.0673326 0.996955 0.0393407
0.160847 0.4026 0.155123 0.874088 -0.0848442 0.478302
0.025105 -0.389443 -0.160964 -0.118241 0.740251 -0.661852
0.158173 -0.409685 -0.11164 0.734573 0.359216 -0.575645
-0.214123 0.321089 -0.0463202 0.898199 0.176105 0.402772
0.15108 0.280108 0.145069 0.851791 -0.144695 0.503503
-0.228476 0.324039 -0.0898213 -0.840658 -0.180289 -0.510676
