ply
format ascii 1.0
comment Created by Open3D
element vertex 824
property double x
property double y
property double z
property double nx
property double ny
property double nz
end_header
0.369686 -0.186601 -0.409002 0.99196 -0.113254 -0.0564774
0.334161 0.0999539 0.336054 -0.00755088 0.386438 -0.922284
-0.29623 -0.0156978 -0.117262 -0.0536888 -0.492789 -0.868491
-0.280607 -0.0213015 -0.117139 -0.0651486 -0.496253 -0.86573
0.293751 -0.29485 -0.434038 0.184243 -0.495384 -0.84891
0.280205 -0.340857 -0.409044 0.0403711 -0.6398 -0.76748
-0.0280912 0.0295663 -0.126177 0.0174106 0.405519 -0.913921
-0.0480194 0.112301 -0.0167928 0.0579644 0.885362 -0.461274
0.262306 0.212488 0.109333 0.0579647 0.899375 -0.433318
-0.196939 0.0388101 0.139779 0.0515583 0.0592353 0.996912
-0.343423 0.00468204 -0.121952 -0.0480422 -0.302354 -0.951984
0.278855 -0.0284671 0.328772 -0.102153 -0.866621 0.488399
0.211053 -0.119589 -0.322961 -0.992907 0.118896 -0.000268538
0.267754 0.178256 0.264675 -0.0587941 -0.911162 0.407833
0.2135 -0.148098 0.00679515 -0.894872 -0.369386 0.250515
0.244501 0.0302256 0.259869 -0.986007 0.16582 -0.0171692
0.238904 -0.0206855 0.213507 -0.993737 0.0973338 0.0548971
0.398246 -0.0269732 -0.0543123 0.987134 -0.158599 -0.0203193
0.373064 -0.0189626 0.329697 0.51712 -0.789651 0.330209
0.192567 -0.272034 -0.425545 -0.995323 0.0817785 0.0514318
0.219163 -0.34282 -0.268034 0.00808953 -0.908336 0.418162
0.262682 0.15843 0.380104 -0.994394 0.0930745 0.0501769
0.218011 -0.220638 -0.0433926 -0.105801 -0.859737 0.499657
0.401902 -0.0215212 0.0856674 0.994783 -0.0925198 -0.0429773
0.161827 0.0546209 -0.0811998 0.0426593 0.906524 -0.419994
-0.352573 0.135589 -0.0249545 0.0944303 0.872473 -0.479451
-0.378397 0.0487494 0.120592 -0.757401 0.615636 -0.217568
0.229854 -0.0846525 0.163147 -0.995223 0.0896557 0.0386271
-0.0418535 -0.00868409 0.130668 -0.0659409 -0.259715 0.963431
-0.2497 0.0341558 0.14213 0.0755046 -0.0706158 0.994642
-0.318653 -0.086555 -0.0295437 -0.0644842 -0.996893 -0.0452277
0.374224 0.156852 0.247602 -0.0659866 -0.724465 0.686146
0.299557 0.0100694 -0.262823 0.0526226 0.880639 -0.470856
-0.313176 -0.0815941 -0.0602796 -0.126721 -0.938863 -0.320121
0.421833 0.0822406 0.409037 0.962841 -0.194779 0.187078
0.396503 -0.0577913 0.000192533 0.994513 -0.0910832 -0.051449
0.420662 0.0633567 0.335177 0.988696 -0.149453 -0.0120242
0.32527 -0.206595 -0.474009 0.417765 -0.452585 -0.787807
0.356322 -0.273458 -0.210213 0.807821 -0.540628 0.234833
0.351052 -0.204896 -0.0352082 0.562899 -0.743044 0.36198
-0.0560959 0.12716 0.0595854 0.164388 0.958838 0.231529
0.253541 0.11901 0.162818 -0.992298 0.071212 0.101363
0.340129 -0.211712 -0.252898 -0.0729613 0.361411 -0.929548
0.165331 -0.123017 0.0077839 -0.0138166 -0.887657 0.460299
-0.0163172 -0.0413046 0.118805 -0.0842991 -0.59252 0.801133
-0.121887 0.0871509 0.115882 0.0736316 0.468193 0.880553
0.388711 -0.0688591 -0.144221 0.99385 -0.108883 -0.0201801
-0.305855 0.0802964 0.134799 0.0816093 0.49495 0.865081
0.398686 0.182232 0.123039 0.777816 0.477642 -0.408486
0.374805 -0.134346 0.0699871 0.772007 -0.599577 0.21098
-0.00509143 0.0993714 -0.0264618 0.0702077 0.885504 -0.459296
0.297651 -0.136405 -0.488572 0.0891464 0.349124 -0.932826
-0.0943337 -0.0170141 -0.128074 0.0156938 -0.323675 -0.946038
0.261973 -0.047006 -0.375386 0.0682501 0.882812 -0.464741
-0.359108 0.129791 0.111773 0.0655666 0.63177 0.772378
-0.359997 0.0765892 0.143368 0.0510905 0.345005 0.937209
0.244755 -0.230638 -0.051954 -0.079232 -0.881337 0.465797
0.107797 -0.113108 0.0165837 -0.077717 -0.888854 0.451551
-0.221427 -0.0940757 -0.0072309 -0.102189 -0.956698 0.272555
-0.3534 0.0775198 -0.108892 0.070319 0.571594 -0.817518
-0.204349 -0.089989 0.00478936 -0.0653749 -0.897361 0.436428
0.234024 -0.318289 -0.22181 -0.0880514 -0.87669 0.472929
0.399865 -0.060382 0.129088 0.973161 -0.225622 0.0452938
0.213739 -0.0929391 -0.380362 -0.987296 0.101338 0.122379
0.275278 -0.00815768 0.363812 -0.0831893 -0.877857 0.471643
-0.231796 0.147863 0.0432632 0.137369 0.989279 -0.0495753
0.399802 -0.0369125 0.0522631 0.997037 -0.0570118 -0.0516479
-0.381112 0.129581 0.0571102 -0.60321 -0.682649 0.412466
0.368436 -0.202885 -0.0721378 0.867287 -0.485489 0.110062
0.270007 0.222828 0.368804 -0.988386 0.151849 0.00585954
0.350763 -0.0921205 0.205776 0.371173 -0.829778 0.416773
0.209661 -0.21202 -0.0844375 -0.992275 0.124029 0.00252583
0.378258 0.0776166 -0.0786086 0.702005 0.617273 -0.355195
-0.254377 0.0820681 -0.0983493 0.0256609 0.772762 -0.634177
0.372953 -0.110079 -0.365101 0.942912 0.252229 -0.217481
0.374442 -0.159132 -0.346744 0.996318 -0.0737157 -0.0437821
0.196792 -0.315628 -0.417342 -0.0680288 -0.486217 -0.871186
0.217444 -0.102452 0.0822567 -0.793016 -0.502639 0.344209
0.346164 0.209673 0.426436 0.0790429 0.419652 0.904237
-0.00365365 -0.112862 -0.0737913 -0.113419 -0.890116 -0.441395
0.391318 -0.0517495 -0.147352 0.992467 -0.12221 -0.00856757
0.253952 0.144776 0.129406 -0.993298 0.115362 0.00713191
-0.0300598 -0.00632863 -0.135909 -0.157135 -0.0123826 -0.987499
-0.0113383 0.0176994 -0.13082 0.0655517 0.255851 -0.964491
-0.366494 0.110689 0.0654514 -0.885975 -0.363693 0.287707
0.388424 -0.106484 -0.136937 0.991551 -0.129534 -0.00688183
0.259129 -0.152363 -0.493578 -0.0576796 0.201236 -0.977843
0.368005 -0.139839 0.0785319 0.663318 -0.683902 0.303787
0.0206615 -0.115251 0.000391188 -0.0476271 -0.892476 0.448574
0.379054 -0.0901757 -0.318571 0.971175 0.202862 -0.125162
0.41346 0.0240073 0.245808 0.993722 -0.111861 0.00205787
0.255348 0.0933808 0.250635 0.115355 0.734558 0.668669
0.256702 0.160467 0.123683 -0.991544 0.129526 0.00797737
-0.22038 -0.0477575 0.0800761 -0.0699791 -0.886091 0.458199
0.415847 0.0458093 0.32146 0.987658 -0.156418 -0.00809905
0.193785 -0.277284 -0.382929 -0.993741 0.108289 0.0274256
0.400897 0.0274481 -0.0805456 0.962834 0.146677 -0.226794
-0.40168 -0.00696616 0.0486433 -0.99566 0.0721442 0.058788
0.233507 -0.0614687 0.237183 -0.994873 0.0914358 0.0432012
0.271694 -0.25002 -0.0902636 -0.0382189 -0.891995 0.450427
0.33289 0.265253 0.219372 0.0761604 0.881909 -0.465227
0.365787 -0.248807 -0.342576 0.987388 -0.158105 -0.00822354
0.374258 0.0462247 0.449381 0.388011 -0.588898 0.708976
0.25177 0.114029 -0.0737045 0.0690951 0.903261 -0.423491
0.258934 0.150454 -0.00171925 0.105195 0.873192 -0.475888
0.264062 0.222416 0.185321 -0.989419 0.144761 0.00969954
-0.0692957 -0.00298679 -0.133915 -0.0249819 -0.0448967 -0.998679
0.129843 -0.0891036 -0.116283 -0.0442263 -0.473598 -0.87963
-0.173298 0.0113326 -0.130389 -0.00338192 0.013323 -0.999906
-0.397601 0.061844 -0.0773784 -0.991982 0.10443 0.0711761
0.258659 0.113185 0.394614 -0.993952 0.104274 0.0344356
0.366945 -0.146506 -0.433982 0.946064 0.14683 -0.288797
0.3955 0.0533457 0.439788 0.666786 -0.495833 0.556369
0.426643 0.122445 0.339139 0.994578 -0.0831693 -0.0624359
-0.283375 -0.0714074 0.0301686 -0.116088 -0.864784 0.488541
0.236287 0.00828234 -0.274693 0.0144925 0.881335 -0.472269
0.32118 -0.0881907 0.220928 -0.0175692 -0.888691 0.45817
0.398193 -0.027814 0.25747 0.850143 -0.492115 0.187295
-0.353956 0.0999895 0.123154 -0.996581 0.0693058 0.0449731
-0.373591 -0.00121251 -0.0938115 -0.992505 -0.0497036 0.111638
0.36332 -0.237755 -0.147052 0.858744 -0.480454 0.178106
0.374617 0.222865 0.158998 0.371339 0.808507 -0.456535
0.272515 -0.0904711 -0.454084 0.0299421 0.863873 -0.502819
0.254362 0.130506 0.172986 -0.981753 0.188074 -0.0280881
0.203084 -0.250515 -0.176136 -0.994019 0.0846381 0.0690048
0.0287807 -0.0663314 0.0916946 -0.0917588 -0.852399 0.514778
0.239267 0.0577215 -0.180572 0.056985 0.885368 -0.461386
0.408068 0.0131307 0.130348 0.994108 -0.102611 -0.0349389
0.402488 0.230197 0.392632 0.634902 0.318633 0.703827
0.00734113 0.0692064 -0.0849149 0.0999107 0.863552 -0.494263
-0.049285 -0.0216204 0.128483 -0.0464582 -0.426744 0.903178
0.24444 -0.00171385 0.299311 -0.989832 0.142181 -0.00411082
0.309737 -0.205746 -0.47951 0.251694 -0.482712 -0.838832
0.377921 0.0583117 0.458016 0.474396 -0.491775 0.730141
0.253947 -0.238344 -0.464714 -0.0815571 -0.465682 -0.881186
0.370847 0.139948 0.33343 -0.0706029 -0.397709 -0.914791
-0.235783 0.0589963 0.139807 0.0435216 0.31382 0.948485
0.101466 -0.126974 -0.0720457 -0.133484 -0.925959 -0.353246
0.257139 0.100475 0.33271 0.0126517 0.558264 -0.829567
0.296528 -0.231962 -0.469148 0.0547465 -0.440457 -0.896103
0.279721 -0.0173612 0.347688 -0.106592 -0.865096 0.490149
0.272551 0.265033 0.363807 -0.993482 0.0960596 0.0613757
0.409923 0.104322 0.230723 0.0116418 0.153912 0.988016
0.181478 -0.0549762 -0.137672 -0.0704776 -0.292582 -0.95364
0.319767 -0.19298 -0.25101 -0.0255018 -0.0182569 -0.999508
-0.349441 0.0329782 -0.123424 -0.0490124 0.0361082 -0.998145
0.342244 0.11736 0.230653 -0.0135725 0.137046 0.990472
-0.179365 -0.102584 -0.0391678 -0.117435 -0.990945 -0.0650875
-0.266791 -0.0147632 -0.119658 -0.0308057 -0.460623 -0.887061
0.385791 0.0477432 -0.113071 0.784928 0.52294 -0.332298
0.281168 0.261714 0.205413 0.0633468 0.907294 -0.415698
0.102507 -0.126765 -0.00531043 -0.148642 -0.897129 0.416011
-0.296569 0.0589392 0.141917 0.0522972 0.233837 0.970868
0.389036 -0.114611 -0.0565639 0.99102 -0.133715 -4.27212e-06
0.195897 -0.302422 -0.24315 -0.991815 0.124261 -0.0293557
0.291468 0.300697 0.370386 0.0730548 0.825903 0.55906
0.339636 0.13959 0.33531 -0.0774358 -0.329933 -0.940823
0.19713 -0.253402 -0.340951 -0.989169 0.144566 -0.0254237
-0.25586 0.121351 -0.0316944 0.0623932 0.892138 -0.447434
0.371383 0.126148 -0.0106954 0.541887 0.720912 -0.432025
0.293052 0.155246 0.0064165 0.0533711 0.890144 -0.452544
0.361888 -0.125427 0.126178 0.576434 -0.747424 0.330276
-0.12647 0.13442 0.0362203 0.0876118 0.993667 -0.0703596
-0.0909814 0.0713274 -0.0940658 0.0806381 0.831224 -0.550059
0.284791 0.144998 0.236991 0.0546625 -0.348353 0.935768
-0.294126 -0.0870459 -0.0539241 -0.0734834 -0.919703 -0.385677
0.203294 -0.256155 -0.129192 -0.986864 0.101343 0.125812
0.382704 -0.00816765 0.343239 0.669809 -0.673963 0.311658
0.31034 -0.242469 -0.0721436 0.22951 -0.888871 0.396526
0.413034 0.0573699 0.15919 0.993144 -0.0814978 -0.0838066
-0.324855 -0.0780639 0.0108496 -0.120805 -0.875746 0.467413
0.230065 -0.358694 -0.298038 -0.0484812 -0.900869 0.431375
0.407185 0.0539319 -0.0161335 0.997316 -0.00176146 -0.0731932
0.334616 -0.265507 -0.135623 0.4852 -0.771499 0.411547
0.312625 0.229464 0.150536 0.0427027 0.895321 -0.44337
0.352094 -0.252553 -0.414437 0.820178 -0.366949 -0.438926
0.188078 -0.0164468 -0.13788 -0.032185 0.198768 -0.979518
0.34096 0.0347015 -0.204839 0.353744 0.813929 -0.460852
0.252612 0.0557668 0.374117 -0.993545 0.109915 0.0280382
0.256245 -0.138568 -0.490387 0.0503081 0.231273 -0.971587
0.41524 0.0397561 0.317074 0.977661 -0.208716 0.0248261
0.372631 -0.132675 -0.389684 0.968431 0.176384 -0.176153
0.239122 -0.146104 0.0998722 -0.0857237 -0.873729 0.478799
0.191642 -0.300161 -0.379164 -0.99225 0.122353 0.0216592
-0.264833 0.146053 0.0159662 0.176492 0.916387 -0.359284
0.373739 0.106095 0.23057 0.0465982 0.218132 0.974806
0.252286 -0.271557 -0.133099 -0.06308 -0.881355 0.468224
0.224585 0.0606346 0.103141 -0.376423 0.523834 0.764136
0.271303 -0.077066 -0.427889 0.0385554 0.888263 -0.457714
0.254077 -0.308946 -0.199496 -0.0892075 -0.864214 0.495152
-0.0778079 -0.000678755 0.134916 0.0238492 -0.240443 0.97037
0.298281 -0.193526 0.0236679 -0.063751 -0.873821 0.48205
0.410628 0.00811102 0.247705 0.988656 -0.141253 0.0510512
-0.00376241 -0.100685 -0.089867 -0.123577 -0.792213 -0.597602
-0.0603625 -0.0795591 -0.103403 -0.0645669 -0.546401 -0.835031
-0.365784 0.0591448 -0.00439291 -0.94837 -0.236868 0.210923
0.238376 -0.347236 -0.400708 -0.0968559 -0.723346 -0.683659
-0.0052773 0.0828316 0.107058 0.0700795 0.561659 0.824396
0.339852 0.191998 0.434795 0.0861686 0.451982 0.887855
0.359281 -0.109122 0.160559 0.514258 -0.782968 0.350001
0.255942 0.075825 0.288298 0.134869 0.989139 -0.0584295
0.34278 0.0827988 0.475012 0.0998917 -0.140904 0.984971
-0.27539 0.0218456 -0.128471 -0.0289557 -0.0114318 -0.999515
0.25504 0.13479 0.11588 -0.99394 0.0482954 0.0987488
0.320787 -0.343442 -0.288074 0.488884 -0.784416 0.381684
0.290136 -0.0326484 0.320397 -0.0992825 -0.86278 0.495736
0.124288 0.00219021 0.131075 0.0104807 0.10017 0.994915
0.0929708 -0.127881 -0.0676242 -0.113338 -0.942803 -0.313492
0.381327 -0.136994 -0.267693 0.992425 -0.120817 -0.0222793
0.266461 0.22927 0.207361 -0.997505 0.0446049 0.0547271
0.09025 0.111852 0.0315313 0.110576 0.992932 -0.0431084
0.228498 -0.0801004 0.123284 -0.898225 -0.213603 0.384142
-0.14777 0.00499385 0.136589 0.00608643 -0.224265 0.974509
0.235413 -0.208678 -0.0173973 -0.0847283 -0.877493 0.472046
0.248048 0.0616722 -0.169415 0.0487469 0.883591 -0.465716
0.335632 -0.349333 -0.321913 0.656205 -0.708397 0.25994
-0.403842 -0.0218871 0.0512002 -0.994267 0.0792589 0.0717758
0.385979 -0.123696 0.0527524 0.928569 -0.359259 0.0932319
0.206597 -0.192716 -0.244056 -0.993797 0.108656 0.0237028
0.346618 0.109425 0.475055 0.0615615 0.171539 0.983252
0.269909 0.21107 0.418911 -0.989182 -0.00703428 0.146524
0.252689 0.155656 0.00496274 -0.991812 0.125728 0.0223811
0.0173763 -0.12147 -0.0127575 -0.0893375 -0.946048 0.311468
0.270373 -0.0256951 -0.331261 0.0653121 0.883513 -0.463831
0.293733 -0.146893 -0.273837 -0.102645 -0.839593 -0.533431
0.36405 -0.113441 0.14419 0.541075 -0.755443 0.369519
-0.350384 -0.0353764 0.0851902 -0.0929116 -0.870875 0.482643
0.0340582 0.0856066 -0.0439829 0.048673 0.890949 -0.451488
-0.364898 0.104349 -0.0809843 0.076353 0.867758 -0.491086
0.259527 0.168021 0.239144 -0.985215 0.169248 0.0265697
0.40837 0.0452495 0.0303959 0.995668 -0.0843934 -0.039029
0.238031 -0.263222 -0.115644 -0.0898989 -0.875611 0.474577
0.418243 0.0762854 0.235584 0.993826 -0.106401 -0.0314543
0.242742 -0.361721 -0.385998 -0.080645 -0.816545 -0.571622
0.177129 0.101698 0.0257055 0.0405967 0.998769 -0.0284973
0.0686025 0.0283912 0.128955 0.0568671 0.357372 0.932229
0.381597 0.0671019 0.300068 0.113829 0.934641 -0.336881
0.277602 0.0965165 0.474475 0.0112631 -0.0557139 0.998383
-0.265535 -0.0712097 0.0305027 -0.0565775 -0.885368 0.461435
0.335224 0.000454023 -0.265216 0.398685 0.785526 -0.473285
0.25358 0.118488 0.190122 -0.99562 0.0770793 0.0529186
0.222614 -0.0517616 -0.232613 -0.994147 0.0605093 0.0894995
0.423203 0.191356 0.203569 0.939291 0.267044 -0.215454
0.263533 -0.065761 -0.404704 0.04477 0.889038 -0.455639
0.295308 -0.30494 -0.189308 0.102526 -0.894418 0.435321
0.224373 -0.037461 -0.195684 -0.99434 0.0921707 0.0528507
0.24968 -0.0784374 0.231146 -0.0697618 -0.898273 0.433865
0.359537 -0.0104339 -0.253297 0.65295 0.645136 -0.396808
0.212131 -0.189139 -0.0502573 -0.985314 0.167791 -0.031658
0.254123 -0.330628 -0.242772 -0.00511144 -0.898832 0.438263
-0.0684798 0.116568 0.0830294 0.159771 0.78699 0.59592
0.0911075 0.0944519 0.0864552 0.0826197 0.81961 0.566933
0.424404 0.262226 0.343343 0.846096 0.471798 0.248048
0.224534 -0.00572203 -0.295809 -0.996326 0.0567564 0.0641335
0.301878 0.0118515 -0.25658 0.0995829 0.855933 -0.507408
0.288757 0.166102 0.454514 0.0575919 0.450993 0.890667
-0.149012 0.0833594 0.120554 0.103333 0.45277 0.885619
-0.177758 0.140222 0.0277632 0.22179 0.95431 -0.200252
0.272125 0.279126 0.247815 -0.99779 0.0325124 0.0579487
0.258268 0.169529 0.147325 -0.990031 0.140071 0.0147887
0.337538 -0.27783 -0.418354 0.668818 -0.404307 -0.623874
0.200795 -0.194237 -0.413489 -0.991977 0.1264 -0.00232659
-0.334842 0.117287 -0.0501006 0.0641909 0.879573 -0.471413
0.297393 0.124734 -0.0461121 0.0602166 0.892788 -0.446434
0.21709 -0.19734 0.00118222 -0.080369 -0.878518 0.4709
0.261357 0.0663501 -0.161269 0.109311 0.84902 -0.51693
0.273113 -0.200097 -0.250726 -0.00226304 0.231515 -0.972829
0.238619 0.0826369 0.0949986 -0.683651 0.593038 0.425356
-0.296409 -0.0419016 0.0800077 -0.13642 -0.870279 0.47329
0.242248 -0.163853 -0.351577 -0.0327927 -0.367439 0.92947
0.369202 0.0620511 -0.123631 0.622948 0.674555 -0.39612
-0.40958 -0.0552725 -0.0358682 -0.991697 0.126206 0.0247008
0.242845 0.0585079 0.135276 -0.987268 0.101163 0.122754
0.300056 -0.244436 -0.310642 0.163653 0.986017 0.0314443
-0.393832 0.0829502 -0.0366584 -0.991252 0.0993545 0.0868753
0.242894 -0.00259829 0.280543 -0.991321 0.13008 -0.0190006
-0.100735 0.128334 0.0698218 0.148507 0.923013 0.354955
0.201949 0.0875716 0.0771459 0.0898286 0.803957 0.587864
0.165425 -0.0949055 0.0628292 -0.0443498 -0.880618 0.471746
0.351957 0.0724445 -0.12083 0.377338 0.819413 -0.431484
-0.235396 -0.0659158 0.0456139 -0.0534185 -0.891544 0.449774
0.201526 -0.254641 -0.198967 -0.9904 0.137111 0.0175463
0.0230076 -0.124604 -0.0459176 -0.0273372 -0.994074 -0.105211
-0.395176 -0.0113271 0.0196877 -0.573373 0.742045 -0.347294
0.325664 0.0751526 -0.135024 0.0607575 0.889589 -0.452702
0.390137 -0.0114527 0.319427 0.658494 -0.684887 0.311953
0.369837 -0.239952 -0.186844 0.953015 -0.294118 0.0725038
0.205956 -0.231247 -0.138833 -0.994017 0.102454 0.0378735
0.211827 -0.19545 -0.0562085 -0.99488 0.0787201 0.0633788
0.20554 -0.183237 -0.356012 -0.996073 0.0739536 0.0486685
-0.130854 -0.00368616 -0.132004 -0.0697618 -0.0664313 -0.995349
0.204396 -0.18856 -0.355574 -0.991659 0.127962 -0.0154222
0.2933 -0.144509 0.114857 -0.0786629 -0.879603 0.46916
0.364847 -0.0424936 -0.294145 0.717762 0.586 -0.376062
0.383835 0.114702 0.461362 0.511789 0.204516 0.834413
0.175425 -0.0438227 -0.13937 -0.0829909 -0.184677 -0.979289
0.205362 -0.130019 -0.478792 -0.989568 0.109023 -0.0941776
0.264836 0.184382 0.36211 -0.994133 0.102047 0.0358552
0.284619 0.288676 0.254205 0.114715 0.858765 -0.499363
0.24413 -0.235473 -0.319224 0.106757 0.935644 0.336411
0.189522 -0.367658 -0.338507 -0.090471 -0.995891 -0.00404927
0.264629 0.0789312 0.268848 0.137536 0.936313 0.323114
-0.364528 0.0482915 0.0655637 -0.92677 0.35463 -0.123837
0.351704 -0.202641 -0.451476 0.769485 -0.359696 -0.527742
0.374988 0.172609 0.0740844 0.506493 0.746074 -0.432248
0.39245 -0.0848191 0.00812534 0.993166 -0.114167 -0.0242339
0.225755 -0.102343 0.120106 -0.995896 0.0452777 0.0783714
0.264563 0.147042 0.420741 -0.993925 0.0918387 0.060658
-0.311734 0.147841 0.00772935 0.0732378 0.896088 -0.437793
-0.0338552 -0.104624 0.0141672 -0.098888 -0.867943 0.486721
0.225189 -0.148458 -0.491351 -0.00770624 0.0850931 -0.996343
0.349459 0.0714883 0.259955 0.109339 0.908704 0.402866
0.219063 -0.196038 -0.249874 -0.0145367 0.240158 -0.970625
0.185911 0.0328069 -0.113384 0.0310326 0.733398 -0.67909
0.241636 0.00989031 0.168662 -0.99541 0.0700794 0.0651727
0.423933 0.15192 0.386514 0.972502 0.0714746 0.221655
0.225743 -0.197085 -0.483642 -0.0937776 -0.421023 -0.902189
0.242598 0.031661 0.15242 -0.994819 0.055836 0.0849533
0.208558 -0.299563 -0.186676 -0.0505466 -0.911755 0.407613
0.35621 0.302774 0.344852 0.11568 0.957752 0.263305
-0.185667 0.065897 -0.110718 0.0443154 0.613332 -0.788581
0.20299 -0.315505 -0.218372 -0.0853509 -0.876661 0.473478
0.213171 -0.143728 -0.183117 -0.993639 0.109382 0.0267816
-0.395535 -0.0420856 -0.0427953 -0.661762 0.69246 -0.287352
0.380191 0.303788 0.332668 0.364308 0.924613 0.111226
-0.0256638 -0.075406 -0.110456 -0.0933026 -0.410836 -0.906922
-0.0351254 -0.115945 -0.0597826 -0.114378 -0.946708 -0.3011
0.320166 0.0404549 -0.202024 0.113967 0.874528 -0.471394
0.237712 -0.0123742 -0.314482 0.0515382 0.888321 -0.456323
0.232253 0.0113134 -0.164057 -0.989505 0.139276 -0.0384877
0.379686 -0.174408 -0.115199 0.990377 -0.102811 -0.0926445
-0.0586961 -0.0995239 0.0158979 -0.071921 -0.880397 0.468753
0.376472 0.169682 0.298956 -0.102419 -0.919501 -0.379509
0.391563 -0.0575536 -0.138588 0.99719 -0.0599494 -0.0449131
0.213665 -0.119068 -0.27443 -0.989724 0.142974 -0.00197252
-0.392036 0.00194969 0.132109 -0.0552379 -0.602251 0.796394
0.263579 0.13674 0.461117 -0.996807 0.0689688 0.0402379
0.11973 -0.0900649 -0.113339 -0.0318448 -0.518534 -0.854464
-0.320722 -0.0748172 0.0158035 -0.0711075 -0.889397 0.451571
0.34477 -0.0963486 0.195172 0.263657 -0.850005 0.456044
0.243585 -0.145684 -0.267796 -0.127474 -0.739905 -0.660523
0.0777937 0.0912707 0.0894361 0.0997126 0.755679 0.647307
-0.170902 -0.0600618 -0.105734 -0.124878 -0.422019 -0.897945
0.230134 -0.183397 0.0280883 -0.159299 -0.839298 0.51981
0.200983 -0.0254342 0.129238 0.0783633 -0.233662 0.969155
0.235649 -0.00668002 -0.302723 0.0949305 0.87066 -0.482638
0.265114 0.192763 0.291147 -0.993413 0.111653 0.0257579
0.369801 -0.109787 0.134627 0.621599 -0.700846 0.349901
-0.227442 0.0718519 -0.109483 0.0919465 0.610225 -0.786875
0.254261 0.127289 0.219607 -0.994612 0.0942235 0.0432278
0.154012 0.104314 0.0163993 0.0118365 0.988019 -0.15388
0.373036 -0.0809389 -0.33153 0.893959 0.360912 -0.26567
0.344821 -0.120535 -0.455171 0.663384 0.523691 -0.53448
0.411822 0.170012 0.409712 0.754993 0.24175 0.609543
0.143514 0.10453 0.0450585 0.108361 0.978654 0.174628
0.400358 -0.00943276 -0.0682755 0.987483 -0.157538 -0.0076968
0.283181 -0.0193956 0.346166 -0.0652315 -0.88961 0.452038
0.26614 -0.0328375 0.31667 -0.106059 -0.871948 0.477974
0.0242543 -0.0804192 0.0677836 -0.0607831 -0.88071 0.46974
0.25049 0.146594 0.00826127 -0.994447 0.0905353 0.0536501
-0.0849878 0.0391444 0.134477 0.0301063 0.295974 0.954721
0.193489 0.0608791 -0.0634515 0.0494123 0.884529 -0.463861
0.297745 -0.0384186 -0.352496 0.126853 0.840717 -0.526406
-0.404408 -0.0330206 0.0552537 -0.993904 0.104604 0.0348339
0.212416 -0.192119 -0.482711 -0.0473891 -0.484702 -0.873394
0.251822 0.135351 0.076809 -0.989887 0.141858 0.000688914
-0.256941 0.143229 0.0764628 0.19955 0.919473 0.338747
0.343421 -0.0988704 -0.425293 0.703371 0.599358 -0.382151
0.347714 -0.122028 0.149341 0.412493 -0.829114 0.377385
-0.104123 -0.0550806 0.0906917 -0.0304395 -0.905745 0.422729
0.0756648 0.108176 0.0696666 0.088176 0.867725 0.489161
0.0726038 0.069659 0.108406 0.0916866 0.410433 0.90727
0.208262 0.00369161 0.127354 -0.0388374 0.164782 0.985565
0.417203 0.10078 0.138322 0.993559 -0.109652 -0.0285858
0.267444 0.0880949 0.318261 0.117267 0.756743 -0.643109
0.20564 -0.102161 -0.123837 -0.654376 -0.309945 -0.689729
-0.37873 0.152959 0.00660847 0.114452 0.866558 -0.485775
0.212702 -0.151768 -0.164199 -0.99446 0.0993023 0.0344614
0.296339 -0.290761 -0.162029 0.0258207 -0.862969 0.504597
-0.104064 -0.0108758 0.130266 0.00576389 -0.405118 0.914246
-0.333683 0.0468071 -0.122215 -0.00137548 0.219129 -0.975695
0.218687 -0.191582 0.0137036 -0.0566558 -0.899165 0.433927
0.201122 -0.243366 -0.25955 -0.992302 0.0982283 0.0754193
-0.33565 -0.0493536 0.0642258 -0.0657187 -0.880987 0.468553
0.307915 0.175815 0.273027 -0.0782974 -0.961886 0.262
0.287972 -0.375787 -0.34298 0.0974715 -0.995043 -0.0197372
-0.100055 0.104916 0.102863 0.127092 0.636079 0.761085
0.197287 -0.235475 -0.347122 -0.99142 0.130679 0.00297609
0.356453 -0.226317 -0.258976 0.0876374 0.489501 -0.867588
0.23376 -0.198338 -0.481632 -0.133168 -0.43243 -0.891779
-0.372979 0.113988 0.0479419 -0.783722 -0.509651 0.355015
0.259424 0.097613 -0.106598 0.0865765 0.876899 -0.472814
0.382218 -0.0751771 0.190639 0.675209 -0.663058 0.323183
0.209338 -0.167645 -0.223512 -0.992878 0.0996473 0.0653026
0.371926 -0.00574474 -0.22208 0.774016 0.530302 -0.345947
0.254203 -0.0833779 0.222385 -0.0939474 -0.875156 0.474633
0.248025 0.0576543 0.229735 -0.986841 0.16019 -0.0220146
-0.0797268 0.0881715 0.111644 0.0790386 0.504663 0.85969
0.244735 -0.000769397 0.341206 -0.994566 0.0962184 0.0397635
0.41754 0.062723 0.38726 0.927012 -0.358413 0.110398
0.272293 -0.193771 0.0205976 -0.0723249 -0.884603 0.460703
0.0930586 -0.0147288 0.130172 0.0439466 -0.184686 0.981815
0.0693925 0.0947457 0.0906678 0.0889623 0.737502 0.66946
-0.161326 -0.047354 0.0962252 0.058828 -0.907321 0.416302
0.0294651 -0.0508778 -0.126867 -0.056442 -0.491424 -0.86909
0.00449159 -0.0762522 0.0681655 -0.0629384 -0.908659 0.412769
0.219467 -0.128034 0.0546282 -0.917422 -0.325129 0.229406
-0.218311 0.134848 0.0852302 0.107336 0.83129 0.545377
-0.23114 0.0805452 -0.100507 0.138541 0.727972 -0.671463
0.302467 -0.0392804 0.313358 -0.0289786 -0.898044 0.438951
-0.119992 -0.110086 -0.0287484 -0.0987591 -0.992946 0.0656144
0.322268 -0.32358 -0.243739 0.496353 -0.764843 0.410668
0.386086 0.218956 0.409185 0.437829 0.379365 0.8151
-0.219488 0.0699231 0.135148 0.0217479 0.460954 0.887157
0.361305 -0.283525 -0.344014 0.991053 -0.132374 -0.0170903
0.37842 0.12476 -0.000678654 0.580372 0.740457 -0.338956
-0.0349002 -0.0668691 0.0829901 -0.0563345 -0.889252 0.453935
0.310921 -0.144492 -0.274865 -0.108283 -0.834439 -0.540357
0.323081 -0.256863 -0.111744 0.281559 -0.838865 0.465864
0.266733 0.189232 0.326382 -0.995179 0.0868403 0.0455842
0.192583 -0.253445 -0.431573 -0.993712 0.0999663 0.050425
0.136126 -0.0204705 0.130751 0.0300228 -0.194746 0.980394
0.258181 0.0618933 -0.171198 0.0860629 0.87726 -0.472238
0.404402 0.0372964 -0.0366076 0.996877 -0.0109633 -0.0782032
0.373681 0.083151 0.239805 0.0927957 0.603865 0.791667
0.309474 0.0848111 -0.123481 0.0455491 0.892471 -0.448799
0.201742 -0.170642 -0.479792 -0.993304 0.113006 0.0240109
0.395265 -0.0720289 -0.0177564 0.986984 -0.159405 0.0212728
0.22501 -0.0997692 0.106973 -0.964005 -0.127788 0.233161
0.417223 0.204725 0.384869 0.834386 0.197396 0.514621
0.373442 -0.0116212 -0.229075 0.75152 0.562347 -0.344939
0.204804 -0.171777 -0.364856 -0.99269 0.119675 0.0156536
-0.01325 0.0650336 0.115427 0.0739345 0.438537 0.895667
-0.395687 0.0982541 -0.0867 -0.993785 0.106626 0.0319679
-0.374262 0.113828 -0.0660714 0.0915353 0.869446 -0.485474
0.228115 -0.231761 -0.280703 0.10424 0.88283 -0.457979
0.384845 -0.131085 0.0235987 0.961799 -0.271714 0.0333713
-0.0699681 -0.0424574 -0.123076 -0.0191033 -0.464905 -0.885155
0.396126 0.29455 0.312815 0.532996 0.837941 -0.117347
-0.00601952 0.0846712 0.10653 0.0957801 0.61268 0.784506
0.365782 0.0435826 0.450883 0.337718 -0.650598 0.680198
0.375559 -0.196911 -0.102028 0.939008 -0.338041 0.0631811
0.220383 -0.0857173 -0.17398 -0.993494 0.110187 0.028783
-0.407947 -0.0606812 0.0214322 -0.991208 0.131478 0.0148721
-0.406952 -0.0293783 0.00745199 -0.996406 0.0749691 0.039432
0.264572 0.209645 0.19415 -0.996259 0.0799699 0.0327631
0.386419 -0.1005 -0.213335 0.991512 -0.129648 -0.00973706
0.340877 -0.287893 -0.195807 0.663246 -0.683932 0.303878
0.272364 0.240845 0.370987 -0.996213 0.0775576 0.039288
0.213603 -0.119232 -0.27306 -0.995661 0.0704528 0.0607977
0.274307 -0.197639 0.0137527 -0.126486 -0.867517 0.481057
0.040015 0.0421213 -0.114354 -0.0164614 0.683763 -0.729519
0.404116 0.0412699 -0.0313471 0.991845 0.0508995 -0.116845
0.382822 0.070379 -0.083521 0.722962 0.590665 -0.358386
-0.0237345 -0.095368 -0.095555 -0.110279 -0.697301 -0.708245
0.39979 0.0172099 0.356531 0.755361 -0.599788 0.263978
0.342826 -0.0258997 0.336013 -0.0227165 -0.874006 0.485385
-0.143917 -0.0088979 0.133413 -0.0353429 -0.397289 0.917013
0.232299 -0.140436 0.11297 -0.0719631 -0.882352 0.465055
0.412257 0.0634849 0.0778423 0.994904 -0.0945206 -0.0350987
0.395489 0.123207 0.231533 -0.00964058 -0.117106 0.993073
0.389949 -0.116109 -0.0393775 0.993468 -0.106601 -0.0407149
0.242823 0.0172402 0.208484 -0.993096 0.117299 0.000654871
0.219285 -0.0619955 -0.274121 -0.991476 0.128179 0.0233385
0.0745754 -0.0476974 -0.133155 -0.0457549 -0.377388 -0.924924
-0.380098 0.0484918 -0.0637903 -0.764426 -0.539918 0.352337
0.393892 0.233706 0.198244 0.649082 0.643439 -0.405807
-0.384178 0.112334 0.0270209 -0.648329 -0.646574 0.402009
0.289576 0.214118 0.120151 -0.0113723 0.88535 -0.464787
0.152629 -0.0418091 -0.138952 -0.0279872 -0.216371 -0.97591
0.178671 -0.139764 -0.024361 -0.190207 -0.937372 0.291813
0.298393 -0.272877 -0.129029 0.108522 -0.886445 0.449931
0.211155 -0.182905 -0.0951715 -0.99323 0.11363 0.0241153
0.290498 0.150311 0.461869 -0.0204486 0.498224 0.866807
0.119861 0.0956307 -0.0152618 0.0707907 0.895803 -0.438777
-0.0793807 0.0480516 0.132764 0.129623 0.233463 0.963687
0.370404 -0.232834 -0.199901 0.989874 -0.139543 -0.0260121
-0.311487 0.137578 -0.0113574 0.0783657 0.878417 -0.471425
0.257726 -0.305817 -0.193232 -0.0904733 -0.869831 0.484983
0.415616 0.261611 0.364696 0.74825 0.391821 0.535348
-0.0115516 -0.0253825 -0.133301 -0.0529476 -0.184067 -0.981487
0.260774 0.197536 0.224365 -0.993741 0.111234 0.0102894
0.31774 -0.245243 -0.45385 0.382106 -0.502119 -0.775804
0.239028 -0.0182024 0.208314 -0.99305 0.115226 0.0239814
-0.398921 -0.0713317 0.00736565 -0.0510198 -0.913363 0.403938
-0.331559 -0.0755329 0.016706 -0.0898945 -0.870503 0.483884
0.20402 -0.179664 -0.367861 -0.993782 0.10479 0.0376291
0.362119 -0.171408 -0.444879 0.894122 -0.0408668 -0.445954
-0.378528 0.00463176 0.0171242 -0.819568 0.542715 -0.183763
0.21298 -0.0249666 -0.148206 -0.550533 0.121201 -0.825968
0.272494 0.287415 0.259671 -0.995764 0.0779683 0.048733
-0.381895 0.00881249 0.0386662 -0.749033 0.614749 -0.247047
0.264563 -0.303666 -0.186415 -0.0260458 -0.898453 0.438296
0.273017 -0.345148 -0.406349 -0.0673954 -0.645308 -0.760943
0.257564 0.152506 0.193468 -0.995891 0.0771649 0.0474098
-0.215668 0.0720188 0.13377 0.0610524 0.462941 0.884284
0.385362 0.270519 0.384655 0.399472 0.601607 0.69173
-0.298615 0.106968 -0.064409 0.12275 0.854554 -0.504649
0.322797 0.312615 0.322101 0.075292 0.99699 0.0184744
0.182206 -0.0919865 0.0697952 -0.0761291 -0.879771 0.469262
0.221161 -0.128529 -0.290702 -0.151408 -0.972964 -0.174403
0.302289 -0.284513 -0.149399 0.158474 -0.883657 0.440495
0.288811 -0.241173 -0.463912 0.0477217 -0.509206 -0.859321
0.420867 0.073001 0.332367 0.991105 -0.130369 -0.0267383
0.194106 -0.314237 -0.222029 -0.994361 0.0916615 0.0533287
-0.0450017 0.098644 -0.0363075 0.0329404 0.883304 -0.467641
-0.217037 -0.0452116 0.0901576 -0.0987253 -0.872947 0.477721
0.286491 -0.266259 -0.115948 -0.0896969 -0.875819 0.474231
0.260449 0.193933 0.122873 -0.992952 0.116804 -0.0200687
0.328834 0.0804365 0.253425 0.105987 0.817312 0.566364
0.337326 -0.229067 -0.450073 0.611516 -0.3809 -0.693516
0.218238 -0.110161 -0.160894 -0.997704 0.0306651 0.0603773
0.409769 0.0153223 0.188481 0.992418 -0.0932701 -0.0800469
0.0997709 -0.0320199 -0.136615 0.0432623 -0.147887 -0.988058
0.242881 -0.110134 0.167885 -0.0422959 -0.882506 0.468395
0.163042 -0.0630427 0.107714 -0.154313 -0.640139 0.752601
0.216446 -0.104324 -0.255855 -0.995975 0.0329209 0.0833665
-0.370086 -0.00194417 -0.0708451 -0.99539 0.0852129 0.0440119
0.264844 0.162672 0.368082 -0.988914 0.146888 -0.0217404
-0.0585777 -0.113627 -0.0193077 -0.151363 -0.961379 0.229867
0.267963 0.196452 0.421865 -0.990533 0.106484 0.0866338
-0.00610871 -0.0302144 0.124539 -0.0151305 -0.502424 0.864489
0.234472 -0.0386628 0.18107 -0.993573 0.095517 0.0607307
-0.397742 0.0185886 0.0834871 -0.468825 0.79789 -0.378911
0.280201 0.124946 -0.0513806 0.0700233 0.895383 -0.439757
0.170622 0.103045 0.0184966 0.0797499 0.991037 -0.107174
-0.394855 0.0174977 0.0827589 -0.43208 0.802061 -0.412316
0.208234 -0.155918 -0.0650727 -0.856862 -0.502826 -0.113811
0.247776 -0.166857 0.0626137 -0.0743505 -0.879221 0.470576
0.430742 0.177842 0.33943 0.996921 -0.05062 -0.0598877
0.312283 -0.0395936 -0.348291 0.217759 0.823803 -0.523383
-0.18148 -0.0922381 -0.0727079 -0.0215308 -0.832426 -0.553718
0.303698 0.184603 0.442262 0.0540395 0.519197 0.852945
0.386383 0.26688 0.246304 0.363884 0.813243 -0.454119
0.411105 0.0818142 0.0275553 0.975677 0.11321 -0.187718
0.423049 0.113346 0.411886 0.953236 0.058765 0.296458
-0.36338 0.0602639 0.0927393 -0.885431 0.434544 -0.164875
-0.230556 -0.0470908 0.0856176 -0.0754604 -0.89748 0.434552
-0.0917545 -0.0628963 0.0784143 -0.108653 -0.869892 0.481125
0.347646 0.132818 0.46627 0.0586771 0.463145 0.884338
0.363065 0.0857708 0.472331 0.292988 -0.155949 0.943312
-0.0143464 0.121477 0.0610034 0.0390824 0.930955 0.363037
0.214319 -0.0905917 -0.310494 -0.996913 0.0720029 0.0313164
-0.35966 0.0218807 -0.123231 -0.022335 -0.13257 -0.990922
0.184616 -0.350716 -0.388064 -0.993421 0.112806 0.0197351
0.390402 0.135095 0.233916 -0.0185375 -0.320379 0.947108
0.293666 0.266847 0.399712 0.0607829 0.435034 0.89836
-0.132372 -0.0299013 0.119006 -0.0714967 -0.594805 0.800684
0.366231 -0.199918 -0.0611463 0.781694 -0.574217 0.243371
0.10483 -0.0535573 0.112847 -0.0208574 -0.637856 0.769873
0.0257459 0.070415 -0.0810672 0.0691572 0.881006 -0.468024
0.379093 -0.13315 -0.277012 0.983505 -0.173865 0.0498971
0.40953 0.100116 0.0415224 0.960583 0.205455 -0.187267
0.315219 0.128673 0.231268 -0.00590736 -0.0750264 0.997164
0.246991 0.116549 -0.0155127 -0.972933 0.228963 -0.0312786
0.198963 -0.278352 -0.188458 -0.992654 0.119604 0.0182432
0.369139 -0.0803813 0.209159 0.530301 -0.759457 0.376837
-0.132692 0.0694966 -0.0979993 0.115945 0.769418 -0.628134
0.35901 -0.136775 0.0980141 0.556917 -0.75509 0.345952
0.219801 -0.280602 -0.151418 -0.0720715 -0.881867 0.465958
0.329685 -0.155529 -0.34208 -0.0286981 -0.741463 0.67038
-0.132308 0.075042 -0.0895178 0.0781307 0.867309 -0.4916
-0.148638 -0.0608399 0.0738429 -0.0751747 -0.879839 0.46929
0.0546676 -0.0487109 0.117781 0.0343307 -0.687227 0.725631
0.227855 -0.246464 -0.458299 -0.0532628 -0.48307 -0.87396
0.263298 -0.166694 -0.353048 -0.00605203 -0.382333 0.924005
-0.384708 0.0190782 0.0677352 -0.62064 0.700372 -0.352541
0.233572 -0.0497206 0.149129 -0.974595 0.0615595 0.21535
0.39098 -0.0848451 0.139489 0.882631 -0.462924 0.0816336
0.348836 -0.173547 -0.256323 -0.140748 -0.377662 -0.915184
0.400189 -0.0437201 0.117591 0.991777 -0.10124 -0.0782861
0.226364 -0.362873 -0.379083 -0.164261 -0.894592 -0.4156
0.259755 -0.232476 -0.327433 0.111339 0.866336 0.486893
0.316504 0.206363 0.429695 0.0765246 0.463892 0.88258
0.294565 0.175082 0.305381 -0.108734 -0.905872 -0.409356
0.341041 0.0896681 -0.101998 0.279555 0.828456 -0.485294
0.225362 -0.088311 0.113569 -0.887493 -0.264899 0.377074
0.115591 -0.00402442 0.133983 0.0647018 -0.0444447 0.996914
0.29622 0.17776 0.0505208 0.0726353 0.891796 -0.446569
0.215068 -0.123189 -0.245435 -0.993974 0.104781 0.0321853
0.203389 -0.17361 -0.412775 -0.989446 0.136256 -0.0492948
0.218328 -0.055677 -0.289773 -0.992551 0.119713 0.0226313
0.416272 0.0479868 0.245225 0.993622 -0.109019 -0.0288143
0.219364 -0.271945 -0.131849 -0.11044 -0.849336 0.51617
0.354976 -0.0688612 -0.355227 0.70719 0.598759 -0.375991
0.315763 0.116003 -0.0586941 0.0779139 0.881609 -0.465505
-0.381247 0.15642 0.0143268 0.0911208 0.90779 -0.409408
0.349217 -0.0592773 0.267782 0.268448 -0.856158 0.441508
0.302762 -0.276556 -0.443 0.250513 -0.523552 -0.814332
0.413182 0.0847061 0.0807874 0.995385 -0.0881087 -0.0380313
0.417347 0.0678444 0.406916 0.937863 -0.318191 0.138449
0.26596 0.187104 0.337188 -0.991639 0.0918262 0.0906652
0.410561 0.0886539 0.0370908 0.976663 0.129047 -0.171685
0.341601 -0.0231784 0.339561 0.130442 -0.874684 0.466812
0.104152 0.0485509 -0.102335 0.0629753 0.821545 -0.566655
-0.334351 0.113815 -0.0571441 0.0410561 0.901653 -0.430507
0.26058 0.201425 0.146827 -0.993922 0.104324 0.0351486
0.33278 -0.30961 -0.404243 0.666363 -0.397312 -0.630955
0.227669 -0.0424007 -0.189942 -0.994668 0.0863326 0.056405
-0.119491 0.134515 0.0498936 0.0688176 0.992635 0.0997029
0.381913 0.249687 0.209872 0.425944 0.790969 -0.43925
0.411154 0.0102104 0.278503 0.967629 -0.250214 0.0329669
-0.390266 0.115638 0.00570549 -0.991681 0.127983 0.0137652
-0.412709 -0.0680491 -0.0620831 -0.991892 0.126547 0.0117107
0.320869 -0.134341 0.136991 0.139069 -0.895734 0.42228
0.215775 -0.184219 0.0228899 -0.993382 0.0870597 0.0749153
0.415026 0.0795841 0.187473 0.993546 -0.109808 -0.0284274
0.223995 -0.0288161 -0.214997 -0.996352 0.0780054 0.0346059
0.407843 0.0184907 0.323884 0.899716 -0.413253 0.140473
0.400616 -0.0117681 -0.0493765 0.993646 -0.11078 -0.019879
-0.382994 0.0260649 -0.124017 -0.0480051 -0.00413703 -0.998839
0.0708287 0.113644 0.0528716 0.122592 0.969068 0.214191
0.390449 -0.0693652 -0.164099 0.993676 -0.112103 -0.00638247
0.222533 -0.0572722 -0.233834 -0.992781 0.119942 0.000873603
0.299113 -0.171406 0.0668271 -0.068042 -0.879638 0.470753
0.342954 -0.195763 -0.464915 0.620142 -0.377543 -0.687667
0.410438 0.0450358 0.0601136 0.9962 -0.0704014 -0.051268
0.378832 -0.141404 -0.301542 0.993384 -0.107824 -0.039528
0.216422 -0.0627856 -0.376407 -0.988308 0.151656 0.0157123
0.35694 -0.205081 -0.438846 0.826858 -0.388723 -0.406449
0.405987 -0.00638008 0.139491 0.99045 -0.137866 0.00133534
-0.37985 0.000926014 0.130959 -0.00700717 -0.584742 0.811189
0.266571 -0.0601408 0.266728 -0.0954828 -0.875777 0.473179
0.35307 0.266187 0.225654 0.0831538 0.877691 -0.471958
0.374399 -0.050854 0.254268 0.512913 -0.733471 0.446028
0.240134 -0.0218945 0.272113 -0.995873 0.0844636 0.0332223
0.127696 -0.0765382 0.0922378 -0.136746 -0.830001 0.540739
0.213066 -0.120609 -0.256903 -0.991944 0.125927 0.0137995
-0.019661 0.0613666 0.121222 0.0856448 0.463971 0.881701
-0.198253 -0.0194113 -0.124015 -0.0277909 -0.352921 -0.93524
0.400044 0.0859403 -0.0208486 0.900339 0.336661 -0.275771
0.197919 -0.257714 -0.23424 -0.991334 0.131348 -0.00213829
-0.312402 -0.0739639 -0.0712417 -0.182111 -0.871852 -0.454653
0.18392 -0.360487 -0.362691 -0.995464 0.0822279 0.0478503
0.367861 -0.216991 -0.397611 0.976023 -0.161361 -0.146086
-0.0653766 0.0591399 -0.108383 0.0661315 0.718659 -0.692211
0.329041 -0.0267786 0.339814 0.025462 -0.89342 0.4485
0.26413 -0.21253 -0.25524 -0.00325704 0.536832 -0.843683
-0.397598 0.071738 -0.0981093 -0.992083 0.125581 -0.000794626
0.211241 -0.102733 -0.129127 -0.776434 -0.27246 -0.568257
0.202494 0.0616911 -0.0633038 0.0721123 0.893475 -0.443286
-0.404524 -0.0332989 0.0429898 -0.99397 0.0985924 0.0479998
0.402807 0.121547 0.2286 -0.0381543 -0.145668 0.988598
0.228488 0.00702884 -0.257167 -0.987656 0.153748 -0.0299377
-0.152883 0.0513756 0.135735 0.0728327 0.29755 0.951924
0.356446 -0.284296 -0.389491 0.90555 -0.275924 -0.32225
0.309968 -0.366388 -0.351339 0.393669 -0.91637 -0.0727357
0.391772 -0.0624548 -0.157895 0.991963 -0.123548 -0.0272975
0.262597 0.183715 0.230699 -0.987696 0.154969 0.0210281
-0.199604 0.0955895 -0.0661718 0.102736 0.8509 -0.515183
0.297 -0.200406 -0.48917 0.0852113 -0.460504 -0.883558
0.278726 -0.23876 -0.0676229 -0.100902 -0.869251 0.483965
0.365539 -0.189471 -0.430326 0.937766 -0.203367 -0.281489
0.207188 -0.217671 -0.126197 -0.989024 0.147722 -0.00302826
0.307342 -0.166401 0.071707 0.00217922 -0.889458 0.457012
0.380844 -0.166867 -0.0983219 0.992683 -0.119271 -0.0188127
-0.0840964 0.131113 0.0465042 0.11512 0.992014 0.0515379
0.385653 -0.0891207 -0.210322 0.994545 -0.0826804 -0.063599
0.295645 -0.157873 -0.345732 -0.0734287 -0.570968 0.817682
-0.32807 -0.0739251 -0.0736705 -0.0997463 -0.863025 -0.495215
0.41205 0.206583 0.188023 0.809084 0.486941 -0.329046
0.307414 0.169842 0.0372635 0.0766971 0.881263 -0.466362
0.219886 0.0343771 -0.117215 -0.534371 0.705785 -0.465097
0.0980761 0.00763026 -0.133451 -0.011465 0.331671 -0.943325
0.39407 -0.0880736 0.0446796 0.996188 -0.0790457 -0.0369056
0.223366 -0.349613 -0.395782 -0.0812305 -0.785632 -0.613339
0.41306 0.0922861 0.0493443 0.984936 0.0933418 -0.145562
-0.365378 0.0349089 -0.00777494 -0.996446 0.0678441 0.0499184
0.271313 0.167871 0.321692 -0.105859 -0.739923 -0.66431
0.213745 0.0788107 -0.0269438 -0.0254816 0.880169 -0.473976
0.32798 0.197491 0.432587 0.104141 0.451239 0.886306
-0.366467 0.0189077 -0.0288563 -0.99313 0.0977439 0.064337
0.3294 -0.107482 -0.457085 0.506675 0.654578 -0.561078
-0.0156634 -0.037812 0.119388 0.0112003 -0.61357 0.789561
0.241305 -0.0131681 0.294786 -0.992183 0.0692094 0.103844
0.377639 0.108755 0.335193 0.0373987 0.164041 -0.985744
0.242762 0.0629527 -0.174223 0.0720905 0.883362 -0.463114
0.22134 0.019217 -0.133703 -0.553613 0.521832 -0.649003
-0.12331 -0.109262 -0.0237724 -0.0913344 -0.993808 0.0632825
0.0422249 -0.0503124 -0.127901 -0.110929 -0.423754 -0.898959
0.200783 -0.368578 -0.332185 -0.00300058 -0.996528 0.0832097
0.306542 0.134565 0.338998 -0.0586196 -0.140738 -0.98831
-0.18536 0.0032527 0.138026 -0.0331262 -0.235881 0.971217
0.358004 0.286826 0.266521 0.052437 0.879981 -0.472105
0.293465 -0.0558812 0.275413 -0.0855366 -0.877496 0.471895
0.237175 -0.230651 -0.329524 0.108623 0.900191 0.421731
-0.0064387 0.0250851 -0.126821 0.0176489 0.404734 -0.914264
0.355516 -0.080498 -0.371192 0.787789 0.523004 -0.325354
-0.0410623 0.123072 0.015172 0.08686 0.970529 -0.224787
0.207758 -0.21302 -0.139808 -0.99287 0.118954 0.00769927
0.407097 0.000755041 0.203207 0.993068 -0.117533 -0.0015663
0.252879 0.13028 0.141479 -0.993239 0.11605 0.00280905
0.222937 -0.13768 0.0969959 -0.993015 0.11397 -0.0305338
-0.215323 0.130376 -0.0093219 0.0351848 0.899102 -0.436322
0.221283 -0.0505128 -0.161456 -0.938 -0.0351851 -0.344846
-0.372667 -0.0104019 -0.0860985 -0.995963 0.0508193 0.0739898
0.341755 0.289813 0.268119 0.121027 0.854935 -0.504419
0.195048 -0.3188 -0.227841 -0.0215325 -0.89443 0.446689
0.225567 -0.112381 0.101762 -0.980746 -0.109077 0.161986
0.177459 -0.0102271 -0.13743 0.0210209 0.216013 -0.976164
0.390062 0.222707 0.408595 0.495505 0.365894 0.787779
-0.241086 -0.00987677 -0.125104 -0.0798735 -0.31028 -0.947284
-0.365233 0.0622547 0.108524 -0.868592 0.465151 -0.170831
0.123782 -0.112184 0.0270726 -0.112076 -0.865469 0.488265
-0.0975487 0.12346 -0.000974791 0.0363524 0.888933 -0.456593
-0.182458 -0.0622436 0.0623643 -0.0666925 -0.882169 0.466187
-0.193857 0.0904278 0.119203 0.0937149 0.453791 0.886167
0.179067 -0.134802 -0.0733724 -0.0112467 -0.926984 -0.374931
-0.116018 -0.0274889 -0.128064 -0.0664556 -0.354095 -0.932845
0.266316 0.155675 0.446541 -0.986753 0.16213 -0.00571827
0.0830965 0.087614 -0.0374084 0.054744 0.887374 -0.457789
0.169712 -0.0952437 -0.114622 -0.0553626 -0.447574 -0.892531
0.159612 0.074858 -0.0439 0.076158 0.880793 -0.467337
0.216739 -0.111951 -0.203041 -0.996104 0.0634655 0.0612236
-0.220693 0.109546 -0.0447557 0.111887 0.864166 -0.49061
0.0565432 0.0832703 0.100772 0.0872982 0.612743 0.785445
0.155361 0.100367 0.00962721 0.100572 0.958549 -0.266589
0.373407 -0.157525 0.0164008 0.846673 -0.507534 0.159856
0.395901 -0.0305381 -0.0663013 0.98618 -0.164226 0.0218891
0.393869 -0.0677589 -0.0296397 0.992364 -0.122189 -0.016831
0.39041 0.0972985 -0.0230698 0.800847 0.496048 -0.335529
-0.00712761 0.0402535 -0.118193 -0.0421316 0.576491 -0.816017
0.214572 -0.0667035 -0.149249 -0.800881 -0.111345 -0.588381
0.301491 0.0718614 0.471283 -0.0102368 -0.307694 0.95143
0.366035 -0.171716 -0.440399 0.931481 -0.100666 -0.349583
0.369585 0.0752292 -0.101833 0.636873 0.64688 -0.419449
-0.188604 -0.0432924 -0.111392 -0.143811 -0.381866 -0.91296
0.262685 -0.253244 -0.0985724 -0.210848 -0.844009 0.493144
0.201728 -0.170216 -0.484542 -0.992943 0.104932 0.0552529
0.292557 0.223627 0.135628 0.0959615 0.871772 -0.480421
0.162704 -0.113904 -0.103234 -0.0102629 -0.697848 -0.716173
0.302449 -0.0362552 0.312484 -0.0793891 -0.903393 0.421401
0.231818 -0.348479 -0.277757 -0.0981199 -0.871721 0.480078
0.340906 0.176981 0.0561957 0.0957672 0.880059 -0.465107
0.255335 0.144985 0.189479 -0.984011 0.17805 -0.00447076
0.207161 -0.187183 -0.213917 -0.997319 0.0584768 0.0439913
0.422055 0.0953192 0.345866 0.998889 0.0253741 -0.0397053
0.412471 0.0276379 0.209548 0.990424 -0.0919863 -0.102952
0.377772 0.218686 0.153085 0.386845 0.796032 -0.465492
-0.311829 -0.0415792 0.0831173 -0.0493853 -0.896611 0.440056
-0.366571 0.0690536 0.142053 0.061948 0.24239 0.968199
0.226801 0.00075588 -0.247734 -0.993823 0.0981185 0.0518461
0.235728 -0.0389297 0.195923 -0.988331 0.151295 -0.0176289
0.394034 -0.0222124 0.275038 0.777944 -0.56356 0.277855
-0.0800655 -0.0129964 0.132675 -0.0281157 -0.343836 0.938609
0.0879428 0.0531933 -0.100787 0.0552835 0.848058 -0.527012
0.302805 0.120788 -0.0558214 0.0624233 0.881329 -0.468362
0.380797 0.175302 0.434359 0.455734 0.36604 0.81137
0.274804 0.280005 0.306032 -0.993824 0.108893 -0.0213688
0.242452 -0.0194082 0.325893 -0.994907 0.0170912 0.0993425
-0.149184 -0.0579562 -0.107692 -0.00989664 -0.467548 -0.883912
0.060021 0.0668278 0.111058 0.0634047 0.459737 0.885789
0.296931 -0.0619735 0.266848 -0.0556784 -0.880661 0.470463
-0.157976 -0.0926062 0.0127327 -0.0572169 -0.890418 0.451532
0.149847 0.0381419 0.117544 0.110579 0.396514 0.911345
0.33818 -0.02694 0.339357 0.000843663 -0.876117 0.482099
0.00733073 -0.121357 -0.020126 -0.141369 -0.972527 0.184949
0.264337 0.154635 0.397957 -0.992338 0.123016 0.0114946
0.191566 -0.139426 -0.0729925 -0.409822 -0.855242 -0.317187
0.224472 0.0502136 -0.0965761 -0.570499 0.743631 -0.348632
0.346061 -0.0182333 -0.286266 0.528767 0.723458 -0.443863
0.381255 0.0807949 0.321836 0.0355466 0.668955 -0.742452
0.0967041 -0.0791535 -0.118252 -0.143451 -0.454808 -0.878961
0.410447 0.0283258 0.332807 0.926885 -0.363079 0.0951717
0.41197 0.082467 0.3257 0.0396805 0.592096 -0.80489
-0.201422 0.129166 -0.00504735 0.111574 0.862087 -0.494325
0.267904 0.103408 -0.0928844 0.0522704 0.881224 -0.469799
0.0675549 0.00491365 0.133331 0.0290693 0.0687099 0.997213
-0.0233437 -0.0685534 -0.11404 -0.0745209 -0.513647 -0.854759
0.258173 0.172961 0.200539 -0.980309 0.197321 0.00761019
-0.0522704 0.127501 0.0467024 0.137756 0.984133 0.11183
0.364188 -0.237269 -0.150178 0.894204 -0.432212 0.116583
0.30424 -0.0405287 -0.352019 0.104551 0.875666 -0.471464
-0.106886 0.10762 -0.029396 0.169506 0.858387 -0.484189
0.210247 -0.178314 -0.202691 -0.984777 0.171816 -0.0263293
0.336314 -0.295968 -0.20697 0.574254 -0.735687 0.35916
-0.2721 0.0308028 -0.126749 -0.0329766 0.136915 -0.990034
0.323038 0.174912 0.274868 -0.0944104 -0.978916 0.181134
0.168327 0.00829457 -0.131698 0.0318807 0.393302 -0.918856
-0.0812845 -0.0563589 0.0902713 -0.0554774 -0.900596 0.431102
-0.365855 0.114872 0.0695261 -0.876485 -0.35354 0.326778
0.272443 0.276501 0.27711 -0.994648 0.072535 0.0735795
0.231474 -0.0127912 0.1428 -0.851778 0.153478 0.500918
-0.210798 -0.0156017 -0.123991 -0.00272309 -0.372913 -0.927862
0.348148 0.302213 0.292256 0.109653 0.901968 -0.417648
0.254469 -0.246749 -0.0869937 -0.0104779 -0.894108 0.447729
0.156063 0.00813674 -0.133334 0.0473108 0.365249 -0.929707
0.387598 -0.114069 0.065698 0.908768 -0.391014 0.14577
0.390766 -0.0578998 -0.137999 0.99099 -0.133855 -0.00455147
-0.231743 -0.0345089 -0.113339 -0.0723308 -0.469235 -0.880106
-0.283946 0.00151117 -0.123475 -0.0501892 -0.247306 -0.967637
-0.218392 -0.0640203 -0.0998252 -0.0708158 -0.590744 -0.803745
-0.389695 0.118877 -0.0321435 -0.994979 0.0863217 0.0506454
0.230296 -0.0743621 -0.430836 0.110938 0.862174 -0.494316
0.386005 -0.122564 -0.164947 0.992794 -0.104172 -0.0592322
0.152486 0.104353 0.0490346 0.0969111 0.96651 0.237626
-0.360826 0.0794968 0.0481734 -0.982797 -0.113452 0.145737
-0.102288 -0.0750114 0.0548874 -0.121791 -0.860023 0.495507
0.297162 0.290712 0.379477 0.0990954 0.777417 0.62113
0.250061 0.0270659 0.381194 -0.990508 0.137429 -0.00276205
0.00618045 0.0868676 -0.0458684 0.104382 0.875988 -0.470902
0.218014 -0.201788 -0.480649 -0.0823759 -0.454638 -0.886859
0.390913 0.0421869 -0.109474 0.881889 0.380093 -0.278929
0.233255 -0.173121 0.050213 -0.112796 -0.869248 0.481338
0.24275 0.0646973 0.119452 -0.898852 0.276934 0.339667
0.267746 0.165172 0.442401 -0.995415 0.0817821 0.0495989
-0.079447 -0.0592369 -0.113977 -0.0797587 -0.463215 -0.88265
0.301721 -0.148423 0.104898 -0.149929 -0.862276 0.483736
0.373707 -0.160788 -0.39041 0.994357 -0.103155 -0.0247488
-0.399786 0.00837033 0.0988948 -0.990588 0.13427 -0.0266029
0.388472 0.0734617 -0.0640079 0.799301 0.508024 -0.320982
0.372218 0.0647746 0.270117 0.0900178 0.967515 0.236246
0.273165 0.262117 0.294334 -0.996026 0.0772246 0.0443658
0.0690006 0.0832663 -0.0445594 0.0419646 0.902296 -0.429069
0.388217 0.0315506 0.418423 0.569098 -0.731161 0.376206
-0.262777 0.123778 -0.0261623 -0.0133618 0.928004 -0.372332
0.401895 -0.0359685 0.175935 0.978223 -0.201509 -0.0497385
0.204995 -0.210838 -0.225184 -0.995675 0.0793552 0.0483096
0.35991 -0.204421 -0.0555483 0.772085 -0.583308 0.252263
0.22375 -0.0164909 -0.292758 -0.993272 0.114222 0.0191027
0.314768 -0.0840893 -0.43111 0.259501 0.84123 -0.474333
0.0125384 -0.0540175 -0.124126 -0.208996 -0.478389 -0.852915
0.424205 0.133579 0.405394 0.941465 0.0825629 0.326845
0.00706157 0.0387658 0.12817 0.0606973 0.432288 0.899691
