ply
format ascii 1.0
comment Created by Open3D
element vertex 832
property double x
property double y
property double z
property double nx
property double ny
property double nz
end_header
0.342166 -0.124197 0.143099 0.318785 -0.845934 0.427518
0.204692 -0.26652 -0.179379 -0.993707 0.107953 0.0298823
0.301704 -0.147285 -0.487964 0.196052 0.252565 -0.94751
-0.1126 0.102048 0.11118 0.122006 0.626626 0.76971
0.381179 0.130775 0.219194 0.0358112 -0.121373 0.991961
-0.00270858 -0.0117227 0.150266 0.0295067 -0.139733 0.989749
0.258311 0.0704287 -0.159828 -0.0672906 0.952301 -0.297648
0.282228 0.21087 0.29975 -0.85464 0.510993 -0.0920639
0.264408 0.148511 0.142034 -0.976975 0.184243 -0.107581
0.161015 -0.0866727 0.0685806 0.356339 -0.873498 0.331697
0.208094 -0.153134 -0.464165 -0.954992 0.296287 -0.0142814
0.211915 -0.292841 -0.159827 -0.0942303 -0.870938 0.482274
0.34984 -0.0147933 0.35077 0.300546 -0.860493 0.411369
0.385357 -0.0942539 -0.036329 0.943203 0.199645 -0.265537
-0.362811 0.0643961 0.0492322 -0.970326 0.232342 0.0669623
-0.382026 0.075218 0.00371903 -0.968407 -0.0236346 0.248253
0.190302 0.0145352 0.135602 0.191506 -0.198739 0.96116
-0.125422 -0.11001 -0.032372 -0.103357 -0.992649 0.0629761
0.245807 -0.0619644 -0.393657 -0.0908257 0.932973 -0.348298
0.193146 -0.283786 -0.376315 -0.845952 0.209067 -0.490567
0.356869 -0.0936194 0.205989 0.0356943 -0.733877 0.678344
-0.287924 -0.0252518 -0.114188 0.113193 -0.811706 -0.572993
-0.242107 0.135363 0.110774 0.147411 0.837091 0.526828
0.411883 -0.0160463 0.119977 0.993135 -0.0790029 -0.0862658
-0.122173 -0.0402326 0.125155 0.560752 -0.609733 0.560163
0.404488 0.205221 0.153768 -0.0646323 0.990885 -0.11819
0.405967 0.033843 0.097298 0.938478 0.235604 -0.252487
0.391964 -0.0861951 0.0641916 0.98562 -0.16737 0.0232407
-0.0640109 0.0688748 0.144193 0.132731 0.34615 0.928742
-0.216801 -0.00053994 -0.123267 -0.041977 -0.0264215 -0.998769
-0.226154 0.123512 -0.0216124 0.199322 0.841953 -0.501384
0.36919 -0.11657 -0.419573 0.904729 0.282477 -0.318861
0.359657 -0.243648 -0.402495 0.839275 -0.511268 -0.184996
0.285922 0.205588 0.0990733 -0.161398 0.876135 -0.454244
-0.150346 -0.107591 -0.0539371 -0.116162 -0.969638 -0.215196
0.237579 0.0534208 0.402778 -0.99458 0.0771888 0.0696533
0.413432 0.0594936 0.288473 0.991445 -0.0892555 -0.09524
-0.0790304 -0.0177403 0.109798 -0.448215 -0.411282 0.793694
0.352219 -0.0340964 0.324398 -0.101017 -0.753497 0.649645
0.42061 0.0321836 -0.011015 0.957905 -0.228671 0.173572
0.234593 -0.0831411 0.151575 -0.92096 0.208379 -0.329259
0.212239 -0.382697 -0.349194 0.300995 -0.939118 -0.165706
0.312675 0.172137 0.259483 0.20181 -0.923309 0.326763
0.343979 -0.0382422 0.307566 0.20292 -0.89008 0.408142
0.319282 0.234125 0.153416 0.374203 0.762447 -0.52787
0.410098 0.142387 0.246017 -0.31264 -0.122154 0.941984
-0.250264 0.108494 -0.0602205 -0.215465 0.97317 -0.0807124
0.0314861 0.085556 -0.0514108 0.245956 0.792879 -0.557538
-0.245818 -0.0433223 -0.0972582 -0.0921204 -0.732076 -0.674966
0.226333 -0.0456486 -0.379068 -0.938643 -0.199989 0.280989
0.260076 -0.00304918 0.387594 -0.189885 -0.73967 0.645625
0.367083 0.229043 0.167099 -0.0230026 0.873731 -0.485865
0.310935 -0.230465 -0.0306347 0.102002 -0.880915 0.462152
0.165227 -0.345824 -0.327045 -0.931341 -0.0168071 0.363759
0.264171 0.107125 0.312539 -0.972342 0.19316 -0.1313
0.294991 0.0152468 -0.242993 0.230399 0.798552 -0.556085
0.321623 0.0620228 -0.172426 0.289291 0.829856 -0.477127
0.315215 0.259286 0.193744 -0.193201 0.962815 -0.188842
-0.225781 0.144992 0.0447897 -0.369387 0.837743 0.402169
0.260061 -0.136465 0.149565 -0.353156 -0.702353 0.618046
0.398447 0.021153 -0.0820464 0.978295 -0.192321 -0.0771509
0.200012 -0.297178 -0.228648 -0.944435 0.315331 -0.0927866
-0.0769736 -0.0234606 -0.129402 -0.047572 -0.161395 -0.985743
0.229099 -0.0327725 -0.259035 -0.963452 -0.241246 0.116446
-0.367751 0.0874793 0.129409 -0.913509 0.390912 0.112644
0.200274 -0.213287 -0.236148 -0.993837 0.108643 0.0220169
0.261063 0.0981239 -0.124971 -0.15483 0.984831 -0.0783341
0.349288 -0.225501 -0.125465 0.662286 -0.596551 0.453326
0.204072 -0.228476 -0.12311 -0.993072 0.0578677 0.102271
0.368244 -0.171807 -0.409747 0.959465 0.196404 -0.202119
0.160904 0.0993104 -0.0187951 -0.182615 0.911797 -0.3678
0.299238 0.0909082 0.235663 -0.0232061 0.322112 0.946417
0.383503 0.30973 0.295391 0.596844 0.556831 -0.577681
0.161307 -0.127632 -0.0511967 -0.291358 -0.956604 -0.00444732
0.241837 0.162208 0.0848557 -0.906438 -0.0678566 0.416852
0.35714 0.0826214 -0.0910445 0.608161 0.440757 -0.660208
0.250835 0.0768202 0.302906 0.671856 0.404528 -0.620457
-0.141156 0.0334392 0.141 -0.14211 0.182122 0.972952
0.321145 -0.258493 -0.0943646 0.345697 -0.820173 0.455862
-0.330727 -0.0658155 -0.0771137 0.0468339 -0.98668 0.155786
0.243117 -0.0208919 0.320742 0.171988 -0.912651 0.370793
0.0729328 0.0269211 0.125041 -0.0222358 0.491201 0.870762
-0.131298 -0.0596074 0.0529881 -0.0313978 -0.901812 0.430987
-0.271359 0.120336 -0.023786 -0.157392 0.98743 -0.0144865
0.394267 0.198813 0.405899 0.402383 0.411104 0.817974
0.31611 -0.0695174 0.265326 -0.0661497 -0.875534 0.478608
0.392923 -0.0577568 0.0205916 0.976377 -0.203462 0.0727408
0.407378 0.0131505 0.199039 0.959426 -0.245405 0.138845
0.035739 0.103766 0.0815783 0.100947 0.751399 0.652081
0.387454 0.0584186 -0.0972342 0.744515 0.554526 -0.37175
-0.212984 0.153192 0.03691 -0.277722 0.862632 0.422772
0.0918522 0.0517643 0.122398 -0.251786 0.810855 0.528316
0.256463 -0.212421 -0.0024356 0.0478752 -0.929415 0.365918
-0.390981 0.0339927 -0.043289 -0.776816 -0.541378 0.321662
0.26839 -0.155161 0.0851173 0.145162 -0.989408 0.000766498
0.225598 0.0472552 -0.150694 -0.965201 -0.0891415 0.245847
0.228182 -0.0876493 -0.183107 -0.978601 0.205044 0.0172409
0.348763 0.169873 0.325464 0.0301525 -0.997556 -0.0630354
0.322674 -0.266873 -0.44232 0.113117 -0.984557 -0.133614
0.412498 -0.0111327 0.228703 0.957267 -0.285807 0.0442019
0.312119 0.10239 0.227727 0.166557 0.796748 0.580905
0.214258 -0.358384 -0.288265 -0.13615 -0.847569 0.512924
0.228256 -0.322442 -0.231956 0.16789 -0.9312 0.323542
0.287559 -0.20144 -0.00712373 0.228324 -0.91173 0.341493
-0.368785 0.028 0.067794 -0.562409 0.665912 -0.49016
0.42246 0.199613 0.280413 0.989286 0.0919452 -0.113398
0.00359522 -0.0190224 0.122756 0.486451 -0.482705 0.728259
0.278974 0.184451 0.442036 0.324513 -0.00281389 0.945877
0.0746052 0.0182363 -0.124736 0.558754 0.269973 -0.784161
0.374319 -0.130257 -0.254188 0.934985 -0.319734 0.153539
-0.0334595 -0.108571 -0.00796847 -0.180474 -0.921221 0.344645
0.264692 0.139578 0.41857 -0.947785 0.249142 -0.199077
0.427462 0.0695793 0.357614 0.98591 -0.166789 0.0127928
0.125354 -0.104634 0.0307903 0.281348 -0.926688 0.249184
-0.0394343 -0.00891241 -0.133816 -0.0978349 -0.0565067 -0.993597
-0.0547864 0.0842931 0.107912 0.0622291 0.655673 0.752476
0.30139 0.0323058 0.442422 0.0938636 -0.919566 0.38156
-0.370552 0.0325213 -0.124645 -0.00375244 -0.151472 -0.988454
0.0568775 0.123894 0.045132 -0.168089 0.969166 0.180174
-0.388344 0.112561 -0.0296788 -0.899366 0.208237 -0.38442
0.344191 0.00311957 -0.262354 0.381338 0.845873 -0.372935
0.214593 -0.149976 -0.0903414 -0.942383 0.0946345 -0.320872
0.39931 0.0707448 0.0316527 0.961876 -0.271568 -0.032338
0.383785 -0.100925 -0.210034 0.941966 -0.265147 0.205907
0.225424 -0.14673 -0.324295 -0.990983 0.133409 -0.0124423
-0.359494 0.0757488 0.106369 -0.984221 0.0697417 0.162619
-0.109377 -0.0899991 -0.0877245 -0.0953997 -0.823099 -0.559828
0.148405 -0.0411206 -0.153484 0.221447 -0.177845 -0.958818
0.286837 -0.215561 -0.0257882 -0.425005 -0.685365 0.591308
0.203045 0.0921301 0.078373 0.51707 0.831839 0.2017
-0.231773 -0.0281049 0.108653 0.45523 -0.784258 0.421551
-0.257022 -0.0711965 -0.0783712 -0.169655 -0.756074 -0.632115
0.388499 -0.0479602 0.0239795 0.918552 0.0834528 -0.386391
0.261658 0.112849 0.368942 -0.985533 0.098771 0.137729
0.297391 0.189232 0.28064 -0.141952 -0.970348 0.19564
-0.222115 -0.0469572 0.0944852 -0.127401 -0.865312 0.484773
-0.277616 0.0126206 0.137615 -0.163091 -0.24969 0.954493
0.30146 0.213697 0.441644 0.0982968 0.435083 0.895009
0.352465 -0.0961764 -0.335833 0.958869 0.224384 -0.173848
0.205133 -0.0956166 -0.452225 -0.966944 -0.249554 0.0523748
0.190945 -0.230117 -0.149881 -0.975128 0.211035 -0.0677491
-0.0872765 -0.0636801 0.0679155 0.127125 -0.888185 0.44155
0.26836 -0.143679 -0.481574 0.4907 0.204699 -0.846942
0.324667 -0.276553 -0.168108 0.436561 -0.614942 0.656704
0.211019 -0.0951352 -0.399295 -0.895596 0.305276 -0.323596
0.267223 -0.22201 -0.250174 0.0425395 0.453006 -0.890492
0.36811 -0.22272 -0.163264 0.927827 -0.356097 0.111045
-0.175886 -0.102467 -0.0215885 -0.0981132 -0.993007 0.065652
0.282922 0.123892 0.230249 0.075741 0.324787 0.94275
0.142407 -0.0333661 0.12222 0.232089 -0.515244 0.82502
0.402034 0.0850208 -0.0248395 0.976991 0.138462 0.162227
0.347465 -0.176928 -0.264682 0.3396 -0.795687 -0.501552
0.341053 0.0941712 0.476457 0.0695536 -0.128607 0.989254
0.248085 0.100674 0.140459 -0.97424 0.120144 -0.190844
0.353023 -0.276497 -0.192517 0.756602 -0.635319 0.154668
0.29006 -0.318602 -0.175415 -0.073498 -0.852312 0.517844
0.365002 0.214281 0.409083 0.41261 0.418687 0.808983
-0.157127 0.0182001 0.131761 -0.256259 0.0426561 0.965666
0.25877 -0.175266 -0.256226 0.210925 -0.497581 -0.841382
0.00292982 0.0934461 0.0717199 0.198894 0.979099 0.042514
0.0397605 -0.126453 -0.0738357 -0.0430465 -0.86154 -0.505862
0.336299 -0.12025 0.14281 0.0792994 -0.384555 0.91969
0.402859 -0.0758197 0.0345636 0.992071 -0.0599851 -0.110441
-0.375953 -0.0215099 0.0883755 -0.69995 -0.491516 0.518153
-0.0229169 0.103114 -0.00615547 0.031521 0.943073 -0.33109
0.169771 -0.0934937 0.0492982 -0.26165 -0.341335 0.90279
0.208112 -0.218754 -0.227319 -0.983671 0.179939 -0.00365839
0.145428 -0.128831 -0.0934556 0.0357247 -0.826697 -0.561512
0.340979 0.136619 -0.0361599 0.0271894 0.931611 -0.362439
0.288346 -0.0971869 0.198727 0.0354076 -0.971442 0.234619
-0.21322 0.0934592 0.116426 0.575664 0.222839 0.786736
0.386439 -0.0601106 0.220053 0.644981 -0.646305 0.407786
0.199273 -0.165362 -0.163241 -0.818006 -0.433013 0.378636
0.352915 -0.277566 -0.229667 0.784618 -0.547253 0.291357
-0.086609 0.123655 0.000445288 -0.0134174 0.920558 -0.390376
-0.142226 -0.0976307 -0.0521282 0.351299 -0.895592 -0.272954
-0.380937 0.0429976 -0.0497295 -0.86155 -0.415425 0.291812
0.334802 -0.0354426 -0.348023 -0.0304779 0.874025 -0.484925
0.33989 -0.236893 -0.129402 0.377184 -0.674681 0.634459
0.271576 0.0994718 0.373746 -0.991317 0.13092 0.0122783
0.297625 -0.0264329 -0.334523 0.112121 0.617321 -0.778681
0.377382 -0.115698 -0.273187 0.942905 -0.326502 0.0657724
-0.161776 -0.103315 -0.0240087 0.589237 -0.800959 0.106129
0.0767579 0.0979965 -0.00535526 -0.313535 0.948922 -0.03526
-0.0902964 0.135009 0.0309425 0.425834 0.82149 -0.379235
0.248732 0.150402 0.107327 -0.837706 0.541929 -0.0675413
0.3225 0.0886464 -0.0929163 0.112654 0.952561 -0.282729
0.340316 -0.178617 -0.465552 0.75701 -0.586965 -0.287069
-0.130897 0.107442 0.108511 0.192232 0.309788 0.93117
0.396089 0.191989 0.417305 0.907453 0.0635308 0.415323
0.0320483 -0.122203 -0.0242195 -0.550792 -0.718899 0.424043
0.225729 -0.141167 -0.500279 0.215403 0.0814612 -0.973122
0.377982 -0.180989 -0.106329 0.948032 -0.294651 0.120063
0.365615 -0.13188 -0.4479 0.931277 -0.279525 -0.233645
0.315311 0.273317 0.21599 0.0470242 0.880745 -0.47125
0.387618 -0.0298062 -0.198475 0.993975 0.0811655 -0.0736667
0.310453 0.020805 0.393571 0.358318 -0.824568 0.437832
0.237757 0.117183 0.182143 -0.727678 -0.414157 0.546772
0.26979 0.112717 0.479564 -0.0698578 0.0234217 0.997282
0.447077 0.216908 0.280587 0.987474 0.0606919 -0.145643
0.314707 0.00912041 -0.240661 0.0936187 0.8613 -0.499397
0.373591 0.00107064 -0.22456 -0.0522338 0.745675 -0.664259
-0.374707 -0.0285026 0.0806081 -0.163953 -0.796512 0.58197
0.241962 -0.224683 -0.481552 -0.094387 -0.44523 -0.890428
0.194703 -0.246756 -0.389021 -0.970995 0.233821 -0.0499698
-0.314197 -0.0611191 0.0461627 -0.238029 -0.83151 0.50193
0.286333 0.0632173 -0.15507 -0.206779 0.946429 -0.248023
0.276419 -0.102067 0.17958 0.0209357 -0.905878 0.423021
0.319703 0.117837 0.240094 -0.260175 0.0321638 0.965026
0.28075 0.308162 0.35769 -0.978365 0.17492 -0.11048
-0.314269 0.166507 0.0429015 0.112484 0.993262 -0.0278937
0.406776 -0.00112316 0.206038 0.990458 0.000865601 -0.137815
0.31891 -0.245858 -0.331746 -0.273768 0.599753 0.751896
-0.357831 0.122672 -0.0784244 0.0297297 0.915778 -0.400582
-0.35592 0.108108 0.0997568 -0.998376 -0.00420335 0.0568068
0.338493 0.256223 0.394485 -0.167521 0.591296 0.788864
0.276099 -0.163031 -0.256261 -0.108029 -0.786589 -0.607953
0.195253 -0.163482 -0.392823 -0.976071 0.198986 -0.0876957
0.181595 0.0967583 0.0628987 0.248528 0.801207 0.544335
-0.023022 0.118237 0.0866356 0.0850754 0.988238 -0.127072
0.241622 0.062558 -0.124807 -0.767046 0.390328 -0.5092
0.234371 -0.222359 -0.352749 0.180951 0.243505 0.95287
0.345023 -0.337057 -0.332174 0.695391 -0.658601 0.287535
-0.061729 0.12923 0.0706957 0.0452091 0.813226 0.580189
-0.392291 -0.041835 -0.0319478 -0.753283 0.635035 -0.171158
0.414718 0.247693 0.257782 0.610814 0.747052 -0.262335
-0.000227017 -0.0441163 0.126174 0.380122 -0.651206 0.65684
0.257569 -0.228392 -0.259287 -0.104459 0.815355 -0.569459
0.388887 -0.0331008 -0.118691 0.992898 -0.0693508 -0.0966695
0.33854 -0.157968 -0.479371 0.640169 0.0686709 -0.765159
0.374345 -0.0411785 0.285015 0.628574 -0.65167 0.424523
-0.168453 0.0421958 0.129059 -0.096919 0.230898 0.968139
0.354447 0.227512 0.163611 0.17657 0.839128 -0.514477
-0.390789 0.0398082 -0.116195 -0.651805 -0.553781 0.518147
-0.182612 0.137767 0.0781084 0.0528749 0.329958 0.942514
0.228862 -0.130627 -0.275644 0.178682 -0.594929 -0.783666
0.248142 0.0941701 0.442877 -0.980594 -0.149045 0.127361
-0.39992 -0.0281517 0.0462641 -0.991047 0.0784799 0.10801
0.259299 0.168795 0.365819 -0.682591 -0.575401 0.450536
0.29888 0.171005 0.292473 -0.13654 -0.989609 -0.0450698
0.372632 -0.151236 -0.380493 0.708904 0.26077 -0.655327
0.356123 -0.245145 -0.0909883 0.828684 -0.558862 -0.0309224
0.0331341 0.120932 0.0295836 -0.596762 0.800932 0.0488158
0.197223 -0.165734 -0.354496 -0.0848241 -0.392166 0.915975
0.422849 0.119214 0.211295 0.981976 -0.0765951 -0.172792
-0.384503 0.0700736 -0.0450161 -0.856916 -0.399207 0.326079
0.333403 0.118557 0.221835 0.255844 -0.341007 0.904576
0.295193 0.111265 -0.10395 0.0766014 0.878636 -0.471308
0.0347768 -0.081687 0.0740926 0.368746 -0.90369 0.21765
0.347165 -0.219376 -0.0326654 0.234401 -0.879429 0.41432
-0.380784 0.0166266 0.0630524 -0.692227 0.691094 -0.207875
0.280857 0.275305 0.40834 0.0555502 0.335825 0.940285
0.239055 0.0122294 0.280495 -0.979093 0.181255 -0.0923254
0.0524167 -0.000665108 0.129573 -0.0268192 -0.015701 0.999517
-0.145188 0.00223344 -0.139882 -0.073546 0.264813 -0.961491
0.223516 -0.100303 -0.132183 -0.89542 -0.139513 -0.4228
0.349404 0.062729 0.257215 0.412474 0.855139 0.31401
0.144828 0.0279421 0.119534 0.203625 0.374634 0.904537
-0.0970101 -0.00357368 0.123562 0.333794 -0.784165 0.523132
-0.19263 0.0401623 0.149022 -0.428481 0.293828 0.85444
0.264892 0.318894 0.322645 -0.993689 0.108099 0.0299432
0.0509916 -0.0590304 -0.120227 -0.0520413 -0.166347 -0.984693
0.250228 -0.010636 0.25447 -0.918595 0.395167 -0.00508313
0.443538 0.201482 0.294301 0.995361 -0.0846226 -0.0457723
0.375718 -0.13355 0.0728629 0.71662 -0.566999 0.406162
-0.389935 0.141885 -0.0165884 -0.995723 0.0654116 0.0652525
-0.198424 0.143194 0.0202483 0.315072 0.404721 -0.858447
0.317648 -0.28658 -0.166559 -0.0649199 -0.722082 0.688755
0.330363 -0.0273341 0.343581 -0.437438 -0.534168 0.723403
0.0430318 0.12438 -0.012503 -0.01128 0.972097 -0.234307
-0.320443 -0.0368535 0.104058 -0.114125 -0.832643 0.541923
-0.26112 0.058793 -0.127486 0.347155 0.243133 -0.905743
0.341356 -0.241434 -0.271994 0.0723072 0.860596 -0.504129
0.0342567 0.00452625 -0.123675 -0.111585 0.44563 -0.888236
0.219036 -0.136463 0.00495116 -0.491691 -0.851079 0.184133
0.41919 0.118592 0.172144 0.980691 -0.195473 0.00596274
-0.286555 0.150835 0.0984935 0.205906 0.968363 0.140979
0.372881 -0.167715 -0.42277 0.932675 -0.0672732 -0.35439
0.377159 0.171108 0.302117 0.097162 -0.740607 -0.664876
0.363026 -0.243192 -0.23541 0.62341 0.172331 -0.762668
0.222438 -0.245475 -0.455197 0.181573 -0.679454 -0.710897
-0.209628 0.0977899 -0.0805142 0.295418 0.651296 -0.698957
0.401088 -0.0481038 -0.121205 0.987374 0.019992 -0.157142
0.277888 0.163121 0.443606 -0.962931 0.0215821 0.268882
0.0246514 -0.117944 -0.0604281 -0.116802 -0.990077 0.0781348
0.212225 0.101784 0.00341398 0.114862 0.887316 -0.446628
0.328412 -0.184722 -0.248672 -0.264402 0.382782 -0.885194
-0.403779 -0.00753753 0.0631778 -0.980863 -0.0986358 0.167868
0.406982 -0.0104732 0.0140188 0.921391 0.286679 -0.262399
0.406324 0.0199753 0.368851 0.946616 -0.319029 -0.0462415
0.265767 0.196492 0.426537 -0.981958 0.188513 0.0148634
0.279324 0.140208 -0.0335257 0.305646 0.710531 -0.633819
-0.16845 0.129728 -0.0102836 0.0840646 0.920916 -0.380587
-0.38197 0.160075 0.0246791 0.310103 0.916945 -0.251095
0.236035 0.0236513 0.251813 -0.991564 0.123155 -0.0404108
0.251779 0.171869 0.129395 -0.805003 0.355836 -0.474711
-0.390878 0.0423239 0.137293 -0.939023 0.315415 -0.13693
0.288868 -0.00401243 -0.327677 0.230797 0.786252 -0.573185
0.390375 -0.0615485 0.0928806 0.966785 -0.154833 0.203356
0.195919 -0.188615 -0.15826 -0.996496 -0.0117993 0.0828026
0.198533 -0.198198 -0.219201 -0.989129 0.112247 -0.0950018
-0.12449 -0.0517144 -0.11315 0.222313 -0.493805 -0.840674
0.281355 0.224947 0.400159 -0.577489 0.0949757 -0.810855
0.401678 -0.0307905 -0.141649 0.99535 -0.0876967 -0.0398566
-0.375044 0.0192666 -0.0255262 -0.916891 0.385428 -0.103714
-0.0408613 0.00308108 0.128595 0.205568 -0.254849 0.944878
0.369786 -0.0491027 0.277435 0.577813 -0.806395 0.125934
0.261794 0.0371261 0.410454 -0.994538 0.093977 0.0454189
0.264274 0.0978382 -0.0688398 -0.506028 0.847879 -0.158227
0.0901978 0.0896244 -0.00886655 0.010589 0.938598 -0.344851
-0.300794 -0.052099 0.0749484 -0.155389 -0.818019 0.553805
-0.392855 -0.082417 -0.0636848 -0.571409 -0.819768 -0.0383578
0.380943 -0.0964166 0.189754 0.519164 -0.680277 0.517389
0.265789 0.273809 0.277173 -0.964928 -0.17308 0.197378
0.230991 -0.115946 0.138566 -0.463758 -0.549615 0.694875
0.250773 -0.0550816 -0.393524 0.116253 0.858047 -0.500241
0.264343 0.179378 0.404317 -0.940978 0.281791 -0.187493
0.24177 0.072167 0.112319 -0.731497 0.65742 0.180864
0.257051 0.141143 0.442011 -0.899425 0.255831 -0.354381
0.36442 0.243514 0.193332 0.357432 0.719995 -0.594852
0.193037 -0.129457 -0.0124342 -0.359365 -0.826995 0.432362
-0.400957 0.0171033 0.107457 -0.908208 -0.0706353 0.412516
0.300675 -0.18238 -0.363344 -0.478645 0.287352 0.829656
0.316808 -0.0531542 -0.369856 0.13365 0.915216 -0.380154
0.32977 -0.0903812 0.212286 0.26702 -0.925594 0.268283
-0.1018 0.0849271 0.118235 0.14363 0.158927 0.976787
0.21073 -0.127358 -0.208029 -0.990091 -0.0858523 0.111126
0.256708 0.147366 0.172907 -0.990976 0.132685 0.0190278
0.185476 -0.126981 -0.073823 -0.526161 -0.530531 -0.664598
0.340773 -0.125831 -0.292993 -0.243299 -0.863485 0.441814
-0.325403 0.119625 -0.0744834 -0.343521 0.919747 -0.189892
0.238258 0.13684 0.0559834 -0.978333 0.20684 -0.00908295
0.326386 0.303968 0.333414 0.173558 0.982453 0.0682937
0.21776 -0.201277 -0.0335135 -0.561841 -0.704555 0.433517
0.363513 -0.152014 -0.26521 0.938124 -0.334842 0.0883397
0.106272 0.0965142 0.0026694 0.0147351 0.97096 -0.238788
-0.111942 -0.109126 -0.0247172 -0.552211 -0.828238 0.0953158
0.307293 0.101093 -0.114369 -0.345973 0.926065 -0.150686
0.361764 -0.195756 -0.373217 0.96814 0.166508 -0.187031
0.314405 -0.140421 -0.485281 0.396555 0.336615 -0.854069
-0.281615 0.104664 0.116383 0.340635 -0.0702927 0.937564
-0.185513 0.142945 0.0517083 0.103418 0.979337 0.173794
-0.149456 0.0973536 -0.0554228 0.0297551 0.891237 -0.45256
0.344627 -0.347191 -0.348892 0.638913 -0.593399 0.489559
0.250725 0.0571846 0.212784 -0.987371 0.0919531 0.12901
0.342273 0.276055 0.232608 -0.153197 0.923024 -0.352926
0.220523 -0.0183657 -0.288957 -0.87517 0.481106 -0.0511419
0.282814 0.123317 -0.0122762 -0.589064 0.801929 0.0995676
0.347084 -0.27557 -0.407438 0.777605 -0.50066 -0.380354
0.220938 -0.0198909 -0.296644 -0.861008 -0.354765 0.364427
-0.145073 0.0387084 -0.141826 -0.154674 0.605074 -0.781
0.387215 0.174454 0.0862197 0.83222 0.0874561 -0.547504
0.375519 0.190072 0.107856 0.789103 0.399983 -0.466186
-0.175839 -0.0578701 0.0536197 0.0129175 -0.912293 0.409335
0.223582 -0.339527 -0.246999 -0.146518 -0.830396 0.537563
-0.376157 0.142486 -0.000220909 -0.394665 0.831019 -0.391979
0.376158 -0.15772 -0.0632662 0.935035 -0.349415 0.0601608
0.377728 -0.149753 -0.137969 0.994048 -0.104127 -0.0320432
0.334106 0.261561 0.20141 0.212993 0.696154 -0.685568
0.39686 -0.157261 -0.0337027 0.851473 -0.269652 0.449758
0.244594 0.040758 0.258203 -0.95519 0.257763 -0.145499
0.376795 0.302065 0.344105 0.277336 0.929622 0.242667
0.42785 0.0769081 0.422277 0.921819 0.261626 0.286009
-0.145996 -0.0284668 0.106421 -0.0579319 -0.827792 0.558036
0.311226 0.294848 0.284339 0.133097 0.859424 -0.493635
0.0930506 -0.117559 -0.0104967 0.0741458 -0.994745 0.0706098
0.279226 0.234005 0.299442 -0.985486 0.0817331 0.148783
0.27916 -0.262867 -0.112491 -0.208279 -0.82689 0.522372
0.0358634 0.111749 0.0742896 0.392025 0.875979 -0.281029
-0.0799139 -0.033344 -0.119212 0.124286 -0.629906 -0.766662
0.252857 -0.170791 -0.360674 0.0289894 -0.540652 0.840747
-0.0956299 -0.061089 0.0400363 0.260542 -0.914978 0.308113
-0.411602 -0.0663665 -0.0469928 -0.969654 0.151442 -0.191928
0.256706 -0.0666083 0.259547 0.112265 -0.880804 0.459979
0.381675 -0.0393097 -0.255166 0.823726 0.4586 -0.333408
-0.0068662 0.0804184 -0.0774073 0.316762 0.705482 -0.634001
0.285524 -0.229234 -0.0551824 -0.455573 -0.640434 0.618301
0.0415181 0.0593234 -0.0788278 0.697992 0.605746 -0.381942
0.1881 -0.271647 -0.456206 -0.0285204 -0.520621 -0.853311
0.223608 -0.142852 0.0711844 -0.407956 -0.74673 0.525325
0.245259 -0.0651606 0.174794 -0.990251 0.0868209 0.108925
0.413379 -0.0562006 0.145603 0.981434 0.00993151 -0.191544
0.32657 -0.232251 -0.458926 0.569299 0.16581 -0.805237
0.22879 -0.0930819 0.198401 0.463413 -0.882305 -0.0823761
0.226266 -0.132325 -0.194911 -0.990935 0.134274 0.00424262
0.0245812 -0.104639 0.0348462 -0.140409 -0.829875 0.539993
-0.219038 0.0822284 -0.0809872 0.155206 0.827375 -0.539779
-0.00756649 0.114989 0.0731678 0.123057 0.961296 0.246508
0.278383 0.00517311 0.374001 -0.0782635 -0.88026 0.467993
-0.310806 -0.0951291 -0.0125617 -0.00332172 -0.999492 -0.0317071
-0.314138 0.103448 0.128002 0.291219 0.320154 0.901495
0.412192 0.0979084 0.00609686 0.994823 0.0659189 0.0773433
0.318987 -0.112523 -0.450547 0.57138 0.582648 -0.577968
-0.228508 0.102921 -0.0578824 -0.0973385 0.927718 -0.360368
-0.38589 0.0934807 -0.00893592 -0.604897 -0.668802 0.432208
0.286378 0.182896 0.0651315 0.215913 0.787298 -0.577532
-0.281844 -0.0711586 0.0376206 -0.117066 -0.865776 0.486547
0.0802507 -0.0555161 -0.142793 -0.223603 -0.20734 -0.952372
0.396841 0.27744 0.276119 0.735976 0.56195 -0.377561
0.195824 -0.298418 -0.183352 0.394486 -0.87745 0.272877
0.330772 0.31342 0.297988 -0.472244 0.866557 0.161448
0.344201 0.262142 0.414553 -0.201917 -0.123344 0.971605
0.216737 0.104709 0.00714072 -0.43493 0.831007 -0.346791
0.288483 0.244 0.412704 0.141739 0.421615 0.895629
0.237803 0.0920203 -0.0982594 -0.0944179 0.982577 -0.160084
0.104529 -0.0813189 -0.113039 -0.0204798 -0.390722 -0.920281
0.26018 -0.180979 -0.488495 -0.177831 -0.19227 -0.965095
0.283558 -0.0544975 -0.379044 0.14179 0.852248 -0.503555
0.243386 -0.249847 -0.0737793 -0.693354 -0.596966 0.403598
0.183858 0.0831639 -0.0209984 0.00447583 0.92278 -0.3853
0.0252262 0.121745 0.0584402 0.140978 0.864601 0.482276
-0.134268 -0.0509177 0.0826214 -0.000656152 -0.891559 0.452905
0.358851 0.0457624 -0.178081 0.278965 0.89153 -0.356865
0.22363 -0.0373726 -0.227528 -0.88364 0.437008 -0.167939
-0.183669 -0.0958307 -0.0381227 -0.135148 -0.826956 -0.545783
0.281086 -0.358001 -0.388681 -0.287608 -0.933831 -0.212701
-0.36582 0.121992 -0.0377546 0.336311 0.636346 -0.694232
0.310407 0.114005 -0.0738534 -0.263631 0.926899 -0.267127
0.374827 0.280583 0.303345 0.5332 0.794242 -0.291336
0.233432 -0.0598297 0.272069 0.0863708 -0.881551 0.464121
0.406925 0.0614237 0.234932 0.988821 -0.122731 0.0846728
0.100184 -0.138259 -0.0344429 0.0589317 -0.998262 0.00049163
-0.0481978 0.00621744 -0.1243 -0.323902 0.456576 -0.828629
0.240673 -0.0854036 -0.455774 0.285094 0.710464 -0.643399
-0.0771219 0.110484 -0.0459981 -0.11765 0.945134 -0.304761
0.255363 0.062107 0.379758 -0.877134 0.233011 -0.419931
0.364767 -0.219436 -0.103325 0.149247 -0.494144 0.856474
0.287363 0.167697 0.256408 -0.278418 -0.710059 0.646761
-0.183213 0.0579144 -0.130663 0.121609 0.341211 -0.932087
-0.245168 -0.0156157 0.12712 -0.0752682 -0.520234 0.8507
0.295998 -0.247778 -0.115438 0.436214 -0.899506 -0.0246265
0.0266185 0.0256748 -0.112352 0.11048 0.463996 -0.878921
0.239441 -0.351095 -0.282911 -0.206313 -0.779554 0.59138
0.256749 0.182184 0.164806 -0.946681 0.259975 -0.190283
0.255397 -0.275446 -0.121178 0.00343095 -0.904381 0.426712
0.208382 -0.16227 -0.434838 -0.994973 0.0847439 0.0533502
0.37119 -0.19611 -0.220203 0.964522 0.219281 -0.147011
0.214749 0.00470294 0.142367 -0.364456 0.377434 0.851302
0.388295 0.142818 0.239206 -0.191135 -0.334563 0.922786
0.196592 0.0332778 0.120208 0.569324 -0.350292 0.743751
0.369071 -0.14045 -0.375969 0.998004 0.0290379 -0.0560872
0.00472851 0.0235716 -0.146602 0.268867 0.191396 -0.943969
0.0050746 0.106683 0.0257024 0.538981 0.838354 0.0816168
0.375054 0.18029 0.423906 0.403263 0.448045 0.797894
0.31917 -0.180291 -0.484113 0.175283 -0.109426 -0.978418
0.243505 0.107412 0.0583165 -0.381735 0.821409 0.423753
0.357244 -0.313461 -0.330135 0.896612 -0.423534 0.129249
0.199981 -0.114308 -0.477131 0.551835 0.0428996 -0.832849
0.257481 -0.376983 -0.368279 0.0788005 -0.935239 -0.345136
0.416111 0.0465936 0.326963 0.995764 0.00763765 -0.0916319
0.151748 0.0578468 -0.0683229 -0.029852 0.899132 -0.436659
0.257036 -0.326365 -0.421845 0.204786 -0.606533 -0.768232
0.137237 -0.134169 -0.0337737 -0.516575 -0.838386 0.173951
-0.396299 -0.0389694 -0.0122822 -0.992077 -0.0345841 0.120776
0.405485 0.0422781 0.0149763 0.983745 -0.0333869 -0.17644
0.191281 -0.360881 -0.307163 -0.944903 -0.208075 0.252713
-0.217208 0.140995 0.00943424 -0.278729 0.90584 -0.319005
0.197659 -0.141197 0.0234321 -0.512998 -0.536237 0.670286
0.407081 -0.0320667 0.125947 0.817979 -0.492345 0.297501
0.365656 -0.233152 -0.204101 0.893193 -0.180224 0.411978
0.308602 0.1757 0.0443095 -0.0206762 0.902899 -0.429355
0.227512 -0.220406 -0.321561 0.086078 0.582594 0.808192
0.384504 -0.0985242 -0.141824 0.986805 0.0633022 -0.149025
0.390887 -0.0493202 0.214672 0.730319 -0.586518 0.350185
0.404531 0.0181137 0.399676 0.654254 -0.684054 0.322525
0.223736 -0.29091 -0.432603 -0.696836 0.308298 -0.647589
-0.374724 0.075721 -0.10715 -0.577038 0.524596 -0.62596
0.403588 -0.128232 -0.0471595 0.756027 -0.601405 0.258331
-0.0284483 -0.134664 -0.0415752 -0.154008 -0.97516 -0.1592
0.241388 -0.229946 -0.0638721 -0.143411 -0.861822 0.486513
-0.35966 -0.0756589 -0.0162596 0.382406 -0.914573 -0.131614
0.265516 0.197315 0.301911 -0.0583627 -0.981953 -0.179895
0.272587 0.275183 0.320562 -0.878556 -0.0442359 0.475587
0.373589 0.129816 -0.00532179 0.33683 0.861855 -0.379146
0.367329 0.295337 0.285252 -0.0675686 0.911329 -0.406096
0.236482 -0.331089 -0.256245 0.34306 -0.854058 0.391018
-0.285442 -0.0674006 0.0296618 -0.0813149 -0.87836 0.471032
-0.203314 -0.0531805 0.0786532 0.192187 -0.98131 0.00974574
0.424271 0.174847 0.178693 0.921957 0.356724 -0.15081
0.394925 -0.0687943 -0.176173 0.956226 0.283962 -0.0706955
-0.38772 0.130882 0.0548865 -0.944531 0.209996 -0.252513
0.310238 0.297406 0.278301 -0.091188 0.937015 -0.337177
0.338376 -0.347662 -0.313155 0.744553 -0.660457 0.0971495
0.143901 0.0617587 0.109097 0.484294 0.84932 0.210033
0.344624 -0.318446 -0.29814 0.691232 -0.648196 0.319438
0.157875 0.0227828 -0.120214 -0.0249563 0.581165 -0.813403
-0.110859 0.071965 0.123185 0.250625 0.941327 0.22603
0.189955 0.0541481 0.105197 0.071593 0.210624 0.974942
0.389113 -0.191356 -0.228078 0.980246 -0.168367 0.10378
0.360331 0.169878 0.450807 0.257562 0.0600765 0.964392
0.22636 -0.0029666 -0.262054 -0.921437 -0.149442 0.358638
0.350903 -0.13506 -0.406114 0.903522 0.326226 -0.277894
0.212851 0.0445611 -0.0913693 -0.275168 0.85766 -0.434398
0.425628 0.0811341 0.33062 -0.173579 0.49491 -0.851431
-0.117914 0.119792 -0.0173624 0.0406591 0.926608 -0.373824
-0.389973 0.0859802 -0.0576078 -0.692073 -0.637317 0.338912
0.374866 0.267397 0.395756 -0.00411864 0.64527 0.763944
0.423936 0.112928 0.348175 0.993024 -0.105553 -0.0525504
0.284215 -0.214705 -0.473599 -0.0344389 -0.821698 -0.568881
0.223954 -0.189365 -0.492167 -0.101481 -0.308529 -0.945786
0.204632 -0.242977 -0.162665 -0.993467 0.113869 0.00752178
0.333613 -0.160827 -0.354328 -0.310865 0.179619 0.933328
-0.284092 0.069518 0.146457 0.0490993 0.376658 0.92505
0.360776 0.125905 0.235093 0.506541 -0.0821149 0.858297
0.260019 -0.0558257 0.284452 0.271373 -0.956619 0.106007
0.254954 0.194176 0.148319 -0.644072 -0.511347 0.568943
0.220027 -0.00116749 -0.23383 -0.953037 0.302138 -0.0208193
0.361025 -0.0828338 -0.317499 0.831048 0.458417 -0.31498
0.227738 -0.0337645 -0.289336 -0.460443 0.464605 -0.756396
-0.379228 -0.0265704 -0.042393 -0.975829 0.00253084 0.218519
0.364 -0.224455 -0.111569 0.457168 -0.791439 0.405736
0.357572 -0.220815 -0.445758 0.791843 -0.549038 -0.267474
0.21783 -0.0765901 -0.335382 -0.997249 0.0590482 0.0448086
0.203683 -0.349895 -0.393678 -0.065084 -0.722373 -0.688434
0.055008 0.0378315 -0.121489 -0.588432 0.744265 -0.315938
0.202924 -0.277375 -0.333351 -0.743524 -0.336907 0.577638
0.421068 0.148621 0.108021 0.894746 0.274399 -0.352327
0.065775 -0.096612 0.0453791 0.209659 -0.909748 0.358333
0.342867 -0.201608 -0.0419575 0.707136 -0.657979 0.258887
0.330492 0.19463 0.0860001 0.129118 0.856723 -0.499354
0.370621 0.123753 0.472609 0.153397 0.604934 0.781361
0.241759 -0.0327163 0.231031 -0.995119 0.0471885 0.0866732
0.340665 -0.345358 -0.350577 0.737295 -0.565725 -0.369257
0.426498 0.154757 0.193436 0.981329 -0.138992 0.132946
0.385867 -0.200539 -0.177558 0.925296 0.279597 -0.256228
0.330118 0.211974 0.107447 0.050067 0.885955 -0.46106
-0.213247 -0.0491425 -0.105776 -0.0705593 -0.402196 -0.912831
0.287387 -0.0694176 0.227887 -0.469859 -0.321611 0.82207
0.237572 0.0200885 0.137751 -0.35869 -0.200009 0.911777
0.421519 0.155933 0.165067 0.961528 0.211128 -0.175751
0.252244 -0.0381183 0.155774 -0.817081 -0.0820277 0.570658
0.321474 0.266949 0.390121 0.0846831 0.553846 0.828302
0.255661 0.149243 0.199346 -0.900717 0.217903 -0.375803
-0.361728 -0.0171707 0.120748 -0.276363 -0.489546 0.827024
0.38822 -0.0662058 0.0568795 0.988418 -0.149337 0.0269681
0.36354 0.253698 0.204839 0.068436 0.90517 -0.419504
0.370344 0.0760131 -0.116834 0.633417 0.672207 -0.383303
0.0634387 -0.00973521 -0.139478 0.292874 -0.398142 -0.869315
0.185831 -0.183135 -0.485499 -0.98062 0.0964798 0.170519
0.392408 0.242379 0.206916 0.264854 0.959386 -0.0971112
0.378837 -0.0531464 -0.283382 0.994971 -0.0955159 0.030151
-0.212032 0.0959702 -0.0847847 0.187932 0.723009 -0.664785
0.3786 -0.0223901 0.307059 0.741607 -0.670676 0.0145955
-0.158857 0.0477308 -0.110699 0.175966 0.368645 -0.912763
0.246949 0.10583 0.220439 -0.373547 0.483492 -0.791643
0.108628 -0.116012 0.00210757 0.172007 -0.881877 0.438984
0.00278099 -0.0356039 -0.125571 -0.445888 0.298226 -0.843946
0.424062 0.212077 0.261715 0.995281 -0.0183131 -0.0952862
0.0797365 -0.131911 -0.0560069 -0.384122 -0.91651 0.111625
0.391273 0.0652526 0.299826 0.233552 0.827069 -0.511284
0.30458 0.049169 -0.1999 0.0604906 0.889383 -0.453143
-0.351385 -0.0286757 0.0852274 -0.132957 -0.852344 0.505798
0.385603 0.0816583 -0.0593899 0.384603 0.896621 -0.219432
0.375809 0.236798 0.401013 0.662162 0.311016 0.68177
-0.100481 0.0712543 -0.116124 -0.155443 0.840192 -0.519534
-0.342005 0.145979 0.00316716 0.319832 0.67393 -0.665977
0.25509 0.229862 0.11901 0.172028 0.740253 -0.649948
0.069722 -0.00421158 -0.143604 0.248786 0.1172 -0.961441
-0.104558 -0.0630416 0.088465 0.598757 -0.75829 0.25785
-0.0912969 0.0261902 0.142246 0.150001 -0.490842 0.858239
-0.327537 -0.0501539 0.0708369 -0.300395 -0.712202 0.634454
0.252211 -0.242818 -0.337229 0.37521 0.907418 0.189234
0.213577 -0.104597 -0.417743 -0.997236 0.0026934 0.074249
0.0584136 -0.0611881 0.11314 0.0548509 -0.708007 0.704072
0.259831 0.0733916 0.415403 -0.977697 -0.00694718 0.209907
0.361837 -0.0249226 0.319139 0.575232 -0.745077 0.337591
0.249522 0.125204 0.214667 -0.979816 0.161162 -0.11827
0.192742 0.0372014 -0.108207 0.51019 0.172077 -0.842672
0.357825 0.0762294 0.482774 0.154552 -0.276536 0.948494
0.182796 -0.244439 -0.453114 -0.763708 -0.592956 0.255251
0.0313825 -0.125494 -0.0725652 0.155078 -0.681079 -0.715599
-0.0123613 0.132174 0.0559661 -0.170404 0.950213 0.26088
-0.280811 0.120309 0.0946722 0.0993949 0.71855 0.688336
0.214592 -0.112556 -0.0970326 -0.269637 -0.557789 -0.784964
0.223561 -0.0974876 0.0967899 -0.449913 -0.82854 0.333317
0.205407 -0.228233 -0.336109 -0.974822 -0.0202436 0.222063
0.0476776 0.0188718 -0.12255 0.0226666 0.401716 -0.915484
0.31195 -0.234911 -0.267172 -0.140067 0.948313 -0.284751
0.209043 -0.294694 -0.421504 0.0484762 -0.233145 -0.971233
-0.260835 0.136165 -0.00759394 -0.302847 0.953002 -0.00844215
0.259312 -0.244119 -0.467364 0.171755 -0.458451 -0.871965
0.390417 -0.06684 -0.236056 0.980647 -0.187315 0.0569606
0.222704 -0.168869 -0.247211 -0.0722428 -0.258096 -0.963414
-0.0291622 0.0397053 0.131744 0.230473 0.109206 0.966931
-0.23611 0.109199 0.116263 0.270217 0.451442 0.850401
-0.338537 -0.0427044 -0.107731 0.244795 -0.620777 -0.744789
0.347576 -0.268547 -0.345453 0.95661 0.0218871 -0.290548
0.283671 -0.318448 -0.222485 -0.223418 -0.488184 0.843659
0.414272 0.297236 0.359255 0.0484626 0.445195 0.894121
-0.314683 0.0652647 0.14628 0.104055 0.414024 0.904299
0.415873 0.179739 0.41718 0.550989 0.34073 0.761784
0.290824 -0.132586 -0.323304 -0.26271 -0.887355 0.378926
0.409431 0.0168903 0.0861 0.681551 0.382062 -0.624113
0.39693 -0.014902 0.00531063 0.996666 -0.0662652 -0.0476039
0.381194 0.0900689 0.225887 -0.204085 0.891575 0.404281
0.41352 0.0420574 0.0325835 0.975447 -0.210503 0.0647445
-0.343926 0.0228225 -0.11371 0.0266827 -0.111699 -0.993384
0.223885 -0.0155792 0.164066 -0.803705 -0.244819 0.54233
-0.205352 0.117241 -0.0362437 -0.012378 0.938657 -0.344629
0.238063 -0.223563 -0.257942 0.0329801 0.552756 -0.83269
-0.22703 0.00486379 0.138528 -0.0396127 -0.333762 0.941825
-0.0801277 0.0932219 -0.0599371 -0.106737 0.93755 -0.331071
0.336721 0.175665 0.27536 0.136967 -0.982776 -0.12406
0.381703 0.265779 0.234114 0.34211 0.8511 -0.398234
0.217369 0.000176887 0.184929 -0.967342 0.252873 -0.0174453
0.413106 -0.068392 0.168014 0.97924 -0.1877 -0.0765359
-0.209871 0.117632 0.106398 0.076743 0.817055 0.571429
0.286385 0.150143 0.466718 -0.362021 0.065639 0.929856
0.338217 -0.176721 -0.27372 -0.165749 0.42579 -0.889511
0.276486 0.268646 0.26481 -0.994625 0.0769454 0.0692848
0.0391624 0.0479284 -0.0969504 0.134135 0.719803 -0.681096
-0.185146 -0.00833961 -0.122222 0.0324824 -0.617548 -0.785862
-0.358013 0.00109367 -0.0791824 -0.769388 -0.549534 0.325662
0.297232 0.178301 0.322541 -0.0454819 -0.776088 -0.628982
0.293484 -0.177384 0.0510164 -0.0388652 -0.900951 0.432178
0.35757 0.0522864 0.274644 0.373537 0.92743 0.0185553
0.258716 0.16548 0.147752 -0.995845 0.07235 0.055296
-0.282081 0.156397 0.0786192 0.0854151 0.908901 0.408171
-0.407994 -0.0159021 0.0111177 -0.987726 -0.0965728 0.122762
0.127371 0.0826042 0.0761188 -0.338344 -0.186267 0.922404
0.386723 -0.0641901 -0.0935327 0.989927 -0.125351 0.0658142
-0.353544 0.118923 0.087398 -0.911934 -0.319368 0.257644
0.2301 -0.0814498 -0.416148 -0.465715 0.834129 -0.295531
0.36703 -0.246143 -0.19182 0.868625 -0.470103 0.156502
0.295705 -0.206816 0.016768 -0.129164 -0.862815 0.48874
-0.388762 0.031762 0.0414397 -0.796236 0.577465 -0.180397
-0.170145 0.0219 -0.130441 -0.35228 0.380727 -0.854954
0.283621 0.18781 0.265082 0.516273 -0.84061 0.163819
-0.351572 0.0588594 0.0536288 -0.553808 0.207597 -0.80635
0.287426 -0.351046 -0.295229 0.62019 -0.75742 0.204153
0.408061 0.109696 0.0895349 0.984785 -0.173611 0.00755328
-0.0550653 0.0952673 0.106661 -0.00914639 0.918687 0.394879
0.435404 0.214151 0.341383 0.797357 -0.471441 0.376782
0.00915224 -0.0107049 -0.131347 -0.0702389 -0.0572499 -0.995886
0.0662548 0.0786411 0.111109 -0.251186 0.630334 0.734564
0.369645 -0.228874 -0.329949 0.193001 0.440058 0.876983
0.424539 0.0806943 0.380407 0.947507 -0.303368 0.100985
-0.0557217 0.113347 -0.01371 -0.795432 0.580806 -0.173066
0.0371877 0.0835168 0.0939312 -0.300261 0.672864 0.67609
0.361748 0.0681303 -0.118436 0.750362 0.52303 -0.404224
0.282616 0.221214 0.36883 -0.993616 0.103799 0.0441892
-0.0137647 -0.115039 -0.0115841 0.223992 -0.962438 0.153433
0.151016 0.0895014 0.0836863 0.110771 0.714763 0.690539
0.00511044 -0.124056 -0.0219875 -0.147164 -0.923596 0.353995
0.176345 -0.349339 -0.2859 -0.946067 0.24997 -0.206088
0.213779 -0.182749 -0.066424 -0.920363 -0.143173 0.363913
0.379442 0.144935 0.0133333 0.256127 0.891486 -0.373701
-0.135373 0.0999699 0.115519 0.177251 -0.0907607 0.979972
-0.17074 0.128942 0.0782498 -0.353099 0.69587 0.625369
0.380914 -0.062738 -0.238196 0.951468 0.167055 -0.258461
0.360871 -0.198501 -0.391366 0.952004 -0.208491 0.224099
0.304666 -0.159172 -0.276732 0.199293 -0.27384 -0.940901
0.237691 0.117474 0.358858 -0.631007 -0.569485 0.526799
0.26462 0.201258 0.244636 -0.994116 0.0919569 0.0572524
0.313086 -0.271616 -0.145853 0.30654 -0.859183 0.409679
0.354029 -0.189486 -0.0160369 0.65052 -0.696441 0.302976
0.355602 0.135005 0.461662 0.125644 0.467232 0.875162
0.353532 -0.00382523 -0.237978 0.330233 0.886878 -0.3231
-0.144078 -0.017095 -0.128296 -0.176322 0.314519 -0.932732
-0.127789 0.031762 0.150861 -0.140469 0.330785 0.933193
0.337048 0.154431 0.0565499 -0.132263 0.951981 -0.276115
0.297708 0.289931 0.38622 0.0776125 0.82362 0.561806
-0.0807892 0.0815314 0.11166 0.0923481 0.759446 0.643983
0.244398 0.0103863 -0.265181 0.139293 0.871665 -0.469891
0.191785 -0.316321 -0.27981 -0.907691 -0.34878 0.233343
-0.392353 0.0378806 0.110108 -0.450988 0.796212 -0.403307
-0.180739 0.116879 0.108873 0.123234 0.153139 0.980491
0.34366 0.100593 -0.0751693 0.432904 0.760723 -0.483627
-0.296377 0.0188012 -0.127255 -0.187112 0.23603 -0.953561
0.428608 0.247169 0.313642 0.903905 -0.397886 -0.156979
0.371686 0.0756893 0.453167 0.365376 -0.283802 0.886542
0.253884 0.0839612 0.34453 -0.855166 -0.023017 0.517843
-0.151354 -0.0497943 -0.11179 -0.045788 -0.502577 -0.863319
0.381972 0.295712 0.373328 0.452584 0.790131 0.413353
0.373738 -0.243413 -0.342795 0.957605 0.142187 -0.250551
0.381763 -0.178606 -0.21072 0.895669 0.217102 -0.388128
0.40625 -0.0232595 0.085698 0.934375 -0.314863 0.166747
0.271705 -0.365182 -0.287735 -0.435698 -0.593307 0.676871
0.20916 -0.178911 0.000570773 -0.973769 0.206934 -0.0946145
0.329838 -0.197206 -0.0222161 0.148714 -0.867643 0.474427
-0.0183061 0.093666 0.113078 -0.283248 0.856241 0.431998
0.387154 0.00154104 -0.0572502 0.959317 0.0707702 -0.273316
0.350099 0.266382 0.253806 -0.0465262 0.922882 -0.382262
0.10533 0.0514053 0.0982724 -0.177283 0.773466 0.608539
0.26516 0.0980262 0.487839 0.152923 -0.042864 0.987308
0.231304 -0.297476 -0.200396 0.0797229 -0.970206 0.228791
0.260269 -0.134302 0.101795 -0.308822 -0.631383 0.711326
0.351553 -0.137993 -0.460657 0.783866 -0.0215154 -0.620558
0.271025 0.21654 0.420245 -0.458161 -0.289518 0.840398
0.276551 0.139615 -0.0316205 0.263756 0.839825 -0.474475
-0.149794 0.0727705 0.113759 -0.234568 0.781507 0.578122
0.202628 -0.186647 -0.139563 -0.971033 0.0600907 0.231264
0.435168 0.184163 0.205766 0.96041 0.213323 -0.179181
0.411848 0.0740025 0.215276 0.888814 -0.379361 0.257091
0.291861 0.218164 0.11793 0.391801 0.644228 -0.656858
0.199066 -0.192632 -0.184255 -0.951582 -0.17259 0.254372
0.230693 -0.199859 -0.467476 0.118179 -0.385755 -0.915001
0.213683 -0.122547 -0.462429 -0.993736 0.104714 0.039045
0.313745 0.176037 0.445881 0.0379443 0.689977 0.722836
-0.192867 0.136667 0.0811446 -0.672038 0.658573 0.338595
0.367487 -0.164499 -0.176532 0.992376 -0.121256 -0.0220867
0.247746 -0.0149292 0.35287 -0.975865 -0.00860548 0.218205
-0.362616 0.0596769 0.0122609 -0.951484 0.298176 -0.0759489
0.126215 0.117659 0.038057 -0.408238 0.887969 0.211784
0.252992 -0.29398 -0.434679 0.373917 -0.666497 -0.644956
0.279964 -0.151957 -0.329075 -0.250049 -0.797372 0.549249
0.404215 -0.0197488 0.123722 0.988642 -0.0217851 -0.148704
-0.161441 0.13573 0.074289 0.37074 0.900196 -0.228473
0.245717 -0.275861 -0.144557 0.0373689 -0.899661 0.434987
0.268978 -0.0785744 0.217291 0.454814 -0.808128 0.374264
-0.376176 -0.0516384 -0.100788 -0.83289 0.26805 0.484193
0.0193947 0.0405262 -0.125181 0.0219078 0.624951 -0.780357
0.14415 0.0879771 -0.0305216 0.469424 0.665811 -0.579946
0.385028 0.223041 0.18392 0.00447407 0.989837 -0.142139
0.337985 -0.0617034 0.277836 -0.105073 -0.647333 0.75493
0.114363 -0.0782383 0.0726354 0.412646 -0.862702 0.292351
-0.36413 -0.0153319 0.111328 0.65673 -0.609607 0.443943
0.209012 -0.197382 -0.365545 -0.918783 -0.207063 0.3361
0.354282 0.287793 0.366529 0.157638 0.596745 0.786795
-0.247456 0.160534 0.0374414 0.263363 0.799817 -0.539382
-0.123674 0.128737 0.0117815 0.128868 0.895655 -0.42567
-0.202588 0.0306984 0.143744 0.359544 -0.11738 0.925716
0.130368 0.0225966 0.1211 0.260564 -0.233814 0.936716
0.253216 -0.0720486 0.244179 -0.215056 -0.664114 0.716033
0.354732 -0.105438 0.177154 0.487916 -0.790288 0.370651
-0.286742 0.13595 -0.0224845 0.511582 0.582132 -0.631986
0.0818301 -0.0746619 0.0767435 0.0901471 -0.913367 0.397031
0.309253 0.0752861 -0.171793 0.334996 0.786026 -0.519559
0.416588 0.0585081 0.266795 0.98861 -0.148818 -0.0224461
0.213119 -0.193989 0.0203792 0.0215429 -0.93547 0.352749
0.160688 0.0389452 -0.126493 0.658778 0.13838 -0.739501
0.318808 -0.337876 -0.264136 0.516783 -0.839411 0.168296
0.212701 0.0493431 0.108994 0.0445171 0.540012 0.840479
0.375657 -0.217082 -0.379173 0.989552 -0.0620583 -0.130135
0.403929 -0.0464102 -0.033688 0.892498 -0.435364 0.117922
0.329149 0.0809187 0.263526 0.0970011 0.811556 0.576166
0.423948 0.0755435 0.199163 0.978107 -0.0878461 -0.18865
0.367561 -0.236868 -0.38965 0.965292 -0.0145514 -0.260768
0.148487 0.0198576 0.123817 -0.10113 0.574223 0.812429
0.128237 -0.138511 -0.0489611 -0.24102 -0.828905 -0.504804
-0.319019 0.0775135 -0.098371 -0.14551 0.711725 -0.687222
0.20815 -0.0967352 -0.333313 -0.948365 0.124196 -0.291855
0.239001 -0.375717 -0.359435 -0.208327 -0.974808 -0.0796872
0.223172 -0.294516 -0.430468 0.0598821 0.141377 -0.988143
0.24911 0.0904284 -0.130755 1.1705e-05 0.893731 -0.448602
-0.323703 -0.0838322 0.000161877 0.0222462 -0.912842 0.407705
0.430201 0.171002 0.34976 0.989595 -0.0814375 -0.118617
0.0905286 -0.0164629 -0.134337 -0.0293113 -0.0238721 -0.999285
0.203057 0.0145161 -0.109549 0.238979 0.719417 -0.652172
0.208173 -0.211749 -0.127683 -0.960676 -0.259189 0.0996123
0.345006 -0.242355 -0.0674883 0.325157 -0.476505 0.816833
-0.137228 0.133708 0.0254978 0.329942 0.939181 -0.095281
0.240311 0.0457766 0.361143 -0.819456 -0.0129873 0.572995
0.25874 0.257074 0.275481 -0.990388 0.0932667 0.102145
0.367441 -0.20587 -0.0861919 0.909905 -0.407039 0.0799539
-0.228192 -0.0929545 -0.0138343 0.0915351 -0.995605 0.0198179
0.205411 -0.152823 -0.220553 -0.834806 0.0785392 0.544914
0.121228 -0.0602006 -0.122927 -0.295396 -0.653949 -0.696486
0.36179 0.279932 0.261504 -0.132204 0.930273 -0.342221
0.280777 -0.371407 -0.334343 0.23411 -0.958638 -0.161879
0.343184 0.122432 0.467541 -0.52528 0.690314 0.497541
0.237837 0.0836104 -0.0625174 -0.95924 0.277913 -0.0512163
0.248643 -0.00133091 -0.302095 0.0999516 0.796903 -0.595781
-0.406786 -0.0407774 -0.00712585 -0.986658 0.0788988 0.142408
0.324949 0.0142473 -0.239424 -0.849611 0.464214 -0.250331
0.271086 0.0674445 0.293886 0.064998 0.983912 0.166413
0.217533 -0.149161 -0.130149 -0.656663 -0.505731 0.559491
-0.349656 -0.0563659 0.0380669 -0.276679 -0.799214 0.533579
0.103945 0.0963855 0.107656 0.654743 0.590122 0.4723
0.264603 0.00572395 -0.252188 0.13663 0.825007 -0.548357
0.287873 -0.300791 -0.202057 -0.0753521 -0.878266 0.472199
0.305869 -0.361587 -0.383741 0.31556 -0.900308 -0.299777
0.2603 0.203768 0.345561 -0.946961 0.281446 -0.155089
0.0703857 0.0806395 0.116795 0.211256 0.337613 0.917272
0.016235 -0.0880194 0.0693958 -0.186517 -0.852617 0.488115
0.347555 0.0631239 0.295 0.0455097 0.972872 0.226823
-0.358975 0.0600284 0.142867 0.0513295 0.0951506 0.994139
0.153151 0.101384 0.0176058 -0.269995 0.962858 0.00247961
0.103557 0.106247 0.0259231 0.232705 0.946344 -0.224234
0.106749 0.0854495 -0.0321262 0.287397 0.821652 -0.492231
0.312437 0.126472 0.341288 -0.179847 0.175266 -0.967955
0.399858 0.0826058 0.148679 0.595248 -0.301182 0.744963
-0.396252 0.035827 -0.112317 -0.481504 -0.740182 0.469345
0.195852 -0.148053 -0.380251 -0.976181 -0.12578 0.176778
0.277361 0.270502 0.221045 -0.861054 0.391458 -0.324571
0.275533 -0.280796 -0.153115 0.1613 -0.978344 0.129714
-0.297561 -0.010516 0.116536 0.0241994 -0.78581 0.617995
-0.078796 -0.0800617 0.0466085 -0.0749396 -0.879826 0.469352
0.380848 -0.0775735 -0.278968 0.428334 0.349458 -0.833312
-0.0580922 -0.116441 -0.00525674 -0.512409 -0.791624 0.332818
-0.288623 -0.00408028 -0.115535 -0.387186 -0.00643619 -0.921979
0.412649 0.151009 0.435286 0.852173 0.190826 0.487223
0.182399 -0.371129 -0.377054 -0.0746516 -0.921861 -0.380263
0.260075 0.0261704 -0.253749 0.0934951 0.872678 -0.479261
0.199366 -0.222491 -0.154645 -0.925035 0.21942 -0.310104
0.370325 -0.136821 0.108909 0.419716 -0.781324 0.461921
0.422295 0.125672 0.384695 0.965554 -0.0280673 0.258686
0.206594 -0.121595 -0.320365 -0.865973 0.0364421 0.49876
0.403685 0.0151489 -0.0184554 0.99487 -0.0385974 -0.0935076
-0.391291 0.0810666 -0.00905458 -0.530241 -0.732345 0.427218
0.0991755 0.00469189 0.122824 0.360666 -0.513743 0.778452
0.309242 0.156643 0.458594 -0.239166 0.426705 0.872194
0.194085 -0.0853386 -0.128361 -0.148149 -0.704695 -0.693871
0.345244 -0.183871 0.00706376 0.662928 -0.713664 0.226296
-0.0147325 -0.0600735 0.0841099 0.0550563 -0.937906 0.342493
-0.0953683 0.0501724 0.142513 -0.148689 0.808684 0.569141
-0.235061 -0.0727851 0.0265112 -0.101758 -0.871205 0.480258
-0.124474 -0.0877889 0.0116912 0.298887 -0.954015 -0.0228525
-0.255765 -0.0244642 -0.116402 -0.00945834 -0.736686 -0.676169
0.266813 0.119316 0.357705 -0.0295009 0.198029 -0.979752
0.0975703 -0.0432391 0.128137 0.0193477 -0.432041 0.901646
0.385033 -0.0411108 -0.221542 0.993683 0.112178 0.00332873
0.31656 -0.360926 -0.362963 0.569823 -0.803849 -0.170672
0.308595 0.149475 0.341965 -0.0436087 0.0524348 -0.997672
0.289191 -0.162869 0.076471 -0.222503 -0.844688 0.48682
0.244369 0.029184 0.348314 -0.977558 0.204022 -0.0524869
0.377665 -0.0643148 0.232036 0.205047 -0.774592 0.5983
0.208235 -0.142931 -0.134073 -0.826415 -0.100837 -0.553959
0.278701 0.171454 0.377807 -0.986181 0.164218 -0.0218956
0.24117 0.101052 0.38539 -0.908801 0.354626 -0.219822
0.209295 -0.174795 -0.0297604 -0.818182 -0.446353 0.362418
0.373128 0.0380919 -0.148483 0.777181 0.537643 -0.327002
-0.298073 0.122643 -0.0408317 -0.0421522 0.926028 -0.375095
-0.129023 -0.0591592 0.103111 0.0288447 -0.891444 0.452212
0.0309032 -0.118678 -0.0474186 0.0723123 -0.993856 -0.083788
0.227378 -0.161457 -0.349425 0.0362289 -0.406003 0.913153
0.395576 -0.0232078 0.277173 0.810619 -0.523189 0.263003
-0.372221 0.0424966 -0.0122667 -0.857814 -0.41331 0.3055
0.394831 0.0640386 0.274375 -0.254277 0.959178 0.123774
-0.110058 -0.11398 -0.0588617 0.0131545 -0.953667 -0.300575
0.199527 -0.0250407 0.130419 -0.0608073 -0.113476 0.991678
0.312473 -0.352921 -0.404749 0.235553 -0.259139 -0.936676
