ply
format ascii 1.0
comment Created by Open3D
element vertex 128
property double x
property double y
property double z
property double nx
property double ny
property double nz
end_header
0.0748311 0.190184 0.310923 -0.655707 -0.553386 0.513626
-0.113743 0.130613 0.0117693 0.431609 0.642513 -0.63316
-0.362624 0.0384834 -0.280209 0.55227 0.412181 -0.724641
0.188623 -0.162521 -0.10763 0.29295 0.734314 -0.612342
0.251718 -0.301272 -0.247037 0.444638 0.459895 -0.768631
-0.428648 0.113316 -0.239032 -0.400511 0.627563 -0.667649
0.287543 -0.249312 -0.0111513 -0.495635 -0.567399 0.657575
0.238115 -0.0922226 0.0366288 0.0346811 -0.811812 -0.582888
-0.247112 0.0596033 -0.0837875 -0.137578 -0.818883 0.557227
-0.338379 -0.0396924 -0.344927 0.232583 0.824405 -0.516005
-0.0367279 -0.172668 -0.194867 -0.402161 -0.512259 0.758853
0.288112 0.14858 0.222978 0.211926 0.839856 -0.49973
0.297708 -0.0255183 0.0980766 -0.224736 0.92886 -0.294471
0.0299003 0.128263 -0.0313963 -0.316019 0.801171 0.50819
0.389907 0.114503 0.249963 0.323618 0.794087 -0.514487
-0.0468071 0.141641 0.123972 -0.141664 -0.723385 0.675755
0.0696302 0.0418563 -0.12481 0.533726 0.543906 -0.647536
-0.124412 0.332362 0.336955 -0.29983 -0.734559 0.608708
0.00820584 0.340982 0.377823 0.0500303 0.720946 0.691183
-0.0681481 -0.294289 -0.411353 -0.317328 -0.492845 -0.810189
0.0703702 -0.238732 -0.269779 -0.128927 0.683787 0.718201
0.411572 -0.251941 -0.106334 0.450113 0.605048 -0.656746
-0.144248 -0.127698 -0.314573 0.572828 0.795088 0.199255
0.182435 -0.00525685 0.0502226 0.358827 0.797166 -0.48556
-0.187457 0.243888 0.18982 0.410297 -0.902833 -0.128646
-0.0305312 -0.0819007 -0.102726 -0.602524 -0.455597 0.655283
0.188311 0.240138 0.255767 0.348798 0.713021 -0.608228
-0.395915 0.308779 -0.00532671 -0.772771 0.632308 -0.054877
0.191646 -0.385576 -0.198385 -0.594787 -0.502766 0.62726
-0.305048 0.237113 -0.0297032 0.374744 0.67296 -0.637723
0.336977 0.0663112 0.351261 -0.415896 -0.639613 0.646472
-0.442831 -0.00324298 -0.238332 -0.733599 0.151218 -0.662544
-0.336668 0.113104 -0.171768 -0.00306679 0.750695 -0.660641
-0.0307596 -0.0884554 0.0631527 0.711622 -0.631287 0.308337
-0.331698 -0.0079698 -0.168546 0.903989 0.0167925 0.427226
-0.466877 0.0906663 -0.122241 -0.795197 -0.460692 0.394239
0.321103 -0.173254 -0.0786298 -0.697375 0.716352 -0.0225342
-0.177113 0.191064 0.0825197 -0.364403 -0.662824 0.654122
-0.272255 -0.127626 -0.398241 -0.14936 0.235478 -0.960334
0.0507901 -0.390528 -0.307316 0.0476582 -0.821683 -0.567949
0.164451 0.0510545 0.150631 -0.356312 -0.681308 0.639423
-0.448981 0.211287 -0.0773692 -0.94265 0.325753 -0.0727761
0.326323 0.0468216 0.316104 -0.11407 -0.750341 0.651134
-0.292908 0.207441 0.0738313 0.771406 -0.604625 -0.198397
-0.254809 -0.0409564 -0.29617 0.324862 0.725933 -0.606206
0.207123 0.109821 0.300477 -0.293289 -0.751662 0.59075
0.453932 -0.101917 0.195148 0.963263 -0.121489 0.23951
-0.0107777 0.340574 0.243632 0.174205 0.791006 -0.586483
-0.363247 0.316733 0.158655 -0.816646 0.212247 0.536694
0.305316 -0.239858 -0.154127 0.341336 0.682365 -0.646427
-0.336935 0.297678 0.167873 -0.190267 -0.777592 0.59929
-0.0205497 0.00736281 -0.00977953 -0.484057 -0.453099 0.748592
0.152895 0.3132 0.359254 0.285032 0.574499 0.767273
-0.218656 0.0958658 -0.0820196 0.501544 0.602818 -0.620535
-0.153607 0.182186 0.104849 -0.288688 -0.777561 0.558622
-0.302578 -0.100459 -0.211809 -0.275261 -0.767908 0.578402
0.194054 0.212441 0.399328 0.0856297 -0.144268 0.985827
0.331165 -0.151226 0.0998887 -0.938483 -0.212897 0.27189
-0.40461 0.179914 0.0204951 -0.613334 -0.473586 0.632089
0.169992 -0.197014 -0.0941236 -0.335266 -0.672545 0.659757
0.180878 0.148888 0.213784 -0.963829 0.233693 -0.128143
-0.0371707 0.10507 0.0913549 -0.50853 -0.559334 0.654632
-0.307517 -0.204657 -0.330365 -0.149731 -0.955582 0.253857
0.337002 -0.153696 0.121026 -0.445862 -0.592926 0.670556
-0.210044 0.294044 0.0813141 0.750887 -0.0509335 -0.658464
0.0881027 0.303183 0.265286 0.384066 0.658237 -0.64747
0.0848261 0.310385 0.263172 0.507242 0.614684 -0.604044
-0.305093 0.188808 0.0822364 0.813199 -0.546937 -0.198914
-0.313811 0.357033 0.0584086 0.329946 0.713698 -0.617877
-0.353942 0.0829801 -0.0689947 0.549227 -0.673102 0.49526
0.353691 -0.100832 0.0132855 -0.475626 0.744204 -0.468978
-0.392446 -0.106724 -0.294065 -0.751238 -0.18044 -0.634888
0.188817 -0.392337 -0.220698 0.0203958 -0.993172 0.114866
0.00241178 0.306985 0.388702 -0.220511 -0.0543735 0.973868
0.292216 -0.37303 -0.144729 -0.00172567 -0.925363 0.379079
0.48002 -0.0960536 0.106726 0.897005 0.354427 -0.264128
0.0694249 0.111086 0.155741 0.0936608 -0.241204 0.965944
0.317768 0.0629671 0.163738 -0.758906 -0.0324432 -0.650391
0.450848 -0.206428 0.10843 0.917737 -0.360617 0.166479
-0.342863 0.121091 -0.0567926 0.917327 -0.392431 -0.0671541
-0.198764 -0.259217 -0.377883 -0.500973 -0.635281 -0.587745
0.288486 -0.0332221 0.100575 -0.57852 0.752444 0.314869
0.0154831 0.122248 -0.152595 -0.854103 -0.0265654 -0.519425
0.0832632 -0.36043 -0.251169 -0.454713 -0.570822 0.683665
-0.0685028 -0.201189 -0.306512 0.248 0.465886 0.84938
-0.204117 -0.19139 -0.237574 -0.444952 -0.56471 0.695069
0.0338817 -0.292389 -0.366372 0.259537 0.780844 -0.568264
0.125115 0.185234 0.316865 -0.334361 -0.823702 0.457949
0.395668 -0.0154608 0.291518 0.482723 -0.418204 0.769469
0.142045 -0.113289 -0.013215 -0.288464 -0.917307 0.274475
0.124059 -0.293376 -0.18448 -0.298514 0.869744 0.392983
-0.118216 0.018296 -0.101234 -0.789876 -0.000272149 -0.613266
0.0699767 -0.106274 -0.0921167 0.350481 -0.918448 -0.183349
-0.438189 0.245445 -0.0796926 -0.903208 0.423512 -0.0696617
0.398384 -0.292709 0.0158616 0.495185 -0.81157 0.310074
0.131083 0.304551 0.372538 0.0521796 0.374968 0.925568
0.307814 0.186843 0.352671 0.467556 0.662061 0.585719
-0.190113 -0.0805345 -0.201754 -0.521605 -0.482912 0.703366
-0.104886 -0.154491 0.154947 -0.334186 -0.701899 0.629013
0.0368857 0.187692 0.218039 -0.658732 -0.51727 0.546355
-0.0679435 -0.304321 -0.270678 -0.381551 -0.658945 0.648236
-0.0475015 0.262454 0.299195 -0.45202 -0.557081 0.696663
0.436697 -0.191122 0.13872 0.484568 -0.70178 0.522205
0.218585 -0.301444 -0.0951784 -0.372895 -0.676565 0.634987
0.339469 -0.0767285 0.203213 -0.408695 -0.617034 0.672486
0.447101 -0.175826 -0.010085 0.354485 0.681075 -0.640686
-0.0289668 -0.207938 -0.329852 0.315229 0.755464 -0.574373
-0.423435 0.04334 -0.134904 -0.190938 -0.724612 0.662178
0.0929027 0.149471 -0.127203 0.475301 0.413038 0.776845
-0.195947 0.303274 0.0867191 0.635621 0.0736629 -0.768479
0.167485 -0.310792 -0.3132 0.48798 0.535642 -0.689176
-0.139852 -0.314886 -0.344518 -0.507379 -0.518724 0.688108
-0.244484 0.37796 0.213042 -0.530129 0.488732 0.692895
-0.118203 0.0834279 0.0140377 -0.478904 -0.518705 0.708234
-0.110997 0.40405 0.244747 0.46036 0.57127 -0.6795
0.135685 0.0770875 -0.0422662 0.975174 0.00619675 0.221353
0.194019 -0.226877 -0.201416 -0.454976 0.773365 0.441479
-0.188688 0.250436 0.217131 -0.269449 -0.707158 0.653701
0.301377 -0.373272 -0.136977 0.129137 -0.916096 0.379594
-0.0829356 0.2597 0.193058 -0.135622 -0.789432 -0.598668
0.442212 0.0132012 0.182831 0.392149 0.65525 -0.645652
-0.0555443 0.0874349 -0.0697736 -0.973022 0.198364 0.117814
0.149871 -0.339728 -0.33973 0.453524 -0.0512607 -0.889769
-0.296101 -0.217148 -0.323803 -0.444935 -0.604956 0.660349
-0.0366925 -0.0762183 -0.136261 -0.336656 -0.371941 -0.865056
0.062583 0.0263618 0.0704038 -0.312492 -0.705769 0.635798
0.0887439 -0.0255566 -0.0265058 0.554629 -0.832044 -0.00941782
-0.137507 -0.000405277 -0.0883837 -0.319609 -0.730092 0.603999
