ply
format ascii 1.0
comment Created by Open3D
element vertex 128
property double x
property double y
property double z
property double nx
property double ny
property double nz
end_header
0.0199949 -0.253334 -0.0204307 0.329737 -0.927748 -0.174805
0.227748 0.0692043 -0.24255 -0.451095 -0.0657973 -0.890047
-0.305948 -0.126181 0.0952151 0.422266 0.0443724 0.905386
0.0574275 -0.22547 -0.130313 0.333553 -0.935696 -0.114961
-0.485396 0.0395494 0.13729 -0.466441 -0.0295015 -0.88406
-0.194873 -0.0125203 -0.0139937 -0.470477 -0.0520569 -0.880876
0.0923597 0.259208 -0.0871911 0.371212 -0.927876 -0.0353302
-0.240993 0.0625845 0.00293739 -0.4348 -0.0788203 -0.897071
-0.430858 -0.1931 0.175775 -0.776145 -0.407927 0.480826
0.376765 0.32261 -0.0974505 0.451348 0.0636203 0.890077
0.037284 -0.127234 -0.0711457 0.407994 0.040659 0.912079
0.232417 0.361455 -0.263111 -0.457532 -0.0592555 -0.887217
0.189355 0.143422 -0.156182 0.350492 0.108418 0.930269
0.370802 0.146765 -0.321292 0.823433 0.345969 -0.449736
-0.14892 0.0795611 0.00792879 0.40937 0.033677 0.911747
0.25586 0.267725 -0.159902 -0.152078 -0.77755 0.610154
-0.184339 -0.11714 0.0358923 0.446981 0.0348301 0.893865
0.345582 -0.114781 -0.200998 0.321109 -0.943732 -0.0791182
-0.194403 0.196237 -0.0249474 -0.371745 0.916479 0.147891
0.169911 -0.11641 -0.0430657 -0.293868 0.933475 0.205587
-0.102233 -0.0399799 -0.00815459 0.43641 0.0423385 0.898751
0.437812 -0.0791198 -0.223034 0.348229 -0.926326 -0.143726
0.156913 -0.191118 -0.113455 0.400976 -0.894705 -0.196777
-0.250088 -0.279887 0.233863 0.306405 0.946988 -0.0965936
-0.00421752 -0.192596 0.0527115 -0.291493 0.93267 0.212504
0.153403 -0.0336142 -0.129489 0.446941 0.0480298 0.893273
0.315481 0.173854 -0.184586 -0.451892 -0.303822 0.838741
0.383732 -0.0869209 -0.30849 0.315892 -0.944863 -0.0862912
0.0668671 0.291098 -0.171417 -0.508435 -0.0098008 -0.861045
0.374282 0.408944 -0.111499 0.844634 0.32471 -0.425625
-0.261798 -0.278486 0.144806 0.139155 0.990223 -0.00969665
0.318754 -0.0439326 -0.139615 -0.421 0.818743 0.39041
0.11083 -0.219433 -0.0441663 0.22814 -0.970534 -0.0775627
-0.17387 -0.254676 0.101673 -0.290862 0.944466 0.152913
-0.141204 -0.141449 -0.0358989 -0.486064 -0.0559231 -0.872132
-0.281934 -0.0517113 0.0350799 -0.460805 -0.0552804 -0.885778
-0.113499 0.228708 -0.0358558 -0.336053 0.939444 0.0671881
0.356409 0.0596992 -0.188378 -0.544505 0.0795691 0.834975
0.0609703 0.113532 -0.0952156 0.411896 0.0483766 0.909946
0.117063 -0.199268 0.0681641 0.462673 0.0556896 0.884778
0.0734067 -0.156832 0.00282653 -0.206036 0.967413 0.147176
0.26024 0.37597 -0.170342 -0.351725 0.921925 0.16231
-0.396481 0.0148973 0.205842 0.864226 -0.40056 -0.30441
-0.380268 -0.260327 0.213261 -0.801972 -0.385141 0.456626
-0.0651005 0.189846 0.0490691 0.366414 -0.930446 0.00314715
0.474885 0.0104544 -0.235536 0.833085 0.316562 -0.453606
0.284122 0.372848 -0.0720198 -0.323935 0.941306 0.0949132
-0.350132 -0.0266839 0.110754 0.430742 0.0434374 0.901429
0.359048 0.30307 -0.217631 0.803915 0.364822 -0.469709
-0.194878 -0.348109 0.121045 0.373472 -0.910009 -0.180006
-0.440609 -0.00369892 0.303879 -0.859083 -0.283831 0.42593
-0.246394 -0.207119 0.0690375 0.430484 0.0447665 0.901487
0.373689 0.217135 -0.258128 0.783306 0.394619 -0.48032
0.0751375 0.181289 -0.167903 -0.431427 -0.0783785 -0.898737
-0.0715028 -0.232381 0.146682 -0.293536 0.936606 0.191327
-0.439483 -0.0710838 0.118049 -0.475005 0.0303526 -0.879459
0.189257 -0.197167 0.0187514 0.464292 -0.871361 0.15863
-0.479876 0.0433892 0.130381 -0.4658 -0.0534376 -0.883275
-0.111791 0.0366547 -0.0606281 -0.463693 -0.0540919 -0.884343
-0.249711 0.163072 0.0764723 -0.349409 0.928408 0.126382
-0.417303 -0.251021 0.116715 -0.433106 -0.0639893 -0.899068
0.10753 0.0480199 -0.17684 -0.47447 -0.0507787 -0.878806
0.480688 0.106218 -0.15295 0.848032 0.289778 -0.443701
-0.014019 0.170165 -0.118197 -0.450666 -0.0557414 -0.890951
-0.15077 -0.314513 -0.00451215 0.310826 -0.945299 -0.0989821
-0.361513 0.0714887 0.302076 0.492359 0.0258318 0.870009
0.292627 0.271736 -0.287189 -0.44119 -0.0760531 -0.894185
-0.430491 -0.121653 0.23172 -0.856553 -0.300968 0.419208
-0.381976 -0.342495 0.147087 -0.809142 -0.356675 0.466982
0.386675 -0.0736138 -0.0789605 0.441598 0.0498895 0.895825
-0.337683 -0.217612 0.0726766 -0.505673 -0.0541986 -0.861021
0.209725 0.0427717 -0.161104 0.480966 0.0790164 0.873171
-0.0521575 -0.269764 -0.0743442 -0.485537 -0.057057 -0.872352
0.186284 0.345152 -0.136558 -0.322332 0.941911 0.0943699
-0.00683945 0.240385 0.106169 0.435996 0.0568063 0.898154
0.453856 -0.0850787 -0.139786 0.347669 -0.927261 -0.138975
-0.0422896 -0.284687 0.067611 0.365635 -0.915943 -0.165405
0.0808394 -0.146768 -0.1514 -0.460566 -0.0562843 -0.885839
0.177664 -0.136262 -0.201512 -0.376626 -0.0539513 -0.924793
-0.0971769 0.15002 -0.07435 -0.483529 -0.0328915 -0.87471
-0.479234 -0.0497266 0.199222 -0.829382 -0.294861 0.474535
0.218444 0.306649 -0.034543 0.391288 -0.916052 -0.0879887
0.179889 0.140818 -0.151739 0.485329 -0.0180442 0.874146
0.258242 -0.140357 -0.227462 0.343267 -0.926236 -0.155736
0.0337614 -0.259865 0.107286 0.548897 -0.731316 0.404832
-0.130506 0.19513 0.157883 -0.314465 0.946254 0.0755929
-0.337135 -0.191312 0.262626 0.861787 0.346096 -0.370865
0.271476 -0.125538 -0.016624 0.448973 0.0372723 0.892768
0.32035 0.177023 -0.180648 -0.493213 -0.255555 0.831524
-0.369815 0.1018 0.225225 -0.327266 0.937951 0.114649
0.434866 0.0124337 -0.117589 -0.141358 0.363853 0.920668
-0.284894 -0.393039 0.236531 0.352513 -0.926834 -0.129284
0.414475 0.0588212 -0.309906 0.829495 0.293083 -0.475438
-0.00201082 -0.00798553 -0.0583461 0.452394 0.0277573 0.891386
-0.0563415 -0.163514 -0.0780142 -0.528789 -0.036766 -0.847956
-0.13801 -0.271605 0.203527 0.261744 0.486235 0.833706
0.209062 -0.0400908 -0.22337 -0.538358 -0.0122839 -0.842627
-0.0327318 0.0761342 -0.0485277 0.431167 0.0321044 0.901701
0.458983 -0.0505666 -0.312863 0.8464 0.272449 -0.45758
0.0827389 0.287754 0.0419005 -0.303986 0.948786 0.0860139
-0.171547 0.147029 0.0692357 0.379304 -0.91779 -0.117432
-0.488349 0.0579642 0.240516 -0.322814 0.94327 0.0776737
0.298341 0.0354729 -0.27513 -0.462514 -0.0644816 -0.884264
0.264551 -0.151251 -0.129503 0.346837 -0.920464 -0.180138
-0.389107 -0.142408 0.0954135 -0.486309 -0.00334281 -0.873781
0.305786 -0.058525 -0.272895 -0.497638 -0.043589 -0.866289
0.216879 0.1965 -0.244886 -0.48832 -0.0564073 -0.87084
-0.181341 -0.341411 0.233159 0.450084 -0.0196189 0.892771
-0.285817 0.0965003 0.177116 0.36216 -0.931697 -0.0279437
-0.118183 -0.31949 0.110105 0.340588 -0.92803 -0.150866
-0.243758 -0.312746 0.0291498 -0.486942 -0.0577376 -0.871524
0.0305495 0.231304 -0.0278531 0.370146 -0.928361 -0.0337331
0.439821 0.214117 -0.143308 0.8562 0.296952 -0.422777
-0.131125 -0.215048 0.0167068 0.27289 0.464617 0.842414
-0.0599811 -0.0758711 -0.0802576 -0.462102 -0.0553631 -0.885097
-0.301453 -0.383491 0.0871173 0.341272 -0.930689 -0.131725
-0.320517 0.0501898 0.0487963 -0.485339 -0.0320462 -0.873739
-0.0414375 0.259607 -0.0964896 -0.322979 0.939592 0.113362
-0.321986 -0.322702 0.276827 -0.822617 -0.346826 0.45057
0.524206 -0.0114829 -0.158988 0.463862 0.053842 0.88427
-0.381965 -0.0973279 0.322798 0.456617 0.0583227 0.88775
0.0374926 -0.0177483 -0.138206 -0.485193 -0.0343391 -0.873732
-0.212446 0.154371 0.218629 0.495634 0.0517279 0.86699
-0.381636 0.117415 0.0747245 -0.429862 -0.123498 -0.894409
0.42275 0.124088 -0.237369 0.824842 0.344949 -0.447935
0.157886 0.291171 -0.217737 -0.467424 0.0353673 -0.883325
0.353504 0.0576632 -0.187928 -0.522814 0.0581367 0.850462
0.328353 0.391282 -0.208708 0.798188 0.397019 -0.45307
