ply
format ascii 1.0
comment Created by Open3D
element vertex 825
property double x
property double y
property double z
property double nx
property double ny
property double nz
end_header
0.344767 0.445956 0.257497 0.993385 0.113018 0.0203045
-0.118468 0.0367807 -0.385947 0.595587 -0.762212 0.253593
0.155239 0.148437 0.185333 -0.520208 0.162371 -0.838463
0.397715 -0.397401 0.0478143 0.047504 -0.977108 -0.207374
-0.219284 -0.125262 0.238351 -0.640594 -0.212583 0.737867
-0.151406 -0.397855 -0.0451238 0.145771 -0.950034 -0.27602
0.0128469 0.266117 0.035818 -0.619604 0.153153 -0.769828
0.478607 -0.182644 -0.0831229 0.652188 0.206517 -0.729385
-0.451954 -0.107297 -0.085772 0.638131 -0.452429 0.622974
-0.506378 -0.281597 -0.113569 -0.685443 0.127017 -0.716962
0.321049 0.416013 0.139184 0.896095 0.119768 -0.427399
0.0814575 0.106953 -0.285753 -0.0667679 0.969767 0.23472
-0.265401 0.00154389 -0.210038 0.445047 -0.854845 0.266784
-0.00731298 -0.153515 -0.138001 -0.689358 0.17541 -0.702864
0.0995445 0.465372 0.247954 0.00344976 0.994177 0.107707
-0.164978 -0.0119286 0.202112 -0.046254 0.92757 0.370775
0.12271 0.468337 0.219336 -0.128406 0.936734 0.32564
-0.0294868 -0.293621 -0.531793 0.0483521 -0.996824 -0.063271
-0.0357929 0.118128 -0.364822 -0.0484011 0.967427 0.248481
0.498006 -0.169057 -0.0579075 0.60652 0.22252 -0.763294
-0.0113451 -0.454051 0.0827053 -0.484983 -0.87432 -0.0188647
0.204161 -0.274476 0.361167 0.804693 -0.13756 0.577534
0.0920104 -0.488259 0.426941 -0.649697 -0.244918 0.719659
-0.0615577 0.264851 0.175812 -0.991006 -0.0367328 -0.128676
0.14949 -0.0437072 -0.305102 -0.617207 -0.257831 -0.743356
0.378014 0.0744163 -0.0707283 0.0243401 0.983016 0.181901
-0.0733727 -0.448304 0.182873 -0.0401791 -0.995122 -0.0900947
-0.266487 -0.41634 -0.00755885 0.06135 -0.95988 -0.273617
-0.29201 -0.337561 -0.365281 -0.692509 0.150558 -0.705524
-0.266482 -0.183558 -0.370689 -0.742204 0.113922 -0.66042
-0.423838 -0.272301 -0.202848 -0.812094 0.0471644 -0.581617
-0.145042 0.127971 -0.430827 0.0148087 0.989201 0.145818
0.224238 0.252628 -0.00353885 0.281496 0.275471 -0.919171
-0.341988 -0.0721808 -0.271415 -0.752252 0.117128 -0.648381
0.37004 -0.291344 -0.206683 0.654248 0.22171 -0.723052
0.486049 -0.35103 0.0298865 0.710143 -0.139485 0.690102
-0.404828 -0.286015 -0.102359 0.501244 0.643182 0.578854
0.12097 0.108121 -0.303828 -0.0407295 0.983364 0.17702
0.337426 0.0137155 0.120356 0.437265 -0.85488 0.279248
0.282705 -0.0100265 -0.219403 0.731361 0.135021 -0.668491
0.334588 0.149729 0.275743 0.966165 0.00261912 0.25791
0.0998351 0.0463716 -0.330457 -0.407568 -0.723928 -0.556612
0.153462 0.0824551 -0.30952 0.647266 0.215713 -0.731105
-0.0104032 -0.32497 0.381863 -0.560066 -0.241017 0.792614
0.297053 -0.0901735 0.161807 0.298665 0.768812 0.565445
-0.0403309 0.170437 0.0915622 -0.914181 0.0595619 -0.400907
0.196503 -0.101259 0.38304 -0.626978 0.293676 -0.721563
0.185486 0.195059 0.394109 0.222868 -0.291038 0.930391
-0.358447 -0.41267 -0.0415173 -0.0396323 -0.987052 -0.155426
0.167078 0.266475 -0.018867 0.108802 0.211337 -0.971339
-0.0386268 -0.275866 0.368978 -0.673814 -0.16388 0.720499
0.472389 0.0354598 0.0607117 -0.273313 -0.836468 -0.474996
0.284731 -0.456805 -0.0122035 0.326881 -0.88522 -0.330959
-0.416023 -0.39515 -0.0193198 -0.67979 -0.12292 0.723033
-0.130399 0.0735126 -0.178616 -0.0458629 0.979784 0.194731
-0.129898 0.0570476 -0.12216 -0.0715789 0.945805 0.316747
0.501624 -0.322059 0.0168889 0.740806 -0.114381 0.661909
-0.178363 -0.453735 0.173834 -0.101958 -0.980721 -0.166708
0.340734 0.337762 0.271988 0.917239 -0.051685 0.39497
-0.164262 -0.4442 0.205384 -0.716587 -0.128781 0.685506
-0.191656 0.0267704 -0.205115 0.218956 -0.975675 0.0108013
-0.166783 -0.158896 -0.473729 -0.753252 0.11253 -0.648034
-0.104232 -0.462022 0.252015 0.119097 -0.961053 -0.249384
-0.00856054 0.161584 0.0386622 -0.781941 0.105184 -0.614414
-0.22316 -0.142908 0.0940713 -0.620346 -0.326658 -0.713068
0.0765739 -0.0577366 0.474521 0.0277266 0.987353 0.156091
-0.110514 -0.345339 -0.289286 0.0926269 -0.968368 -0.231699
-0.17848 -0.120804 0.277657 -0.671554 -0.176326 0.719669
-0.0299625 -0.180455 -0.126563 -0.739355 0.342099 -0.579933
-0.198828 -0.410457 0.179321 -0.656116 -0.206915 0.72574
0.236502 -0.371081 0.315258 0.792195 -0.0666933 0.606613
0.187075 -0.133811 0.307034 -0.0347723 0.940597 0.337739
-0.25197 -0.404862 -0.0583549 -0.0229498 -0.929977 -0.366901
0.307216 -0.401313 0.226991 0.769614 -0.076316 0.633932
-0.137391 -0.356895 -0.241559 -0.00883354 -0.996453 -0.0836908
0.253756 -0.186539 0.322014 0.803368 -0.0372944 0.594313
-0.0746789 -0.159785 -0.492013 0.633085 0.390895 0.668135
0.281834 -0.382784 0.254726 0.747144 -0.107127 0.655973
-0.322103 -0.346097 -0.330202 0.027853 -0.980828 -0.192875
0.0845741 0.169855 0.385207 -0.342781 -0.124551 0.931122
-0.069446 0.326756 0.219571 -0.998135 -0.0579762 0.0191023
-0.108884 0.0988242 -0.497051 -0.76358 0.0935693 -0.638898
0.285508 -0.391169 -0.123527 0.513327 0.252365 -0.820248
-0.185404 -0.0354398 0.293204 -0.578961 -0.223866 0.78402
0.0730208 -0.365493 0.445431 -0.716348 -0.157736 0.67968
0.376207 -0.361106 -0.131331 0.0359803 -0.979069 -0.200322
-0.461217 -0.22579 -0.150781 -0.741156 0.104322 -0.663177
-0.205757 -0.180439 -0.358427 0.622084 0.398626 0.673876
0.153019 -0.274888 0.420329 0.827273 -0.0653463 0.557986
-0.0226479 0.284244 0.0688827 -0.783583 0.0989894 -0.613351
-0.0472741 0.0618389 -0.289831 0.0240947 -0.983456 -0.17954
-0.0813307 -0.441599 0.144687 0.0712525 -0.964521 -0.254211
0.0254183 -0.230695 -0.423164 -0.0691737 0.965317 0.251752
0.487534 -0.207021 0.0543939 0.761962 -0.0938406 0.640787
0.256943 0.496958 0.0763163 0.693323 0.0910452 -0.714852
0.428982 -0.07109 0.144294 0.742169 -0.108622 0.661352
-0.211046 0.0886896 -0.263036 -0.0622245 0.970711 0.23205
0.0805304 -0.177115 -0.276354 -0.6305 0.605043 -0.486201
-0.347279 -0.398944 -0.0981906 -0.0400875 -0.984147 -0.172765
-0.0581275 -0.324009 -0.378332 -0.000312218 -0.989199 -0.146578
0.151643 -0.0745007 0.431297 -0.589506 -0.467221 -0.658929
-0.154897 -0.00108159 0.164628 -0.00769034 0.991379 0.130802
0.0210856 -0.228926 0.430224 -0.704366 -0.10037 0.702705
-0.420591 -0.17045 -0.190565 -0.794956 0.108749 -0.59684
0.0185879 -0.0437167 0.396189 -0.0627016 0.97043 0.233098
0.280035 0.115644 0.337406 0.562997 -0.0975698 0.820679
-0.281955 -0.143443 -0.296859 0.790954 0.0798406 0.606644
-0.031629 0.446391 0.301552 0.055981 0.977005 0.205738
-0.345884 -0.0440392 -0.158587 0.653954 -0.688202 0.314202
0.521183 -0.0286229 0.0480267 0.727978 -0.0948878 0.679003
0.0109336 0.433538 0.354076 -0.0165249 0.980836 0.194134
-0.0253343 -0.308781 -0.435434 0.0778261 -0.969422 -0.232731
0.265195 0.214106 0.370221 0.544825 -0.117288 0.830307
-0.0570285 0.478757 0.137492 -0.772173 0.0689568 -0.63166
-0.34803 -0.358274 -0.282447 -0.093599 -0.992586 -0.0775331
-0.30646 -0.315171 -0.104441 0.13981 0.961401 0.236983
0.430151 -0.382917 -0.014745 0.0230511 -0.98951 -0.142611
0.281273 0.092438 -0.0104078 0.623888 0.191549 -0.757676
-0.05679 0.107992 0.156015 -0.993795 -0.0550821 0.0966285
-0.0996684 -0.429473 0.0927273 0.078481 -0.969992 -0.230123
-0.146758 -0.280679 -0.119549 -0.452428 0.891785 0.00524174
0.362252 0.0675382 0.133948 0.979402 0.123416 -0.159815
0.161614 -0.475358 0.254938 0.0857565 -0.308617 0.947313
-0.417754 -0.161978 -0.151444 0.649733 -0.057771 0.757964
-0.219378 -0.160252 0.227843 -0.687777 -0.0847365 0.720959
-0.298171 -0.181712 -0.335459 -0.661509 0.218995 -0.717249
0.323528 -0.0953618 0.197813 -0.28668 0.936558 -0.201677
-0.0264468 0.0493783 0.0364122 -0.89319 0.102732 -0.437788
-0.111927 -0.21292 -0.0359364 -0.716731 0.432338 -0.547157
0.197094 -0.25035 -0.3571 0.609142 0.227546 -0.759716
-0.213221 -0.290559 -0.0188697 -0.48535 0.825481 -0.288126
-0.313185 0.000631842 0.123132 -0.250406 0.921636 0.296452
0.281809 -0.077528 -0.238634 0.648459 0.241348 -0.721978
0.211328 0.511482 0.0587161 -0.0175763 0.984705 0.173342
0.102639 0.0924309 -0.215046 -0.093003 0.956008 0.278208
0.0749246 -0.45609 0.257963 0.0677814 -0.993676 -0.0895223
-0.0909206 -0.0877276 0.368504 -0.618268 -0.264397 0.740161
0.500398 0.0612385 0.00129299 0.622091 0.240061 -0.745234
-0.12572 0.0653591 -0.487472 -0.831363 0.0654123 -0.551867
0.137604 -0.3469 -0.248723 0.0424905 -0.976694 -0.210387
0.0543407 0.365929 0.025103 -0.434357 0.304965 -0.847544
0.131893 -0.209319 0.455164 0.748124 -0.104081 0.655345
0.348135 0.129376 0.085094 0.906802 0.149324 -0.394224
-0.227678 -0.214791 -0.31283 0.506573 0.61054 0.608789
0.375479 -0.381582 -0.00949526 0.141381 -0.944794 -0.295595
0.417069 -0.154433 0.143965 0.760167 -0.10376 0.641389
0.159752 0.356708 0.00711547 0.107083 0.210304 -0.971754
-0.270973 -0.433174 0.0712829 0.125469 -0.94683 -0.296262
0.26794 -0.33208 -0.276102 0.051544 -0.975257 -0.214982
-0.238676 -0.392139 -0.109649 -0.00672229 -0.987557 -0.157119
-0.209011 -0.305635 -0.0849546 -0.25935 0.962146 -0.0837367
0.0434816 0.348251 0.412097 -0.462311 -0.135376 0.876323
0.344598 0.193485 0.257914 0.961791 -0.0524772 0.268709
-0.302962 -0.359525 -0.276517 0.129437 -0.921649 -0.3658
-0.299622 0.0296982 -0.0149808 -0.0543798 0.967527 0.24685
-0.313768 -0.16139 -0.26217 0.602095 0.233394 0.76355
0.526733 -0.263546 -0.0549678 0.762337 0.116467 -0.636615
-0.423509 0.000318916 0.0815962 -0.0823506 0.964634 0.250398
-0.3241 -0.089132 -0.244302 0.638023 -0.31193 0.704008
0.020498 -0.386304 0.389826 -0.639574 -0.258524 0.723955
0.257017 -0.37006 -0.138671 0.332608 0.222019 -0.916559
0.24032 -0.0174974 0.230027 0.402671 -0.900882 0.16207
0.371553 -0.438409 0.0882911 0.462017 -0.876447 -0.135579
-0.0957965 0.0352359 0.00908879 0.0707232 0.981942 0.175464
0.261339 -0.318179 0.299405 0.693641 -0.11836 0.71053
-0.198155 -0.0801561 -0.429702 -0.723994 0.11597 -0.679988
0.258292 -0.267888 0.301825 0.774567 -0.0982068 0.624821
0.460525 0.0619711 -0.0369994 0.661008 0.209758 -0.720465
0.136774 -0.0510533 0.410194 -0.00779294 -0.840441 -0.541847
-0.0657799 0.240199 0.203142 -0.996322 0.0854563 0.00635675
-0.347182 -0.101707 -0.258406 -0.804283 0.0394181 -0.592938
-0.176257 0.0225062 -0.318228 0.47559 -0.810782 0.341243
-0.280094 -0.182549 0.160056 -0.741414 -0.0585295 -0.66849
0.331424 -0.457951 0.121076 0.336122 -0.940692 0.0460567
0.00645012 0.410898 0.064188 -0.66352 0.129691 -0.736832
0.487858 -0.311556 -0.104938 0.691883 0.101666 -0.714816
0.134455 0.22863 0.198484 0.895424 0.118985 -0.429021
-0.275557 -0.000498008 0.132661 0.0428747 0.990145 0.133321
0.0444213 -0.230637 -0.394025 -0.200667 0.97869 0.0435674
-0.450681 -0.0480308 0.0309907 0.395861 -0.912024 0.10727
0.135519 -0.104478 0.45801 -0.816456 -0.0471384 -0.575481
0.0549536 -0.485131 0.118733 -0.303729 -0.952498 -0.0222951
0.0838802 0.205233 0.390882 -0.219285 -0.264203 0.939208
-0.244797 -0.0551684 -0.326688 0.784542 -0.385337 0.485808
0.500156 -0.24207 0.0363545 0.740122 -0.11045 0.663341
-0.0405551 -0.158137 -0.557317 0.627876 0.235613 -0.741793
-0.0953737 -0.354197 -0.238332 0.127453 -0.962233 -0.240548
-0.157862 0.0713093 -0.451382 -0.737788 0.106092 -0.666643
-0.0141469 -0.359376 -0.208026 0.0295063 -0.955119 -0.29475
0.39888 -0.0818634 0.170881 0.790984 -0.0449953 0.61018
0.159677 -0.392237 0.400395 0.738659 -0.094456 0.667429
-0.0770369 -0.236101 -0.592543 -0.764323 0.0902304 -0.63849
0.0117573 0.00248029 0.301622 -0.581869 -0.25692 0.771635
0.0860201 -0.0233122 0.345315 -0.226269 -0.29023 0.929822
-0.00368758 0.0567179 -0.292827 -0.165062 -0.920477 -0.354228
0.341472 -0.213771 0.212581 0.760776 -0.106222 0.640263
0.489009 -0.382245 0.0109065 0.274585 -0.919567 -0.28107
0.273847 0.163636 0.348348 0.533501 -0.102831 0.839525
-0.126142 0.014943 -0.410808 0.70627 -0.594731 0.384028
0.175512 -0.408906 0.372383 0.59008 -0.264762 0.762697
0.127021 0.435704 0.229998 0.693428 -0.119674 0.710518
0.037091 0.207016 0.00766516 -0.652355 0.237466 -0.719752
0.308031 0.453943 0.333449 -0.0500588 0.953576 0.296963
-0.439929 -0.306844 -0.185314 -0.675972 0.114485 -0.72798
0.24431 -0.0167572 -0.247891 0.750123 -0.0647311 -0.658122
0.265003 0.502343 0.113396 -0.0887183 0.955637 0.28087
0.422885 -0.0020354 -0.0858663 0.66261 0.190639 -0.724296
0.131268 -0.513858 0.0783543 -0.285758 -0.955113 0.0781138
-0.238783 -0.0321374 -0.372599 -0.734585 0.10987 -0.669562
0.272068 -0.217359 -0.282868 0.678869 0.175278 -0.713032
0.303509 0.342575 0.0818713 0.694444 0.291817 -0.657717
-0.324171 0.0305967 -0.264923 -0.699876 0.139093 -0.700591
-0.323071 -0.392112 -0.133356 0.0650607 -0.974793 -0.213414
-0.415038 -0.23029 -0.201795 -0.602425 0.223182 -0.766338
0.031697 0.0959292 -0.420923 0.660191 0.208275 -0.721643
-0.33149 0.0201103 0.022184 -0.0418207 0.961391 0.27199
0.335092 0.0582752 -0.0047687 0.00922714 0.985756 0.167928
-0.148373 -0.350922 -0.288871 0.023262 -0.987802 -0.153969
0.0670728 0.499255 0.049554 -0.496792 0.218255 -0.839978
0.249719 -0.492233 0.0510506 0.453729 -0.889022 -0.0614012
-0.0653743 0.303066 0.164445 -0.982606 -0.0055255 -0.185619
0.245252 -0.127354 0.339344 0.786283 -0.0885 0.611495
-0.15569 0.0378933 -0.278792 0.206706 -0.97136 0.117183
0.310446 -0.282651 0.241165 0.795204 -0.0852208 0.600324
-0.27768 -0.140989 0.148913 -0.70241 -0.305755 -0.642755
-0.00859826 -0.0231723 0.288368 -0.0294059 0.993845 0.106808
0.293889 0.15776 0.0255642 0.66139 0.214892 -0.718599
0.177364 0.311392 0.42257 0.282738 -0.16434 0.945014
0.248958 0.430573 0.415369 0.439984 -0.112455 0.890937
0.338133 0.350942 0.152337 0.968943 0.062861 -0.239161
0.00386231 0.425749 0.394624 -0.0618349 0.972426 0.224864
-0.272992 -0.38065 -0.172317 -0.122315 -0.984474 -0.1259
0.250955 -0.235104 0.321177 0.872481 -0.261525 0.412773
0.50727 -0.218087 -0.0629587 0.674129 0.172891 -0.718093
-0.0199509 -0.317144 -0.396962 0.0288815 -0.980178 -0.196003
0.114187 -0.23599 0.469652 0.768932 -0.0801912 0.634281
0.281612 0.376027 0.379773 0.743683 -0.0242823 0.668091
0.123839 -0.480011 0.242419 -0.221593 -0.953404 0.20474
-0.318625 0.0805984 -0.268306 -0.653477 0.11119 -0.748736
0.0921064 0.212129 -0.0144601 -0.31461 0.238748 -0.918706
0.0571375 0.0758095 -0.141502 -0.0712172 0.958583 0.275767
0.180135 -0.450895 0.0293935 0.0208198 -0.212039 0.977039
-0.432188 0.0250613 -0.0176826 -0.0754595 0.961596 0.263891
-0.0340577 0.150703 0.0641626 -0.858523 0.0673621 -0.508331
0.253008 0.42275 0.0539397 0.427346 0.312446 -0.848382
-0.0990188 0.0838944 -0.215061 -0.0320254 0.978286 0.204769
-0.119721 0.00553643 0.139822 -0.0432237 0.976797 0.209758
0.138257 0.206441 -0.0256701 0.0248605 0.0867817 -0.995917
0.0728152 -0.224394 -0.373604 -0.443264 0.895898 0.0297255
-0.281854 0.0201617 -0.319693 -0.829258 0.132044 -0.543043
0.299059 -0.0702542 0.135293 0.535075 0.411793 0.737646
-0.409692 -0.376566 -0.219394 0.0105117 -0.984052 -0.177571
-0.063071 0.379639 0.300793 -0.946139 -0.0805723 0.313574
0.204866 -0.0834908 0.230645 0.705166 0.302095 0.641467
-0.0810147 -0.222504 -0.0923475 -0.724352 0.562174 -0.399093
0.111959 -0.315725 -0.389301 0.0025318 -0.984738 -0.174025
-0.0402371 0.340343 0.328327 -0.888505 -0.0634647 0.454458
-0.367951 -0.0231222 -0.0078158 0.220423 -0.974077 0.0508636
0.112296 -0.136811 -0.27393 -0.632281 0.37103 -0.680116
0.133278 -0.500199 0.179211 0.0674794 -0.977719 0.198777
0.044287 0.460636 0.0501176 -0.371917 0.200419 -0.906372
-0.229385 -0.319543 -0.42446 0.0690372 -0.970732 -0.230028
0.00741857 0.34496 0.38714 -0.564592 -0.277732 0.777239
0.133601 -0.34445 0.432264 0.727663 0.0343353 0.685075
0.315631 0.0264009 -0.174039 0.662051 0.195896 -0.723404
-0.0280011 -0.124317 -0.108893 -0.792622 0.0290314 -0.609021
-0.0956005 -0.019415 0.262217 0.011649 0.991452 0.129952
-0.00765913 -0.0421879 0.367848 -0.148726 0.956024 0.25278
-0.0597814 0.035389 -0.476069 0.685696 -0.640701 0.345431
-0.0129135 0.0589859 -0.0906275 -0.139289 0.941693 0.306288
0.150539 0.476029 0.200609 -0.00118673 0.979983 0.199078
-0.186335 -0.383056 0.202542 -0.62306 -0.253523 0.739948
0.0467765 0.0119221 -0.250139 -0.559142 -0.547797 -0.622317
-0.494739 -0.311184 -0.126869 -0.770542 0.126588 -0.624692
-0.242956 -0.136465 0.115489 -0.684842 -0.337448 -0.645848
-0.531141 0.0102473 -0.011473 -0.634973 -0.218331 0.74104
0.357542 0.122736 0.218173 0.986373 0.0028721 0.1645
-0.0411266 -0.0428675 -0.124081 -0.661221 -0.373366 -0.65068
-0.0363937 -0.449858 0.193513 0.043501 -0.977239 -0.207633
0.160128 -0.408925 -0.135966 0.0159413 -0.746383 -0.665325
0.268793 -0.210742 0.296411 0.752011 -0.12167 0.647824
-0.157439 -0.169944 -0.401143 0.60125 0.381836 0.701926
-0.0872274 0.0338666 -0.195967 -0.177213 -0.93504 -0.307075
-0.220473 0.07664 -0.20002 -0.0876872 0.972888 0.214007
0.195066 -0.401085 -0.13284 0.111337 -0.772195 -0.625555
0.19133 -0.506602 0.0219571 0.0313548 -0.977671 -0.20779
0.159653 -0.137249 0.438227 0.848823 -0.0606298 0.525189
0.19213 0.502909 0.0919916 -0.00316723 0.984388 0.175985
-0.140179 0.0400856 -0.307753 0.373353 -0.919223 0.125046
-0.287609 -0.405224 -0.062803 0.0368166 -0.978615 -0.202378
0.164112 -0.0495275 0.44822 -0.0191166 0.979081 0.202572
0.0964959 -0.26544 -0.45073 0.650717 0.207687 -0.730366
-0.0367539 0.109265 -0.474597 0.636132 0.21095 -0.742183
-0.0790398 0.0501471 -0.533692 0.535582 0.356491 -0.765549
-0.12649 -0.337944 -0.326013 -0.118833 -0.98447 -0.129221
0.216107 0.10387 -0.244322 0.668502 0.183576 -0.720697
-0.479865 -0.0477211 -0.105092 -0.687928 0.137521 -0.712631
-0.0517079 0.0606698 -0.110182 -0.00221348 0.999234 0.0390717
0.0230025 -0.312187 -0.427973 -0.00959864 -0.980352 -0.197024
0.459182 -0.275372 -0.124608 0.62917 0.251932 -0.735306
0.347259 0.400783 0.206558 0.99419 -0.0826855 -0.0689209
0.332578 -0.118958 -0.200703 0.665885 0.187634 -0.722074
-0.326198 -0.239106 -0.311192 -0.758923 0.101835 -0.643168
-0.1586 0.00659419 0.121578 -0.0744753 0.96711 0.243212
0.455656 -0.360972 -0.0935254 0.0756738 -0.949873 -0.303341
-0.146461 -0.216268 -0.508677 -0.828009 0.0662595 -0.556786
-0.314627 -0.144575 -0.311495 -0.666342 0.0261236 -0.745189
-0.41468 -0.334695 -0.0226283 0.245326 0.905379 0.346562
0.102645 -0.155785 0.398361 0.128239 0.966432 0.222631
-0.153711 -0.0332182 0.295853 -0.0443819 0.956398 0.288674
-0.196902 0.0436293 -0.0685114 -0.0272598 0.981194 0.19109
-0.250661 0.0886038 -0.277746 -0.0131071 0.98236 0.186541
0.11086 -0.162419 -0.298233 -0.712377 0.532461 -0.457169
-0.371542 -0.0254772 0.0221793 0.135909 -0.986445 0.09195
0.00355972 -0.335683 -0.295133 0.186883 -0.900885 -0.391767
0.203665 -0.496792 0.155941 0.201939 -0.966212 0.160169
0.232434 0.333959 0.408564 0.559014 -0.224207 0.79827
-0.0710355 0.368585 0.191285 -0.98655 0.0439573 -0.157437
0.302412 -0.0533116 0.293843 0.734871 -0.111738 0.668939
0.288549 0.0227796 -0.205064 0.658196 0.20044 -0.725673
0.0105935 0.149661 0.0184669 -0.611269 0.103998 -0.78456
-0.197286 -0.177644 -0.43835 -0.893766 0.0778485 -0.441727
-0.20016 0.0229922 -0.244336 0.441552 -0.894155 -0.0742866
-0.396531 -0.129471 -0.169906 0.882965 -0.0775324 0.462992
-0.0461051 0.0697566 -0.360388 0.265518 -0.958179 -0.106736
-0.0927064 -0.179003 -0.04619 -0.594252 0.234397 -0.769366
-0.0590223 0.219736 0.250913 -0.958683 -0.126277 0.254914
-0.112315 0.133681 -0.489056 -0.684193 0.0333399 -0.728539
0.242812 -0.0391935 0.363361 0.769046 -0.0854003 0.633462
-0.210469 -0.0260212 -0.407422 -0.708949 0.0750128 -0.701259
-0.0860552 0.0865201 -0.530455 -0.748233 0.108819 -0.654451
-0.107046 0.00094155 0.175987 -0.0489641 0.975896 0.212674
-0.208304 -0.29564 -0.167234 -0.0183567 0.979291 0.201623
-0.0586562 0.0589612 0.170854 -0.992627 0.105769 -0.0591904
-0.31833 -0.124006 -0.260781 0.692125 0.0503129 0.720022
0.289485 -0.222033 0.275938 0.706332 -0.176219 0.685596
0.259315 -0.0197051 0.280919 -0.250857 -0.873789 -0.416611
0.273162 -0.115279 0.248781 -0.192889 0.978679 -0.0705756
-0.290402 0.0508955 -0.121821 -0.083724 0.958131 0.273816
0.259719 -0.0892434 0.184174 0.515742 0.616752 0.594666
-0.219505 -0.417556 0.00361619 0.0214937 -0.983454 -0.179878
0.304652 -0.161029 -0.233691 0.601957 0.295028 -0.742028
-0.114584 -0.172816 -0.53767 -0.74922 0.107045 -0.653614
-0.0382143 -0.124188 0.404376 -0.673633 -0.149899 0.723705
0.415427 -0.0390962 -0.0999317 0.707801 0.0936849 -0.700172
0.0374586 0.0523346 -0.29043 -0.239412 -0.828735 -0.505846
-0.111781 -0.0608902 0.354265 -0.587572 -0.284682 0.75744
0.380053 -0.260654 -0.191299 0.599929 0.297008 -0.74288
-0.0605058 -0.359155 -0.223571 0.0578905 -0.965268 -0.254769
-0.247675 -0.167786 0.199187 -0.674819 -0.176743 0.716507
0.32282 0.0179056 0.277176 0.813185 -0.0814429 0.576279
0.048708 0.109561 -0.309776 -0.0658272 0.97246 0.223581
-0.310738 -0.435909 0.0737559 0.0113341 -0.987941 -0.154418
-0.216587 -0.0653873 -0.402679 -0.835446 0.0393453 -0.548162
0.17484 0.484504 0.0385876 0.241768 0.209513 -0.947445
0.178358 0.0628658 -0.0863499 -0.00271766 0.991093 0.133144
0.478508 -0.14543 -0.0735067 0.589198 0.288262 -0.754818
-0.374029 -0.00870568 -0.213821 -0.864704 -0.0363705 -0.500964
-0.139243 -0.00843583 -0.486745 -0.617553 0.130204 -0.775677
0.257765 0.0691574 -0.0751776 -0.0136373 0.987471 0.157213
0.143987 0.192903 0.19774 0.149519 0.274154 -0.949991
0.430956 -0.267923 0.109892 0.773811 -0.114661 0.622952
-0.0913534 -0.114435 -0.0412646 -0.706401 -0.129684 -0.69583
0.0175655 0.481512 0.124677 -0.090311 0.971744 0.218078
-0.167265 0.0512927 -0.10218 -0.0376701 0.976782 0.210899
0.320924 -0.0103923 0.234786 -0.398707 -0.731087 -0.553664
-0.296244 -0.0254041 -0.204012 0.650042 -0.707895 0.276279
0.0107031 -0.399812 -0.0775971 -0.809962 0.0625791 -0.583134
-0.0135062 0.385365 0.0835103 -0.74837 0.0193156 -0.663
0.376196 0.059873 -0.00350331 -0.122545 0.947585 0.29507
0.145862 -0.491722 0.214741 0.0137252 -0.981305 0.191968
0.0654603 0.0596937 -0.325269 -0.314122 -0.826464 -0.467209
-0.471631 -0.237758 -0.0782273 0.694631 0.342995 0.63233
-0.0776757 -0.0377555 0.338074 -0.0541684 0.955663 0.289436
0.435891 -0.22512 0.110239 0.773248 -0.039766 0.632856
-0.175333 -0.00440335 -0.440358 -0.696384 0.096021 -0.711217
0.108803 0.506638 0.0528894 0.052596 0.997589 0.0452747
-0.200192 -0.280036 -0.458506 -0.797185 0.17347 -0.578277
0.0590181 -0.106713 0.382749 0.774734 -0.0516965 0.63017
-0.0866616 0.0430568 -0.42976 0.66181 -0.705527 0.253455
-0.1668 0.0667807 -0.170058 0.102992 0.986244 0.129289
0.138774 -0.257043 0.440766 0.712668 -0.0983984 0.694566
-0.237396 0.0998411 -0.321675 -0.0960746 0.950806 0.294512
0.3875 -0.183541 0.173349 0.706894 -0.0949226 0.700921
0.451316 -0.0841934 0.11277 0.678244 -0.0819977 0.730247
-0.0953794 0.103545 -0.324883 -0.0761594 0.971967 0.222439
0.141583 -0.0810571 0.289207 0.648739 -0.018474 0.760787
-0.378052 -0.0936058 -0.173034 0.72808 -0.39133 0.562814
0.182318 -0.406714 0.045365 -0.634284 -0.18057 0.751717
0.229444 -0.157429 0.350392 0.674624 -0.162 0.720166
0.0944921 0.0752043 -0.150589 -0.0310332 0.958013 0.285041
0.507155 -0.189556 0.0298087 0.683102 -0.117575 0.720796
0.394861 -0.355931 0.136699 0.57535 -0.17992 0.797873
-0.0293467 0.401077 0.364239 -0.802786 -0.131423 0.581603
0.00426283 0.276145 0.368295 -0.623565 -0.232141 0.74651
-0.257215 0.0536725 -0.114607 -0.119344 0.946931 0.29846
0.220054 -0.5093 0.0462041 0.0357641 -0.981853 -0.18624
0.119579 -0.124252 0.488089 0.779112 -0.149005 0.608918
0.0623599 0.05519 -0.0594691 -0.0247136 0.986429 0.162316
-0.236258 -0.00115039 -0.0466181 -0.0173841 -0.921928 -0.386972
0.474611 -0.10665 -0.0677589 0.700532 0.133563 -0.701011
0.11804 -0.35377 -0.20148 0.0211799 -0.95644 -0.291158
-0.0702858 0.300149 0.237994 -0.963582 -0.128903 0.234294
0.280476 0.33253 0.0548108 0.747843 0.0486846 -0.662088
0.0273229 -0.28859 -0.522415 0.571092 0.235077 -0.786507
-0.332884 -0.180524 -0.241763 0.659676 0.25225 0.707953
-0.0178851 -0.360208 0.361669 -0.633471 -0.223405 0.740813
-0.0798484 -0.0924041 -0.0627853 -0.630999 -0.310824 -0.710794
0.0836457 0.488559 0.117115 0.0172261 0.989494 0.143544
0.515668 0.0156836 0.0584573 0.771947 -0.130988 0.622044
-0.503041 -0.228942 -0.0500184 0.642872 0.265346 0.718545
0.0798856 -0.357205 -0.195051 0.0107568 -0.977694 -0.20976
-0.245615 -0.293487 0.0451821 -0.501463 0.706058 -0.500017
0.146052 0.485501 0.158851 -0.00996685 0.99676 0.0798098
-0.114276 -0.248081 -0.33801 0.129468 0.905279 0.404609
-0.216149 -0.0580724 0.261366 -0.639474 -0.275941 0.717586
-0.101832 -0.141981 -0.552157 -0.760957 0.021612 -0.648442
-0.405939 -0.0329031 -0.0229856 0.303774 -0.936964 0.172683
0.0547317 -0.0751308 0.501106 -0.286232 -0.828031 -0.482115
-0.0606953 0.101046 -0.29562 -0.0345226 0.977491 0.208133
-0.33818 -0.369176 -0.236609 0.13171 -0.966025 -0.22237
0.0307166 0.494339 0.0614087 -0.507287 0.17992 -0.842786
0.197438 -0.0017499 0.353622 0.049979 -0.0594985 0.996976
-0.051633 0.270163 0.28391 -0.954954 -0.017196 0.296256
-0.409404 -0.0207838 -0.178613 -0.758577 0.110299 -0.64218
0.280738 -0.485533 0.113629 0.419682 -0.907048 0.033626
0.222434 -0.0427004 0.215447 0.801299 -0.35611 0.480734
0.266589 0.343628 0.385768 0.657298 -0.191823 0.72881
0.425826 0.0443832 0.0454679 0.205216 -0.976329 0.068325
0.332532 0.0398162 -0.154333 0.733746 -0.0291163 -0.6788
0.075919 -0.0504265 0.432943 0.0190429 0.982429 0.185664
0.408727 -0.246543 0.1332 0.783858 -0.0963743 0.613416
0.11157 -0.189769 -0.341188 -0.534689 0.740349 -0.40742
-0.202318 -0.00426978 0.14903 0.0511171 0.989155 0.137697
0.0342343 -0.214674 -0.255826 -0.572338 0.741895 -0.349315
0.181436 0.057911 -0.289362 0.619657 0.234703 -0.748959
0.461378 -0.0351975 0.102607 0.634353 -0.164092 0.755427
-0.0518371 0.0348576 0.104351 -0.944635 0.107121 -0.310145
-0.0564081 0.0391917 0.148071 -0.997773 -0.0666541 -0.00231868
-0.471366 -0.291375 -0.146833 -0.7666 0.068453 -0.638466
-0.0770854 0.0527191 -0.269521 0.1101 -0.957989 -0.26483
0.159009 -0.504452 0.133622 -0.0131221 -0.984683 0.173862
0.338862 0.390197 0.166225 0.92924 0.201723 -0.30955
0.296396 0.200752 0.337431 0.832605 -0.187537 0.521152
0.176135 -0.178999 0.407452 0.751865 -0.176494 0.635255
0.229319 -0.326649 -0.293171 -0.0285097 -0.984829 -0.171172
-0.187979 -0.0437346 -0.435283 -0.788722 0.0744753 -0.610222
-0.0186904 0.0443014 -0.253796 -0.149947 -0.930166 -0.335123
-0.0644145 -0.338645 -0.324683 0.0125688 -0.988151 -0.152972
0.540127 -0.081482 0.0138869 0.778355 -0.102852 0.619342
0.347541 -0.00418201 0.0814223 0.8445 -0.407798 0.34716
-0.145782 -0.0946218 -0.493012 -0.798378 0.128754 -0.588231
-0.174688 -0.249184 -0.303385 0.141711 0.844574 0.516346
0.362757 0.00490595 0.176736 -0.299169 -0.852545 -0.428561
-0.34156 0.00110968 -0.249953 -0.813275 0.188954 -0.550345
0.308718 0.139539 0.317903 0.814567 -0.110045 0.569536
0.193745 0.342728 0.00910347 0.245969 0.239006 -0.939348
-0.254694 0.0292443 -0.0126508 -0.0609074 0.972022 0.226854
-0.191653 -0.21639 0.0597414 -0.662437 0.260347 -0.702422
0.210369 -0.0347835 0.333279 -0.242402 -0.853758 -0.460802
-0.0956967 -0.0565085 -0.501302 0.697599 -0.0989205 0.709626
-0.2445 -0.349777 -0.322877 -0.0437649 -0.979891 -0.194674
0.0302763 0.34223 0.0268297 -0.380564 0.125626 -0.916182
0.47124 -0.313259 0.0556457 0.762879 -0.0658903 0.643176
-0.331695 -0.272431 -0.172179 0.4032 0.737195 0.542192
-0.125948 -0.266142 -0.0930929 -0.451573 0.771228 -0.448653
-0.282788 0.0587888 -0.151942 -0.00268496 0.999872 0.0157973
0.185613 -0.2587 0.387472 0.819454 -0.138257 0.556219
-0.375332 -0.249429 -0.254543 -0.751107 0.109501 -0.651036
0.35011 0.284176 0.189238 0.990381 0.119213 -0.0702388
-0.252833 -0.197845 -0.298905 0.418387 0.594892 0.686335
0.085168 -0.330675 -0.321712 0.0305266 -0.991014 -0.130227
0.132648 -0.482399 0.373012 0.0923191 -0.971076 -0.220201
-0.0977137 -0.332865 -0.361558 -0.0166622 -0.948595 -0.316054
-0.473232 -0.190516 -0.092919 0.695175 0.0567668 0.716595
0.23834 -0.480274 0.212597 0.207369 -0.960739 0.184331
-0.0599466 0.427942 0.323465 -0.845793 -0.298597 0.442125
0.0335747 -0.275631 0.429784 -0.692358 -0.0605928 0.719005
-0.197594 0.00284461 0.105592 -0.0314662 0.985788 0.16502
-0.467226 -0.0790789 -0.128572 -0.655259 0.249393 -0.713049
-0.251356 0.0278782 -0.353216 -0.731321 0.120031 -0.671388
-0.0248416 -0.156953 0.408302 -0.647944 -0.215404 0.730595
-0.0842509 0.0584705 -0.320866 0.52929 -0.833576 -0.15812
0.120484 0.175532 -0.0318003 -0.263772 0.339737 -0.902775
0.0395494 0.451522 0.28737 -0.101525 0.961936 0.253717
0.176367 0.0997033 -0.22714 -0.0925921 0.967194 0.236563
-0.00941667 -0.117478 0.425057 -0.652132 -0.20082 0.731024
0.376209 0.0748738 -0.110613 0.691651 0.164419 -0.703268
0.0293117 0.250936 0.380837 -0.486462 -0.275991 0.828966
0.408084 0.0552954 0.020559 -0.116035 0.941695 0.315827
-0.26603 0.00151513 -0.0659344 0.0211681 -0.995944 -0.0874454
-0.452736 -0.394428 -0.145362 0.156974 -0.935775 -0.315728
0.181869 -0.436579 0.0638828 -0.477519 0.15208 -0.865359
-0.0201584 -0.449704 0.124112 -0.947331 -0.0956928 0.305626
-0.234607 -0.0808576 0.0721604 -0.535383 -0.61192 -0.582168
-0.0529213 -0.256626 -0.291532 -0.227639 0.970383 0.0808582
-0.0420063 -0.187505 -0.489125 0.356355 0.736279 0.575243
-0.0880442 -0.0319463 0.297939 -0.0143158 0.988892 0.147945
-0.0575526 0.0662847 0.124568 -0.980034 0.0403632 -0.194692
-0.446704 -0.336185 -0.0270778 -0.517217 -0.288924 0.805611
-0.273593 -0.275599 -0.204661 0.205255 0.891667 0.403486
-0.159781 -0.206578 0.0270583 -0.754002 0.305259 -0.581633
0.529907 -0.188346 -0.0373426 0.67175 0.181291 -0.718252
0.210946 -0.406886 0.333882 0.727573 -0.109375 0.677256
-0.018937 0.346888 0.362312 -0.767586 -0.154613 0.622018
0.0756198 0.320621 0.417659 -0.25913 -0.23561 0.936664
0.0840114 -0.489092 0.0444368 -0.282323 -0.921681 -0.266079
-0.379738 -0.317019 -0.0756753 0.286891 0.857113 0.427844
-0.0440357 0.139442 -0.48275 0.510484 0.46126 -0.725703
0.347084 0.435768 0.213825 0.968544 0.153249 -0.196056
-0.123588 -0.206791 0.299681 -0.718808 -0.0168354 0.695005
0.219616 -0.127543 0.369911 0.778948 -0.0950316 0.619846
0.180806 -0.134014 -0.340962 0.6468 0.240364 -0.723793
-0.392524 -0.408796 -0.0666268 0.042735 -0.962134 -0.269205
-0.140422 -0.426773 0.0627906 0.05274 -0.975673 -0.212793
0.0361594 -0.364261 -0.182001 -0.0238999 -0.984484 -0.173839
-0.00301038 0.488444 0.0838899 -0.802364 0.0665662 -0.593112
-0.00304452 0.447528 0.0774416 -0.636308 0.133595 -0.759779
-0.202935 -0.393026 -0.105532 -0.000864325 -0.983796 -0.179287
-0.03291 -0.0386221 0.347126 -0.0803697 0.963752 0.254408
-0.41838 -0.293971 -0.0735052 0.485294 0.683653 0.545077
0.339199 0.277286 0.123324 0.882043 0.193876 -0.429433
0.0389267 0.166455 -0.00586757 -0.567064 0.242384 -0.787203
-0.044052 0.0791645 0.0830682 -0.876301 0.0397876 -0.480118
-0.208723 -0.319211 -0.446804 0.0782621 -0.957765 -0.276696
-0.183969 -0.34751 -0.290511 -0.0357684 -0.986601 -0.15918
0.400603 0.0412623 0.0909136 0.135251 0.987048 0.0862772
-0.244796 -0.310231 -0.103047 -0.101741 0.992096 0.073446
0.172924 -0.0323181 0.314631 0.424082 -0.886047 -0.187286
0.262345 -0.442557 0.268727 0.714521 -0.107689 0.691276
-0.405085 -0.0303519 0.0237721 0.275367 -0.960028 0.0501862
-0.209505 -0.23379 -0.439518 -0.696718 0.231675 -0.678904
0.287683 -0.258241 0.270363 0.640495 -0.195594 0.742637
0.36954 -0.264363 0.178348 0.785231 -0.108597 0.609606
-0.100896 -0.283877 -0.573286 -0.757476 0.120077 -0.641725
0.293371 0.00721011 0.310603 0.639299 -0.134483 0.757107
-0.102876 -0.232114 -0.563751 -0.644555 0.106337 -0.757127
0.0810266 0.0668478 -0.113793 -0.0494892 0.993913 0.0984301
-0.370243 -0.0227057 -0.0500207 0.29547 -0.94237 0.156958
0.238743 0.185649 0.37668 0.438573 -0.13059 0.889157
0.0622202 0.101598 -0.257181 -0.0557725 0.974718 0.216365
-0.280872 -0.310101 -0.12295 0.0443756 0.953413 0.298386
-0.0170136 0.0399764 0.284245 -0.778483 -0.186219 0.599406
-0.465138 -0.304697 -0.034636 -0.659635 -0.199567 0.724606
0.017863 -0.0873759 -0.163682 -0.64895 -0.213035 -0.730397
-0.210913 -0.239585 -0.293616 0.430491 0.72981 0.531088
0.163402 0.506837 0.0637157 -0.0594184 0.972863 0.223625
0.0503819 0.0845133 -0.384537 0.0516508 -0.939192 -0.339485
-0.17414 -0.0894052 0.0202672 -0.634977 -0.499218 -0.589564
-0.0295743 -0.406963 0.000225896 -0.937723 0.0946356 -0.334244
-0.516272 -0.156572 -0.0822705 -0.691822 0.0769718 -0.717954
0.188239 -0.0419326 0.412468 -0.0410964 0.977567 0.206577
0.220377 -0.0668468 -0.28977 0.607737 0.261062 -0.750002
-0.282755 0.00347992 -0.13042 0.272107 -0.946152 0.17537
0.512198 -0.352488 0.000371719 0.788146 -0.121737 0.603329
-0.243978 -0.131127 0.214255 -0.750544 -0.0277115 0.660239
-0.365458 -0.0448058 -0.230543 -0.735199 0.109399 -0.668965
0.0499508 -0.211481 0.455472 -0.601292 -0.230991 0.764912
0.0501354 -0.477418 0.176906 -0.367402 -0.908977 0.196918
-0.0600326 -0.230835 -0.151899 -0.553204 0.675036 -0.488151
0.0910836 0.345616 0.0115568 -0.105307 0.00634755 -0.994419
-0.064844 -0.103072 0.389109 -0.68034 -0.164875 0.71411
0.000356825 -0.370519 -0.137404 0.0484211 -0.955513 -0.290947
0.0514337 -0.150958 0.413212 0.395907 0.703444 0.590275
0.00777296 -0.255768 -0.532127 0.604278 0.344799 -0.718305
-0.0564745 -0.102058 -0.0815164 -0.73685 -0.122344 -0.664894
-0.495031 0.0184632 -0.0035838 -0.0346895 0.9798 0.196948
0.193953 -0.331616 -0.271069 0.039865 -0.948013 -0.315725
-0.235508 0.0695122 -0.358841 -0.703301 0.19636 -0.683235
-0.0527613 0.0427149 -0.0257255 -0.0323878 0.978398 0.204177
0.355819 0.168161 0.153999 0.930158 0.277854 -0.240009
-0.0943134 -0.362959 -0.204282 0.0412003 -0.977549 -0.206643
0.327921 0.328688 0.112419 0.854202 0.164526 -0.493225
-0.0835314 -0.0911837 -0.563623 -0.720383 0.112945 -0.684319
0.172124 -0.0819626 0.261185 0.763339 0.198529 0.614735
-0.122599 -0.275588 -0.213679 -0.209158 0.976436 0.0531586
0.000667181 -0.236855 -0.277206 -0.488591 0.860389 -0.144949
-0.110159 -0.411603 -0.000427539 0.00532862 -0.983432 -0.1812
-0.132305 0.107813 -0.333501 -0.0439513 0.977049 0.208433
0.190822 -0.354077 -0.189341 0.0531871 -0.974307 -0.218853
0.173397 -0.48022 0.051731 0.468823 0.253581 -0.846109
0.334395 0.104443 0.0458827 0.922129 0.0388136 -0.38493
0.506369 -0.0825217 -0.0280359 0.668883 0.184502 -0.720107
0.13844 -0.432986 -0.10251 -0.0545509 -0.800847 -0.596379
0.260204 0.152388 -0.00351298 0.428462 0.289361 -0.855973
-0.286499 -0.368211 -0.240891 -0.0957574 -0.981954 -0.163087
0.185165 0.0999431 -0.0492343 0.215957 0.150888 -0.964674
-0.255444 -0.183711 0.133106 -0.848363 0.0583257 -0.526192
0.403499 -0.206959 0.149436 0.75328 -0.10563 0.649162
0.355415 -0.387357 0.174555 0.757103 -0.142078 0.637659
-0.145098 -0.135862 -0.49877 -0.761381 0.103639 -0.639967
0.337451 0.216737 0.283667 0.863008 -0.11118 0.492804
0.414338 -0.317789 -0.178598 0.664286 0.188722 -0.723262
-0.46688 -0.395682 -0.0669827 -0.662172 -0.191895 0.724365
-0.0957757 -0.124844 -0.482989 0.62013 0.377897 0.687483
0.405463 -0.0423035 0.160931 -0.756202 0.280702 -0.591071
-0.0918742 -0.0450222 0.375213 -0.0471996 0.984986 0.166054
0.0358024 -0.214445 -0.496573 0.744715 0.0877164 -0.661593
0.172079 0.15524 0.389848 0.13985 -0.278541 0.950188
0.400662 -0.0114433 0.0142964 0.689399 0.0459291 0.722924
-0.0434444 0.135528 -0.435816 -0.195277 0.927704 0.318172
0.313541 -0.388258 -0.100603 0.651728 0.188107 -0.734756
-0.000762053 0.317886 0.0521801 -0.713074 0.109765 -0.692443
0.473043 -0.0532533 0.061796 -0.579414 0.785391 -0.217811
0.0404932 -0.384187 -0.104624 -0.607307 0.134376 -0.783021
-0.11237 -0.238739 -0.0699181 -0.586106 0.595149 -0.549797
0.0571557 -0.24719 0.466091 -0.63996 -0.258783 0.723521
-0.215706 0.0369825 -0.0220906 -0.0434631 0.978021 0.203926
-0.472262 -0.401955 -0.109134 -0.0673231 -0.976521 -0.204632
-0.516902 0.00923565 -0.0514244 -0.830621 0.094215 -0.54881
-0.12772 -0.308535 -0.475042 0.0576819 -0.973755 -0.220168
0.348782 -0.444309 0.0637443 0.567721 -0.78987 -0.231946
0.358265 0.161883 0.194977 0.994981 -0.0233894 0.097289
0.215768 -0.0534668 0.39025 0.640151 -0.0129261 0.768141
0.0663176 0.24151 0.398576 -0.309228 -0.234345 0.921662
0.278973 0.0790003 0.332229 0.531122 -0.285163 0.797867
-0.0478498 0.0979518 0.23651 -0.929987 -0.22053 0.294092
0.507221 -0.373549 -0.037219 0.0477352 -0.970029 -0.238255
-0.467501 -0.322935 -0.159617 -0.72173 0.11324 -0.682849
0.0826179 -0.121514 0.519171 -0.6889 -0.148567 0.709468
0.272091 0.0942331 -0.194779 -0.0467804 0.976581 0.210001
-0.196825 -0.0257518 -0.366969 0.83932 -0.359384 0.407904
-0.0863925 0.134154 -0.466398 -0.00413264 0.9833 0.181948
-0.440438 -0.417298 -0.0484086 -0.0418717 -0.983004 -0.178748
-0.229036 -0.263566 0.0704193 -0.694779 0.566151 -0.443571
-0.0443014 0.0222709 -0.194393 -0.515764 -0.695335 -0.500497
-0.0452925 -0.44019 0.154406 0.0357901 -0.977745 -0.206724
0.10628 -0.392388 0.456763 0.72983 -0.075537 0.679443
-0.0613029 0.197747 0.217326 -0.969332 -0.1507 0.194125
0.136629 0.273627 -0.0132183 -0.069255 0.255901 -0.964219
-0.149481 -0.137248 0.298513 -0.610676 -0.309746 0.728788
0.23225 -0.201047 -0.310473 0.737869 0.144796 -0.659229
0.00312665 0.130244 -0.440013 0.669072 0.184849 -0.719843
-0.242186 -0.218225 0.118154 -0.722028 0.195864 -0.66356
0.0673506 0.010584 0.340903 -0.332913 -0.33014 0.883276
-0.347513 -0.0335031 0.0665567 -0.180882 -0.947259 -0.264542
0.0227766 -0.135374 0.425933 0.60369 0.332424 0.724605
0.460913 0.00693813 0.0914929 -0.492186 -0.430818 -0.756405
-0.514404 -0.337684 -0.111725 -0.774585 0.0359244 -0.631449
0.369415 -0.442887 0.130319 0.439321 -0.897446 -0.0398481
0.00600161 -0.448712 0.0105469 -0.300877 -0.87512 -0.378995
0.456603 0.0619716 0.0021336 -0.0585374 0.989355 0.133227
0.00236372 -0.198778 -0.183855 -0.775751 0.516525 -0.362507
0.181837 0.343596 0.428662 0.121961 -0.151554 0.980896
0.118453 0.183799 0.392162 -0.0102164 -0.363315 0.93161
0.0834142 0.444881 0.314606 -0.0576461 0.972848 0.22415
-0.0664 -0.201767 -0.584823 0.627904 0.233331 -0.742491
0.361595 -0.343903 -0.190995 0.0166526 -0.991536 -0.128758
0.0725487 -0.439326 -0.072799 -0.286038 -0.859244 -0.424125
0.173843 0.385269 0.436402 0.103126 -0.153934 0.982685
-0.0710624 0.395636 0.184001 -0.98502 -0.0261351 -0.170449
-0.104247 0.0168696 -0.146714 -0.255397 -0.861567 -0.438719
0.41466 -0.0686003 0.116547 -0.461087 0.857495 -0.228257
0.162841 -0.21091 0.420219 0.818319 -0.0655134 0.571019
-0.00228931 -0.229631 -0.235655 -0.573324 0.813024 -0.101443
-0.11784 -0.373244 0.263313 -0.640725 -0.207282 0.73926
-0.123308 -0.117124 -0.52106 -0.807684 0.217483 -0.54804
-0.359807 -0.00400204 0.129223 -0.0467407 0.972612 0.227688
-0.0766846 -0.456285 0.215036 0.0509799 -0.971844 -0.230046
-0.383216 0.0388809 -0.0847995 -0.0428662 0.942183 0.332347
0.122758 -0.049911 0.445526 -0.0350104 0.988291 0.148507
0.0922603 0.0821918 -0.178788 -0.124768 0.951191 0.282258
0.242971 0.322288 0.0290069 0.578512 0.113178 -0.807784
0.0779975 -0.404834 0.437892 -0.590366 -0.487363 0.643386
-0.373657 -0.325372 -0.270809 -0.873392 0.0963689 -0.477387
0.23895 0.281549 0.0108973 0.427287 0.224515 -0.875796
0.301759 0.171493 0.327904 0.761953 -0.0665671 0.644202
0.276744 -0.469809 0.208062 0.243027 -0.955098 0.169484
0.0362831 -0.453109 -0.0138528 -0.351805 -0.869769 -0.346026
0.12828 -0.361848 -0.153842 0.0487455 -0.973364 -0.224024
-0.0388617 -0.194265 -0.555895 0.620763 0.297422 -0.725392
0.0719568 -0.169366 0.487109 -0.543395 0.816895 -0.193403
0.030755 0.0570895 -0.0637954 -0.0412337 0.988479 0.145633
-0.0547079 0.137287 0.10658 -0.971163 0.00401217 -0.238382
0.3052 -0.0775982 -0.210944 0.673346 0.182772 -0.716379
-0.124078 -0.201163 -0.529655 -0.732577 0.0919714 -0.674442
-0.189547 -0.31714 0.211831 -0.669031 -0.173637 0.722667
0.186622 -0.132699 0.367601 -0.540413 0.824339 -0.168579
0.232435 -0.45334 0.273512 0.171791 -0.922252 -0.346321
0.15754 -0.190098 -0.379378 0.714775 0.128057 -0.687531
0.460217 -0.204673 -0.102305 0.64715 0.22835 -0.727361
0.337464 0.446176 0.173266 0.949743 0.106698 -0.294286
0.16557 -0.233672 -0.383382 0.626274 0.238961 -0.742077
0.308919 -0.359639 0.229981 0.775523 -0.0862779 0.625396
-0.204885 -0.018933 0.217558 -0.0530777 0.97488 0.216313
0.380292 -0.427774 0.0504881 0.457414 -0.885329 -0.0834529
0.125614 0.342692 0.00665397 -0.0219179 0.104729 -0.994259
0.137109 0.0820096 -0.0524785 0.0341282 0.207704 -0.977596
-0.0152788 0.477141 0.161486 -0.0453215 0.971772 0.231526
-0.263943 -0.358715 -0.284731 0.0457597 -0.976324 -0.211416
-0.111817 -0.383317 -0.116638 0.0723687 -0.973467 -0.217081
0.121268 0.103462 -0.255292 -0.0502292 0.974626 0.218133
0.114956 -0.481265 -0.0204985 -0.231622 -0.837868 -0.494297
-0.18088 -0.179809 -0.381619 0.602723 0.447023 0.66098
0.453414 0.0045907 -0.0430756 0.714648 -0.0254945 0.699019
-0.241212 -0.331442 -0.382487 0.0670337 -0.970376 -0.232114
-0.0563772 0.0651961 -0.396742 0.358988 -0.921296 0.149467
-0.278345 -0.306725 0.0773781 -0.552326 0.770546 -0.318111
-0.11059 0.098419 -0.289094 -0.0310794 0.999339 0.0188737
-0.201924 -0.397484 -0.0545881 0.0587947 -0.973167 -0.222463
-0.131404 -0.371101 -0.193596 0.0879508 -0.964766 -0.247974
-0.425527 -0.217801 -0.131462 0.665763 0.143395 0.732255
0.0111905 0.143766 0.335715 -0.582451 -0.276356 0.764446
0.303208 0.0846625 -0.135929 -0.0474344 0.976263 0.211332
0.00925245 0.185009 0.0190314 -0.677974 0.115988 -0.725878
0.0776266 0.47678 0.179533 -0.0525851 0.974243 0.219282
0.124279 0.394442 0.228893 0.997861 -0.00421551 0.0652402
-0.454617 -0.0557312 0.00516505 0.50686 -0.850582 0.140013
-0.161961 -0.285285 -0.20861 0.0354686 0.999263 -0.014671
0.317919 -0.415406 -0.0602689 0.37569 -0.800087 -0.467673
0.526115 -0.253979 0.00374376 0.721217 -0.10897 0.684084
-0.375099 -0.387522 -0.155763 -0.144501 -0.970507 -0.192963
0.149227 -0.178595 0.434757 0.699895 -0.0649365 0.711288
-0.108537 0.0240183 0.0520458 -0.0920821 0.949646 0.299487
0.0110102 -0.463025 0.361694 -0.743615 -0.0797185 0.663838
-0.261224 -0.0936788 0.104651 -0.530174 -0.507816 -0.678998
-0.338816 -0.0676133 -0.204328 0.778569 -0.542326 0.315774
-0.0983644 -0.195616 -0.558956 -0.741939 0.106512 -0.661953
0.116538 -0.0216843 -0.284049 -0.549655 -0.318583 -0.772259
-0.0932093 -0.373491 -0.156836 0.138503 -0.93562 -0.324704
-0.351708 -0.251537 -0.281261 -0.649722 0.0999372 -0.753574
0.219374 -0.189794 0.360185 0.68116 -0.154881 0.715565
0.387663 -0.0402164 0.191775 0.677054 -0.153004 0.719853
0.193828 0.0721685 -0.108361 -0.164696 0.938185 0.304441
0.1435 0.460112 0.27437 -0.107561 0.968881 0.222934
-0.0612745 -0.364709 -0.178304 0.149287 -0.96543 -0.213677
0.0473733 -0.250168 -0.494595 0.652981 0.236791 -0.719407
-0.362857 -0.352019 0.0456719 -0.675284 -0.167339 0.718323
-0.115406 0.131163 -0.453838 -0.153444 0.949991 0.271978
-0.328593 -0.0606465 0.116992 -0.336717 -0.780076 -0.527354
-0.155175 -0.0354555 -0.420963 0.646461 -0.377641 0.66293
0.45884 -0.0253553 -0.0590281 0.610734 0.313034 -0.727333
0.00604758 -0.0411836 -0.16768 -0.618518 -0.419032 -0.664716
0.463559 0.0556762 0.0347414 -0.190034 0.949778 0.248614
-0.413099 -0.121051 -0.142426 0.732918 -0.299099 0.611041
-0.0552481 0.0563863 -0.438614 0.537638 -0.834139 0.123115
0.318671 -0.266847 -0.252689 0.687104 0.142308 -0.712486
0.249792 -0.42467 -0.0822098 0.204626 -0.792734 -0.574196
0.0286221 0.0838241 -0.200215 -0.079054 0.969531 0.231862
0.536843 -0.0390468 0.022918 0.751748 -0.0952347 0.652537
0.123967 0.0500837 0.366393 -0.112946 -0.259336 0.95916
-0.400126 -0.202545 -0.224038 -0.698297 0.0202529 -0.715522
0.235256 0.481757 0.180296 0.0880896 0.996082 0.00783273
0.40621 -0.385718 0.0113566 0.000776386 -0.987346 -0.158581
-0.0159196 -0.224341 -0.191974 -0.623104 0.709269 -0.329665
0.0974925 -0.344885 -0.24031 0.0830434 -0.995228 -0.0512319
-0.317314 -0.250928 -0.201753 0.465648 0.613357 0.637938
-0.256287 -0.171303 -0.317465 0.60244 0.275757 0.749015
0.166741 -0.322461 -0.346868 0.0578609 -0.985358 -0.160383
0.133704 0.148226 0.391254 -0.0883634 -0.167055 0.98198
0.101329 -0.0527168 0.407438 0.20935 -0.977741 0.0139766
-0.303632 -0.0544872 0.177523 -0.640971 -0.211525 0.737844
0.186192 0.130495 -0.0409816 0.152142 0.218658 -0.963868
-0.323992 -0.42301 0.0220325 0.095256 -0.964552 -0.2461
0.226605 0.402488 0.0308559 0.474078 0.13513 -0.870052
0.313832 -0.0133291 -0.188013 0.686093 0.14409 -0.713102
0.209915 0.0954581 -0.212039 -0.0420636 0.978446 0.202174
-0.108384 -0.411602 0.270618 -0.635936 -0.219577 0.739846
0.26609 -0.102171 0.325719 0.675184 -0.101132 0.730684
0.385156 0.0337109 -0.108157 0.608642 0.217342 -0.763097
0.21275 0.109174 0.370926 0.427987 -0.213145 0.878292
-0.230109 -0.2322 -0.415005 -0.719083 0.217877 -0.659886
0.349357 0.0656667 -0.052652 -0.148906 0.944464 0.29294
0.045182 -0.369519 -0.1374 0.048141 -0.975664 -0.213922
0.328145 -0.0184329 0.269606 0.657433 -0.327988 0.678385
0.204808 0.372826 0.0182446 0.281461 0.261941 -0.923129
0.156344 0.0175193 0.144069 -0.0970108 0.961378 0.257567
0.451134 -0.0512094 -0.0746783 0.739519 0.127089 -0.66103
-0.00149806 -0.405141 0.364586 -0.600413 -0.305799 0.738912
-0.0363226 0.0854703 0.265243 -0.915149 -0.0767864 0.395736
-0.459911 -0.0283774 -0.127446 -0.689674 0.0832321 -0.719321
-0.0894122 0.1278 -0.515116 -0.740794 0.102944 -0.663797
-0.348401 -0.0472971 0.0956528 -0.200099 -0.915794 -0.348255
-0.0704131 0.284331 0.21042 -0.999417 -0.0335576 -0.00627578
-0.330735 -0.405854 -0.0564608 0.0454245 -0.976765 -0.209443
-0.390924 -0.292711 -0.242943 -0.773574 0.110918 -0.623923
0.195116 0.433409 0.410763 -0.00469264 0.980554 0.196191
0.370789 0.0145433 -0.130405 0.670997 0.186435 -0.717639
-0.0599725 0.380193 0.157781 -0.959335 0.0294346 -0.280732
-0.0803758 -0.267727 -0.22454 -0.321681 0.946239 -0.0339672
-0.278702 -0.22426 0.159581 -0.631448 -0.224198 0.742299
-0.0151488 0.0293275 -0.22119 -0.28478 -0.792548 -0.539229
0.0921268 -0.0301688 -0.255609 -0.670323 -0.424039 -0.608981
-0.0606694 -0.153048 0.381516 -0.685054 -0.115668 0.719251
-0.397638 -0.0325465 0.0590236 0.146184 -0.979919 -0.135606
0.236347 -0.133584 -0.292695 0.635861 0.21198 -0.742122
-0.0785487 -0.419938 0.0530656 0.0287265 -0.978813 -0.202729
0.00740641 0.0496569 0.309227 -0.686009 -0.176466 0.70587
0.132083 -0.199144 -0.406484 0.712329 0.0441 -0.700458
0.417106 -0.0606914 0.0283348 0.26105 0.838783 0.477804
0.341689 -0.0116114 0.208902 -0.415896 -0.718508 -0.557474
-0.0335822 -0.272468 -0.572157 0.585183 0.26555 -0.766188
-0.186621 -0.369072 -0.209008 0.0362703 -0.989802 -0.137754
-0.188342 0.0264371 -0.16926 0.273049 -0.937036 -0.217732
0.0521327 0.0740434 -0.350759 0.0257444 -0.911176 -0.411213
-0.0453445 -0.162077 -0.0972433 -0.695127 0.263254 -0.668951
-0.452653 -0.277384 -0.0716445 0.458179 0.572444 0.679985
0.301765 0.401383 0.369462 0.714202 -0.100083 0.692747
-0.149274 -0.133354 0.0195005 -0.687833 -0.236897 -0.686124
-0.326344 -0.017964 -0.137181 0.48483 -0.856255 0.178233
-0.152689 0.0451699 -0.0606506 -0.0454438 0.976907 0.208775
-0.0490413 -0.399939 -0.0279095 0.0639978 -0.974505 -0.215045
-0.423031 -0.107997 -0.178098 -0.743185 0.105925 -0.660648
-0.206803 -0.0750549 0.0492865 -0.665178 -0.588829 -0.45915
0.158771 -0.0394869 0.383099 -0.0272875 0.979364 0.200255
-0.0781 -0.0968444 -0.518565 0.628302 0.132789 0.766553
0.323506 0.205365 0.0690298 0.865379 0.0538831 -0.498212
0.0733667 -0.0499342 -0.224121 -0.708004 -0.264504 -0.654804
-0.0028731 -0.453858 0.0409066 -0.425885 -0.877753 -0.219481
0.261601 -0.296449 -0.309542 0.752061 0.00915564 -0.65903
0.0451164 -0.230672 -0.340161 -0.372162 0.919606 -0.125782
-0.104706 -0.152401 -0.0232648 -0.651384 0.137163 -0.746248
0.00498759 -0.46861 0.149728 -0.331787 -0.943304 0.00972695
0.0935305 -0.489151 0.176387 -0.246423 -0.938634 0.241333
-0.0191796 0.0763861 -0.450271 0.435022 -0.896345 0.0855666
-0.22156 0.0224057 -0.380917 -0.674998 0.0432894 -0.736549
-0.17569 -0.154887 0.266845 -0.598274 -0.240834 0.764243
0.0792781 0.109546 -0.369063 0.631615 0.314796 -0.708495
0.476099 -0.0916166 0.0852792 0.665894 -0.045378 0.744665
0.362477 0.120062 0.151298 0.999588 -0.016334 -0.0235918
0.355759 0.112141 0.117547 0.924215 0.318956 -0.209983
-0.107071 -0.268786 -0.146935 -0.379953 0.857486 -0.34692
0.319223 -0.11676 0.257781 0.643073 -0.174125 0.745747
0.193026 0.17446 -0.0299491 0.283505 0.182338 -0.941476
-0.242248 -0.078585 -0.376733 -0.680995 0.14528 -0.717732
