ply
format ascii 1.0
comment Created by Open3D
element vertex 128
property double x
property double y
property double z
property double nx
property double ny
property double nz
end_header
0.17267 0.0394041 0.115401 0.0767305 0.465904 0.881502
0.349049 -0.143623 -0.293634 -0.111902 -0.972216 -0.205606
0.268753 0.235943 0.279771 -0.993699 0.108173 0.0293322
0.206576 -0.210122 -0.181744 -0.993699 0.108174 0.0293232
0.0304394 -0.0148973 -0.136214 -0.0318067 -0.0213066 -0.999267
-0.125484 0.0966521 -0.0538366 0.0816935 0.878198 -0.471269
0.189337 -0.309393 -0.399728 -0.9937 0.108172 0.0293248
0.31749 0.149416 0.00187766 0.0816933 0.878198 -0.471269
-0.204997 0.0306786 -0.127456 -0.00474109 0.220828 -0.975301
0.376167 0.0982982 0.233486 0.0659762 0.353082 0.933263
0.243611 0.0998287 -0.0701198 -0.993699 0.108174 0.0293232
0.334071 0.172619 0.301716 -0.11197 -0.946717 -0.301977
0.202775 -0.163441 -0.482759 -0.993699 0.108176 0.0293234
0.364298 0.0479649 0.456328 0.275086 -0.579873 0.76686
-0.00759967 -0.0269254 0.127054 -0.0226095 -0.449731 0.892878
0.263202 0.0678762 -0.159481 0.0816936 0.878198 -0.471269
0.0611247 0.0792945 0.103424 0.0873839 0.582656 0.808007
-0.225356 0.146744 0.0390503 0.105779 0.991661 -0.0736177
0.391761 0.017975 -0.132222 0.924327 0.298225 -0.23808
0.273496 -0.0200052 -0.321462 0.0816936 0.878198 -0.471269
0.350182 -0.0941135 0.199943 0.328005 -0.846693 0.418955
0.364273 -0.273393 -0.27402 0.976226 -0.214861 0.0285855
-0.393412 0.10613 -0.0823127 -0.9937 0.108172 0.0293256
-0.0539633 -0.116216 -0.0291745 -0.105779 -0.991661 0.0736192
0.428623 0.1507 0.328088 0.9937 -0.108173 -0.0293212
0.329975 -0.297165 -0.199127 0.505391 -0.780287 0.368417
0.218138 -0.102793 -0.185867 -0.993699 0.108174 0.0293228
0.200161 -0.215499 -0.379307 -0.993699 0.108174 0.0293233
0.268402 -0.351955 -0.27774 -0.0816933 -0.878198 0.471269
0.24435 -0.266512 -0.447622 -0.0767306 -0.465904 -0.881502
0.361155 -0.0832887 -0.36563 0.805797 0.491706 -0.330024
-0.374646 0.0305407 0.0696723 -0.793908 0.5634 -0.22867
0.378115 -0.0431882 -0.260905 0.883237 0.378442 -0.276901
0.272743 0.242413 0.391096 -0.993699 0.108174 0.0293232
0.305364 -0.119504 -0.479136 0.207743 0.548003 -0.810269
0.328022 -0.243036 -0.0839909 0.373809 -0.833064 0.407764
0.412903 0.0928811 0.0574745 0.993037 0.0435519 -0.109458
0.325757 -0.216488 -0.352505 0.0746706 0.443873 0.892973
0.380281 -0.0339124 0.287517 0.626032 -0.710621 0.321095
-0.229955 0.0316839 0.142095 0.0264572 -0.0278354 0.999262
0.266421 -0.147369 -0.338167 -0.0602332 -0.736075 0.674215
0.259466 0.128357 0.361932 -0.9937 0.108171 0.0293231
0.0399428 0.0804818 -0.0552932 0.0816935 0.878198 -0.471269
-0.027805 0.0491632 -0.113835 0.0486046 0.651676 -0.756938
0.136405 -0.128108 -0.0782886 -0.109773 -0.88659 -0.449342
0.288775 -0.206344 -0.00286632 -0.0816933 -0.878198 0.471269
0.395052 -0.0770298 0.124684 0.935915 -0.338482 0.0974326
0.241875 0.013016 0.191315 -0.9937 0.10817 0.0293272
0.319412 0.0333071 -0.213978 0.106056 0.875279 -0.471847
0.108143 -0.113791 0.0188924 -0.0816935 -0.878198 0.471269
0.403395 0.172776 0.11902 0.805797 0.491706 -0.330024
0.418445 0.100852 0.167066 0.993702 -0.108143 -0.0293433
0.279977 -0.220515 -0.26011 0.0403113 0.589081 -0.807068
-0.235225 -0.0696649 -0.0909468 -0.0952484 -0.677359 -0.729461
-0.0288508 0.0631354 0.120399 0.0767305 0.465904 0.881502
-0.323831 -0.0869536 -0.0227662 -0.105779 -0.991661 0.0736192
-0.188141 -0.100838 -0.0182961 -0.101639 -0.980019 0.170972
0.369926 -0.230861 -0.168382 0.951657 -0.297956 0.0746427
0.0510776 -0.0974052 -0.102355 -0.0919221 -0.636921 -0.76543
0.234192 0.104005 0.0289685 -0.526509 0.850169 -0.00137186
0.268438 0.256114 0.194667 -0.993699 0.108174 0.0293232
-0.355183 0.0688083 0.143199 0.055875 0.25134 0.966285
0.356927 -0.139055 0.0986819 0.546952 -0.758876 0.353483
0.0258696 0.119124 0.0279819 0.105779 0.991661 -0.0736151
0.225792 -0.167549 0.0585095 -0.0816934 -0.878198 0.471269
-0.144475 -0.0535547 -0.110376 -0.0767305 -0.465904 -0.881502
-0.210935 0.110294 -0.0432288 0.0816935 0.878198 -0.471269
0.386858 -0.12171 -0.0823046 0.993699 -0.108173 -0.0293234
0.408153 0.0185067 0.122057 0.993699 -0.108176 -0.0293217
0.209749 -0.303786 -0.198146 -0.0816933 -0.878198 0.471269
0.350682 0.0716559 0.307373 0.0854169 0.900331 -0.426741
0.384014 -0.119158 -0.188095 0.9937 -0.108168 -0.0293267
0.228439 -0.00521269 -0.196748 -0.993699 0.108174 0.0293232
0.407097 -0.0121291 0.19931 0.993699 -0.108174 -0.0293232
0.417186 0.268723 0.296063 0.777202 0.535018 -0.33123
0.210373 -0.115018 -0.403901 -0.9937 0.108173 0.0293226
0.397287 -0.0522138 0.0147277 0.993699 -0.108176 -0.0293217
0.343217 0.301232 0.358657 0.110751 0.90759 0.404986
0.189543 -0.330741 -0.313994 -0.993699 0.108174 0.029324
-0.337077 0.156304 0.0255989 0.0965202 0.95894 -0.266681
-0.384519 0.0186274 -0.118586 -0.838353 -0.448416 0.309978
0.18869 -0.0773772 0.0978829 -0.0673727 -0.785616 0.615035
0.422513 0.080947 0.378355 0.993699 -0.108174 -0.0293232
0.199053 0.0361088 -0.108123 0.0673727 0.785616 -0.615035
0.430112 0.194223 0.253924 0.993037 0.0435519 -0.109458
0.264358 0.0789369 0.268309 0.111587 0.930419 0.349098
0.350704 0.18668 0.43802 0.0767303 0.465904 0.881502
0.373948 0.00320584 0.376287 0.462608 -0.799821 0.382465
0.00616275 -0.0934884 0.0390481 -0.0816935 -0.878198 0.471269
0.127843 0.0784977 -0.0437532 0.0816935 0.878198 -0.471269
0.0867042 -0.00621489 0.132578 0.0211201 -0.0762141 0.996868
-0.113908 0.093663 0.111565 0.0787122 0.487316 0.869671
0.258315 0.162906 0.195466 -0.993699 0.108174 0.0293233
0.388602 0.230601 0.186157 0.519749 0.735792 -0.434133
0.24829 0.0834128 0.149 -0.993699 0.108174 0.0293233
-0.287565 0.133186 0.0996008 0.100937 0.74975 0.653978
-0.0453516 -0.0349971 -0.128197 -0.0661528 -0.354895 -0.932563
0.28423 -0.0627253 -0.399209 0.0816936 0.878198 -0.471269
0.194524 -0.136423 -0.00633179 -0.348916 -0.848303 0.398297
-0.152426 -0.0623992 0.069491 -0.0816935 -0.878198 0.471269
-0.276762 0.0672009 -0.113368 0.0332601 0.534465 -0.844536
-0.324372 -0.0176315 0.117617 -0.0582692 -0.722124 0.689306
0.149346 -0.0253066 -0.139778 -0.0304894 -0.0091426 -0.999493
0.231157 -0.0846398 0.188338 -0.993699 0.108174 0.0293229
0.258931 -0.0465164 0.289795 -0.0816934 -0.878198 0.471269
0.417608 0.240623 0.37312 0.77259 0.242917 0.586597
-0.0719668 0.123981 0.00736637 0.0904718 0.928625 -0.359819
-0.405671 -0.034663 0.0216374 -0.993699 0.108174 0.0293232
0.218296 -0.079234 -0.267421 -0.993699 0.108174 0.0293232
0.340696 -0.238988 -0.4408 0.666775 -0.399604 -0.629069
-0.135472 0.0147495 0.138853 0.0156938 -0.124758 0.992063
0.201385 -0.23103 -0.280513 -0.993699 0.108173 0.0293255
-0.299077 0.113376 -0.0527644 0.0816935 0.878198 -0.471269
-0.069957 -0.0813721 0.0484312 -0.0816935 -0.878198 0.471269
0.247223 0.0204604 0.345073 -0.993699 0.108174 0.0293231
0.263097 0.104377 0.478036 0.0318067 0.0213067 0.999267
0.345692 -0.339108 -0.338857 0.813352 -0.580728 0.0348489
-0.311083 -0.0436129 -0.101128 -0.0767304 -0.465904 -0.881502
0.384823 -0.139038 0.00753219 0.935915 -0.338482 0.0974326
0.211939 -0.19182 -0.0675323 -0.993699 0.108174 0.0293232
0.336012 0.106703 -0.0737054 0.15457 0.867861 -0.472149
0.402428 0.0421508 -0.0539326 0.979493 0.129969 -0.153953
-0.408518 -0.066682 -0.0660833 -0.108532 -0.863455 -0.492611
-0.109673 0.0250322 -0.129112 0.000759266 0.268124 -0.963384
-0.251161 -0.0659992 0.0456669 -0.0816935 -0.878198 0.471269
0.369026 -0.154023 -0.430328 0.963254 0.134116 -0.232711
0.259747 -0.365168 -0.379943 -0.109773 -0.886586 -0.44935
0.257189 0.180533 0.0923 -0.993699 0.108176 0.0293216
