ply
format ascii 1.0
comment Created by Open3D
element vertex 833
property double x
property double y
property double z
property double nx
property double ny
property double nz
end_header
0.30413 0.317912 -0.168859 0.651758 0.460323 -0.602756
-0.365228 -0.268409 0.0704393 -0.585536 -0.534409 0.609553
0.278061 -0.0914053 -0.586146 0.516254 0.664468 -0.540337
0.569656 0.180747 -0.0286291 0.55251 0.582258 -0.596413
-0.434741 -0.443496 -0.102298 -0.880225 0.144272 0.452095
0.222008 0.316431 0.291103 0.411679 0.434822 0.800906
-0.0241645 -0.100877 -0.551866 -0.33198 -0.521157 -0.786247
-0.301293 -0.133643 -0.347326 -0.436488 -0.275147 -0.856605
0.319339 0.424911 0.189825 0.447205 0.437443 0.780161
0.102326 0.661299 0.128593 -0.646263 0.742706 0.175305
0.240166 0.485539 -0.0777978 0.609466 0.532311 -0.587534
-0.479724 0.0781351 -0.212185 -0.697701 0.715816 -0.0286382
0.177931 0.484847 -0.139602 0.579203 0.573628 -0.579201
0.173415 0.299168 -0.316864 0.612917 0.542159 -0.574802
-0.267057 -0.422805 0.0948444 -0.6133 -0.484976 0.623427
-0.117682 0.444957 0.0315404 -0.666912 0.742772 -0.0593163
-0.00457047 0.491323 -0.317889 0.303455 0.805114 -0.509615
-0.188159 0.351625 -0.464772 -0.71691 0.694952 0.0555143
-0.111462 0.441316 -0.226845 -0.719555 0.694181 0.018789
-0.00207994 0.360939 -0.435555 0.55411 0.627668 -0.546804
0.0937808 -0.46673 -0.0555416 0.694449 -0.718581 0.0371881
-0.180803 0.101816 0.0266781 0.286568 0.3994 0.870838
0.200648 -0.359108 0.0029022 0.751109 -0.657451 -0.0599442
-0.493154 0.0679944 -0.169644 -0.68709 0.723865 -0.0626655
-0.52233 -0.0355724 -0.290042 -0.413002 -0.401774 -0.817317
-0.246459 -0.511569 -0.210244 0.244331 -0.795248 -0.554873
0.650072 0.0818514 -0.00613909 0.889949 -0.330199 -0.314579
0.204921 -0.358664 -0.0698863 0.752881 -0.65798 -0.0152787
0.234749 -0.0864219 0.191792 -0.558681 -0.614815 0.556667
0.314991 -0.250086 0.0136284 0.654074 -0.721352 0.22768
-0.346042 0.0110788 0.160756 0.50873 0.353182 0.785147
-0.0855847 0.466565 -0.159056 -0.56731 0.820582 -0.0693147
-0.24787 -0.0815954 0.154662 0.322233 0.478603 0.816765
0.22447 -0.343454 -0.113174 0.616598 -0.779561 0.109958
0.307282 -0.281429 -0.464874 0.700408 -0.713081 -0.0307375
-0.43918 0.129868 -0.000567019 -0.683254 0.727121 -0.0667854
-0.374635 -0.142736 -0.310207 -0.470797 -0.438035 -0.765817
0.280357 -0.290515 -0.144478 0.81825 -0.562689 -0.117675
-0.393427 -0.397967 -0.175563 -0.782245 0.543486 -0.304493
0.02198 0.582097 0.0994079 -0.641863 0.7642 -0.0633295
-0.457689 0.0872901 0.161274 -0.00382651 0.731378 0.681962
-0.132809 -0.61344 -0.0146446 -0.485331 -0.614221 0.622243
0.0674861 0.630453 0.0606052 -0.663532 0.742188 -0.0942403
-0.374115 0.0170456 -0.388102 -0.428032 -0.406219 -0.807326
-0.37637 0.0388655 0.161168 0.497162 0.27013 0.824536
0.121318 0.299703 -0.373771 0.67493 0.480988 -0.559571
0.0907547 0.550503 -0.167482 0.59063 0.557203 -0.583679
-0.302043 -0.235545 -0.292502 -0.350286 -0.476435 -0.806418
0.611654 0.0568448 0.213055 0.761736 -0.386517 0.519965
0.302969 0.0836381 0.42319 0.541856 0.245947 0.80368
-0.121355 0.0616639 -0.540718 -0.221707 -0.457625 -0.861061
-0.487584 -0.17296 0.0386379 -0.648535 -0.471615 0.597479
-0.362856 0.0779722 -0.426767 -0.282564 -0.337434 -0.89794
-0.046742 0.517424 0.13085 -0.696663 0.716505 -0.0357927
-0.0760707 -0.0975086 -0.488226 -0.772432 0.622025 -0.128192
0.286945 -0.136525 0.202261 -0.638469 -0.529969 0.558113
0.173057 -0.401871 -0.313132 0.704858 -0.709143 0.0170753
-0.242107 -0.0354484 0.130175 0.430997 0.390993 0.813244
0.273474 0.0690953 -0.440203 0.424576 0.641739 -0.638675
-0.185041 0.277402 -0.617204 -0.383229 -0.418765 -0.823269
0.234997 -0.332656 -0.203151 0.709531 -0.704633 0.0076711
-0.00105795 0.561201 0.0820379 -0.673772 0.729185 -0.119667
0.336967 -0.243348 -0.17233 0.643599 -0.755852 0.120285
0.612013 0.0580794 -0.084028 0.934481 -0.0907429 -0.344255
0.535974 0.0671255 -0.171427 0.637071 0.490157 -0.594884
0.52622 -0.0441597 -0.0309494 0.650171 -0.754606 0.0885841
0.526352 0.165363 0.222245 0.461383 0.372855 0.80505
-0.193446 0.058455 -0.505956 -0.481886 -0.357407 -0.800029
-0.231782 0.319282 -0.266173 -0.645747 0.758143 -0.0907181
0.222728 0.355495 0.275817 0.405348 0.37168 0.835193
0.470528 0.162592 -0.147229 0.607815 0.5441 -0.578374
-0.385866 -0.279569 -0.231618 -0.389228 -0.488911 -0.780684
-0.0543446 -0.30283 0.218988 0.777335 -0.156991 0.609183
-0.208376 -0.472517 0.072369 0.32588 -0.883882 0.335492
0.277044 0.550347 0.143046 0.405723 0.391918 0.825706
0.168993 0.651374 0.00895866 0.606593 0.529225 -0.593267
-0.0802857 0.413463 -0.471841 0.297643 0.748238 -0.592915
-0.658466 -0.139523 -0.172989 -0.665436 -0.254484 -0.701736
0.0535 0.315904 -0.427403 0.554299 0.641508 -0.530302
-0.0183412 -0.240885 -0.482291 -0.45837 -0.37001 -0.808078
-0.146848 -0.0480519 -0.46714 -0.552107 -0.249407 -0.795597
-0.0525951 -0.150359 -0.510509 -0.250075 -0.390479 -0.885996
0.439205 -0.0627573 0.381944 0.132307 0.199604 0.970903
0.203304 0.182236 0.417077 0.154839 0.654557 0.739987
0.258979 0.331376 0.263997 0.455528 0.381557 0.804307
-0.315977 -0.568389 -0.0906244 -0.165661 -0.808988 0.563999
0.400717 -0.187807 -0.505898 0.874652 -0.455883 -0.164783
0.248794 0.193242 0.397555 0.343694 0.382293 0.857745
-0.273925 0.285451 -0.105415 -0.697803 0.709389 0.0991918
0.208275 0.639652 0.131839 0.38818 0.44422 0.807456
-0.110447 -0.0794315 -0.469316 -0.382561 -0.384687 -0.840037
0.35339 -0.208925 0.0428263 0.691841 -0.716294 0.0909918
-0.0268605 -0.185841 -0.504811 -0.412816 -0.459698 -0.786296
-0.288003 0.251105 -0.397258 -0.573045 0.787748 -0.225993
0.169251 -0.0699134 0.203403 -0.303681 -0.775935 0.552904
0.5916 0.0482624 0.238735 0.676934 -0.135633 0.723439
0.135063 -0.435188 -0.249488 0.825763 -0.527666 -0.199209
0.166264 0.115742 -0.50374 0.658963 0.487019 -0.573219
0.210247 0.34182 -0.249615 0.510571 0.595533 -0.620208
0.591541 0.027529 0.201667 0.690029 -0.722777 0.0381205
0.284264 -0.297898 -0.389528 0.67496 -0.734578 0.0694554
0.174527 0.657291 0.135061 0.352336 0.463495 0.813038
-0.292275 0.190047 -0.519704 -0.242511 -0.446835 -0.86112
0.13682 -0.438164 -0.313776 0.671437 -0.739142 0.0533127
0.358474 0.31586 -0.117419 0.623869 0.533348 -0.571251
0.077954 -0.492355 -0.202155 0.756799 -0.643736 -0.1134
0.102357 0.494244 -0.210743 0.634776 0.527279 -0.564833
-0.132609 0.420082 -0.205661 -0.687662 0.723428 -0.0614244
-0.346266 -0.513608 -0.175795 -0.395753 -0.45822 -0.795873
-0.261806 0.283509 -0.409011 -0.663928 0.745982 -0.0520641
-0.0651094 0.0716151 0.0342311 -0.608129 -0.49736 0.618718
-0.0982088 0.196224 -0.620836 -0.383993 -0.435504 -0.814178
-0.488358 0.0262062 0.199429 -0.233872 -0.174639 0.956455
-0.253539 0.295772 0.0258635 -0.862995 0.195792 0.465731
0.307294 0.254439 -0.223949 0.626336 0.527604 -0.573879
0.602921 0.176207 0.17381 0.432433 0.451977 0.780204
0.394842 -0.108332 0.333693 -0.510847 -0.63228 0.582458
0.239354 0.49042 0.192009 0.329825 0.506438 0.796703
-0.132329 -0.533276 -0.224307 -0.380449 -0.429796 -0.818861
0.234717 -0.00633873 0.331089 0.0773573 -0.879507 0.469556
0.366906 -0.200775 0.00198269 0.708734 -0.705424 -0.00851853
-0.173335 0.348983 -0.602862 -0.223078 0.911259 -0.346183
-0.0466808 0.276626 -0.573072 0.686717 0.41205 -0.598861
0.0799114 -0.303325 -0.444959 -0.278849 -0.319937 -0.905474
-0.404783 0.162901 0.0191296 -0.713564 0.69951 0.0388923
-0.0268898 -0.508848 0.184641 -0.447461 -0.676928 0.58442
0.368996 0.198722 0.326941 0.360994 0.497013 0.789089
0.108007 0.619537 -0.0772059 0.19677 0.78516 -0.587202
0.0855912 -0.215659 -0.501582 0.643673 -0.748488 -0.15953
-0.248427 0.308282 -0.070776 -0.712212 0.701631 0.0216251
0.286091 0.228186 0.357019 0.379515 0.476463 0.793065
0.0382608 -0.334482 -0.411284 -0.388279 -0.360323 -0.848178
-0.277087 0.254302 -0.534629 -0.860563 0.472703 -0.189691
-0.0501718 -0.357104 -0.356221 -0.397389 -0.423104 -0.814288
-0.135824 -0.431344 -0.272878 -0.406106 -0.441815 -0.799924
0.235979 0.648937 0.0716047 0.671962 0.534659 -0.512453
-0.550248 0.0128886 -0.157851 -0.735105 0.677765 0.0160078
-0.0873734 -0.300975 0.242029 0.614538 0.247837 0.748946
0.568497 0.0785029 -0.123479 0.531973 0.603609 -0.593853
0.0830559 0.15962 0.274179 -0.510088 -0.616563 0.599717
-0.0164513 0.144109 -0.628216 -0.266179 -0.0819944 -0.96043
-0.232828 -0.511177 -0.0162996 -0.570812 -0.5478 0.611628
-0.171472 -0.570633 -0.181526 -0.404608 -0.420654 -0.811999
-0.00901274 -0.566885 -0.0300629 0.681921 -0.727645 0.0742711
0.121754 -0.44404 -0.375069 0.230741 -0.788958 -0.569477
-0.43337 0.111667 -0.346935 -0.741521 0.67 0.0353054
-0.407673 -0.160776 -0.284646 -0.335887 -0.441044 -0.832262
0.234593 0.215542 -0.34542 0.669157 0.434592 -0.602792
0.141518 0.444541 0.263938 0.366872 0.437523 0.820962
0.626452 0.0626771 -0.0568641 0.910764 -0.2255 -0.345916
-0.399944 -0.329256 -0.0191646 -0.626061 -0.466817 0.624603
-0.199593 -0.180845 0.194756 -0.719974 0.613739 0.323978
0.0853832 -0.48457 -0.268611 0.641836 -0.760309 0.0998849
-0.140985 -0.414572 -0.309055 0.377807 -0.831208 -0.407866
0.16083 0.00845134 0.279848 -0.546594 -0.591938 0.592321
0.0873193 -0.0638965 0.136494 -0.4944 -0.629714 0.599191
0.104847 0.591346 -0.116818 0.701933 0.450197 -0.551917
-0.0205007 0.54121 0.116828 -0.686617 0.725375 -0.048859
-0.12457 0.367467 -0.559824 0.422174 0.731826 -0.534977
0.369996 0.280856 -0.137549 0.580573 0.58056 -0.570862
0.0149617 -0.0845663 -0.57801 -0.464366 -0.404657 -0.787792
0.492311 0.00909914 0.317866 0.342771 0.56543 0.750198
0.112648 -0.151392 0.0554475 0.128383 -0.899186 0.41831
-0.0981038 -0.480873 0.140048 -0.61564 -0.50439 0.605457
-0.511704 0.0587595 0.026153 -0.677376 0.73358 -0.0549743
0.185049 0.0717105 -0.525697 0.586241 0.558551 -0.586807
0.634379 0.0617089 0.0560253 0.704278 -0.705675 -0.0775604
-0.350064 0.124611 0.0987803 0.465329 0.391992 0.793607
-0.00435636 -0.0499253 -0.575816 -0.753562 0.121491 -0.646052
0.473976 0.315312 0.00666158 0.487318 0.660638 -0.571033
-0.214435 -0.0588153 0.131043 0.372452 0.470458 0.799968
0.024232 -0.0228842 -0.600029 -0.815433 0.0928119 -0.571362
0.404073 0.31397 0.254651 0.400447 0.421122 0.813817
0.117896 0.548248 -0.139488 0.599566 0.550229 -0.581179
0.205768 -0.368562 -0.254015 0.714134 -0.699687 -0.0212427
0.527963 0.379771 0.145864 0.672561 0.642451 0.367312
0.533735 -0.0257258 0.167389 0.683686 -0.725945 0.0746877
0.490274 0.103354 0.272108 0.358828 0.388824 0.848562
0.350849 -0.116745 0.289116 -0.649995 -0.46152 0.603743
0.144983 -0.435333 -0.354982 0.695877 -0.711687 -0.0962082
0.211504 -0.0589172 0.21218 0.636364 -0.767325 0.0790762
0.257332 -0.315915 -0.235887 0.652459 -0.753443 0.0813732
0.11898 0.492916 0.252338 0.344035 0.451635 0.823205
0.250853 0.590604 0.131426 0.381485 0.300184 0.874276
0.33424 -0.255382 -0.455074 0.630707 -0.769229 0.102446
0.460622 0.425635 0.0886741 0.666368 0.453987 -0.591481
0.403873 -0.160575 0.0804647 0.672426 -0.73226 0.107882
0.486683 -0.10009 -0.262979 0.717371 -0.696658 -0.00675471
-0.1014 0.440324 -0.333343 -0.698345 0.715498 -0.0194399
-0.406041 0.104451 -0.417687 -0.534789 -0.311157 -0.78561
0.0119172 0.570279 0.241968 -0.164722 0.947118 0.275379
0.0643632 0.0787028 0.173523 -0.632247 -0.518011 0.576132
0.399857 0.473278 0.122243 0.497395 0.514627 0.698396
0.233967 0.643202 0.111125 0.57516 0.610191 0.544846
0.0602004 -0.495358 0.0574649 0.706446 -0.707454 -0.0210459
-0.55251 -0.201419 -0.189607 -0.47949 -0.496873 -0.72333
0.135792 -0.133687 0.0866571 0.229293 -0.894444 0.383921
-0.022126 0.348714 -0.474711 0.633259 0.50786 -0.584005
0.478881 0.344903 0.0333082 0.625702 0.521282 -0.580312
0.500801 0.403222 0.151313 0.66542 0.599685 0.444515
-0.100548 0.465515 0.140933 -0.643148 0.761511 -0.0803822
0.371465 -0.217802 -0.517352 0.694792 -0.717659 0.0472162
0.00107625 -0.410385 -0.350679 -0.412225 -0.409788 -0.813722
0.361251 -0.193786 0.182515 0.372516 -0.886521 0.274432
0.0300513 -0.0731542 0.0698504 -0.625627 -0.501176 0.597841
0.242022 -0.338097 -0.349128 0.699903 -0.714107 -0.0137096
0.46321 0.193952 0.25933 0.78087 -0.502711 0.370842
0.180998 0.269839 -0.349054 0.570256 0.581166 -0.580563
-0.227318 -0.589248 -0.0808315 -0.514952 -0.590589 0.621313
0.135146 0.370337 0.303678 0.387172 0.427939 0.81668
0.450121 -0.123311 -0.0676943 0.711793 -0.702384 0.00271765
-0.655304 -0.142993 -0.0993856 -0.691771 -0.387534 0.60932
0.351784 0.48842 0.0424385 0.449273 0.648341 -0.614661
-0.310118 -0.373167 0.0995846 -0.557903 -0.557439 0.614821
-0.322862 0.0805428 -0.452228 -0.436803 -0.412151 -0.799584
0.165065 -0.403102 -0.181267 0.696179 -0.716666 0.0415351
-0.192413 0.351341 -0.348328 -0.697972 0.715391 -0.0324143
-0.490761 -0.0660406 0.126481 -0.513815 -0.54354 0.663746
-0.495035 -0.280033 -0.0670326 -0.586649 -0.531964 0.61062
0.299091 -0.272038 -0.0193293 0.637685 -0.761401 0.11673
-0.228158 0.332363 -0.0048682 -0.769131 0.632623 0.0906963
0.165739 0.530834 -0.102178 0.637607 0.484421 -0.598994
-0.0684522 0.355426 0.303579 -0.664514 -0.450827 0.595967
0.585215 0.293628 0.110729 0.725152 0.687385 0.0406893
-0.153576 0.39217 -0.290516 -0.729656 0.679285 0.0785742
-0.536069 0.0226331 -0.205731 -0.685043 0.726478 -0.0542768
0.133142 -0.4146 0.122913 0.729877 -0.398427 0.555459
0.199838 0.163796 -0.418387 0.557435 0.573549 -0.600257
-0.378962 -0.447581 -0.0309917 -0.56241 -0.550272 0.617167
-0.533554 0.0419128 0.121904 -0.722107 0.684524 0.0999436
-0.00156929 0.107261 -0.625908 -0.358841 -0.152143 -0.920915
0.0547156 0.545667 -0.206282 0.50024 0.651062 -0.570857
0.013029 0.202035 0.23886 -0.594734 -0.553142 0.583373
0.0438478 -0.433298 -0.35752 -0.4143 -0.342552 -0.843216
-0.566717 -0.240745 -0.10084 -0.680208 -0.446756 0.581142
-0.317261 -0.442697 0.0297681 -0.570132 -0.548289 0.611824
0.308201 -0.268175 -0.321347 0.707487 -0.706386 0.0219271
0.485139 0.0409701 -0.243246 0.676884 0.484832 -0.553864
0.491572 -0.0751721 -0.0435038 0.672658 -0.729662 0.12298
-0.33883 0.224127 -0.0569082 -0.667849 0.741624 -0.0630187
0.546605 0.249437 0.166614 0.410046 0.478041 0.776749
0.432795 0.188004 -0.156193 0.63567 0.471608 -0.611154
0.420697 -0.13879 0.161845 0.612468 -0.779457 0.131641
-0.0592164 -0.559085 -0.241027 -0.395341 -0.432845 -0.810155
-0.00256659 -0.549843 0.0501586 0.508332 -0.847058 0.155214
0.215964 0.555746 -0.0319982 0.640049 0.52338 -0.562504
0.114709 -0.224304 0.0557531 0.311717 0.435309 0.844593
0.176446 -0.13551 -0.586139 0.658554 -0.727258 -0.193398
0.363841 -0.201765 0.0766081 0.657378 -0.744818 0.11446
0.165496 0.692986 0.050439 0.186217 0.827749 -0.529297
-0.383976 -0.398373 -0.00570601 -0.79759 -0.290938 0.528399
0.592919 0.0154686 0.0563756 0.753888 -0.655843 -0.0390245
-0.0286069 -0.454159 0.225683 -0.212906 -0.254611 0.943315
-0.0267262 0.2938 -0.530302 0.691404 0.481566 -0.538568
0.188462 0.337987 0.296152 0.444509 0.309127 0.840745
-0.1415 0.27742 -0.632305 0.0992239 -0.0476687 -0.993923
0.0478365 -0.0294398 0.13062 -0.556809 -0.584157 0.590529
-0.431165 0.132205 -0.1403 -0.700968 0.713004 -0.0164
-0.375326 -0.170463 0.152574 -0.635144 -0.508169 0.581684
-0.317528 -0.537572 -0.175896 -0.365582 -0.522291 -0.77043
-0.171177 -0.361927 0.240622 -0.579203 -0.541611 0.609247
0.423631 0.0799241 -0.278655 0.58376 0.556025 -0.59166
-0.274616 -0.107907 0.18247 0.407367 0.417675 0.812157
0.374245 0.214818 -0.194941 0.57451 0.583122 -0.574375
-0.540051 -0.290787 -0.115924 -0.750996 -0.606258 0.261639
-0.307697 0.252704 -0.0519952 -0.636881 0.766159 -0.085928
0.487555 0.164287 0.238075 0.395946 0.428323 0.81226
0.507857 -0.0108097 -0.269153 0.520869 0.644845 -0.559348
0.62667 0.232681 0.136418 0.428212 0.636992 0.640996
0.323111 -0.193121 0.17549 -0.366189 -0.742057 0.561477
-0.0643354 -0.619791 -0.0894886 0.675764 -0.731371 0.0918632
-0.196889 -0.47396 -0.245596 0.388474 -0.86331 -0.322155
0.0934366 -0.361597 0.137981 0.428847 0.316348 0.846176
0.356539 0.0846331 0.345498 0.27626 0.517255 0.810017
-0.338558 -0.243929 0.115463 -0.624197 -0.491993 0.606894
-0.33082 -0.409232 0.0379911 -0.467977 -0.631713 0.61801
0.503258 -0.0472126 0.31147 0.799085 -0.512643 0.314102
-0.204126 0.192457 0.0187649 -0.432516 -0.175307 0.884419
-0.032019 0.532332 0.28081 -0.362393 0.819905 0.443202
-0.635081 -0.0689664 -0.0496529 -0.856782 0.472074 0.207536
0.273672 0.384589 -0.138035 0.587703 0.557588 -0.58626
0.457254 0.0816924 -0.238032 0.720102 0.49933 -0.481791
-0.271685 -0.283687 -0.301482 -0.778338 0.501491 -0.377753
0.411642 -0.0378996 0.378763 0.228832 0.263653 0.937082
-0.0785639 -0.634904 -0.124783 0.662838 -0.733792 0.148979
0.167969 -0.406441 -0.244788 0.59201 -0.769919 0.238221
0.637728 0.151552 0.00886581 0.629701 0.521393 -0.57587
-0.0659147 0.141023 0.107287 -0.690193 -0.405697 0.599203
-0.213517 0.17197 -0.552279 -0.367927 -0.433937 -0.822392
0.230665 0.11384 -0.443933 0.570203 0.571233 -0.590391
0.2018 0.405468 0.251138 0.398929 0.333941 0.854013
-0.0250869 -0.322546 -0.40419 0.470041 -0.85607 -0.214957
-0.155239 0.0515006 -0.516986 -0.425821 -0.369823 -0.825777
0.223309 0.576367 0.155963 0.471185 0.315478 0.823686
0.108623 -0.462689 -0.34107 0.542587 -0.838262 -0.0539969
0.0752397 -0.284976 0.10249 0.448617 0.48044 0.753605
0.157206 0.437226 -0.201805 0.655661 0.442373 -0.611894
0.517923 0.340503 0.185019 0.399109 0.426573 0.811633
-0.264779 0.29233 -0.142607 -0.767765 0.639156 0.0448969
-0.566354 -0.064504 -0.254545 -0.541034 -0.46239 -0.70248
0.314215 -0.242639 0.0930568 0.261464 -0.86651 0.425203
-0.22942 -0.302834 0.242767 -0.636335 -0.467867 0.613334
-0.128311 -0.0649352 0.0901934 0.404249 0.426093 0.809337
0.0886513 0.555587 0.23102 0.509361 0.405439 0.759059
-0.0365038 0.399012 -0.441472 0.571481 0.57218 -0.588234
0.0816097 0.375882 0.330112 0.452634 0.46633 0.760039
0.479121 -0.0797378 0.314037 0.710664 -0.697255 -0.0937631
0.302292 0.298942 0.265348 -0.672951 0.739168 0.0277036
-0.288134 -0.536892 -0.0387082 -0.0383537 -0.909465 0.414008
-0.210407 -0.625488 -0.12583 -0.598347 -0.723628 -0.344011
-0.442699 -0.226198 -0.237975 -0.396697 -0.412317 -0.820138
0.238624 -0.279644 -0.527169 -0.427476 -0.364479 -0.827297
-0.0833857 0.487852 0.168807 -0.660581 0.744016 -0.100362
0.548213 -0.0218734 0.0446711 0.71167 -0.702446 -0.00974434
0.0255168 0.337816 -0.439474 0.556464 0.633641 -0.537446
0.18768 0.691835 0.109989 0.537288 0.621003 0.570681
-0.354562 -0.521935 -0.0814635 -0.555827 -0.568474 0.606542
-0.411144 -0.156818 0.131387 -0.702795 -0.408926 0.582115
-0.284502 -0.214686 -0.316241 -0.409332 -0.454904 -0.790892
0.373996 -0.210345 -0.387846 0.657104 -0.732354 0.178524
0.376427 0.122181 -0.287249 0.612962 0.514867 -0.599324
-0.411497 -0.353159 -0.0539236 -0.636938 -0.493612 0.592163
0.223073 0.192416 -0.37361 0.725456 0.516661 -0.454726
0.370357 -0.151632 0.264087 -0.215064 -0.806481 0.55076
0.663226 0.150513 0.0363931 0.602792 0.542444 -0.585147
-0.381158 -0.522466 -0.154655 -0.45261 -0.637706 -0.623278
-0.129132 0.420162 -0.24849 -0.645739 0.75968 -0.0768579
-0.337782 -0.571335 -0.148205 -0.305349 -0.841808 -0.445108
-0.17909 -0.366347 -0.333269 -0.418542 -0.323807 -0.848511
0.323414 0.503871 0.0272882 0.632376 0.453499 -0.628044
0.0417025 0.501743 -0.261227 0.604625 0.545142 -0.580732
0.185835 -0.170089 0.0655167 -0.547261 -0.568334 0.614412
0.435947 -0.116659 0.323197 0.476383 -0.822958 0.309516
0.0132598 -0.302887 -0.414533 -0.359406 -0.388846 -0.848308
0.659332 0.108619 0.165805 0.783692 -0.335076 0.523021
-0.334104 -0.377942 0.0713812 -0.520541 -0.606944 0.600546
0.559971 0.0639254 0.258579 0.360244 0.45448 0.81466
-0.448481 -0.300953 -0.0391099 -0.592026 -0.528258 0.608645
-0.212596 -0.223152 -0.354025 -0.745346 0.654354 -0.127589
-0.428447 -0.0740942 0.179047 -0.578067 -0.548519 0.604124
-0.3886 0.181193 0.0415206 -0.699917 0.711178 0.0659
0.167398 -0.383369 0.0857238 0.886455 -0.239741 0.39588
0.0766461 -0.490259 -0.158881 0.659209 -0.747533 0.0814737
0.258948 -0.313814 -0.0387052 0.762596 -0.634226 -0.127301
0.207434 0.551981 0.176037 0.546391 0.288784 0.786168
0.555219 0.226019 -0.00213619 0.528528 0.609863 -0.590529
-0.0520762 0.212636 0.180425 -0.518583 -0.646453 0.559616
0.297607 0.0454042 -0.430008 0.604025 0.541447 -0.584798
0.372986 -0.208186 -0.245812 0.718412 -0.695339 0.0196937
-0.632494 -0.138898 -0.0699762 -0.590114 -0.5304 0.608638
-0.0689022 -0.584966 0.0659683 -0.232634 -0.780644 0.580066
-0.349977 -0.568545 -0.105091 -0.709275 -0.532692 0.461702
0.0308842 -0.308011 0.13719 0.445322 0.392332 0.804838
-0.157727 0.39177 -0.249533 -0.658617 0.747374 -0.0875001
-0.145506 -0.135092 0.148025 -0.541807 0.806089 0.238046
0.22897 -0.0409747 -0.592596 0.609273 0.539873 -0.580796
0.23677 -0.351385 -0.38518 0.708419 -0.705493 0.0205491
0.379199 0.131498 0.356243 0.734205 -0.0262589 0.678419
0.077423 0.489212 -0.240949 0.537243 0.605709 -0.58693
-0.28302 -0.548115 -0.0685072 0.341429 -0.893179 0.292673
-0.0876453 0.0346055 -0.538646 -0.385212 -0.498711 -0.776465
-0.599866 -0.149785 -0.0587265 -0.51782 -0.686418 0.510581
-0.130408 0.406886 -0.443927 -0.699118 0.714339 -0.0308754
-0.0665097 -0.614705 0.0178822 0.333807 -0.883045 0.329856
0.360191 -0.230652 -0.560531 0.757751 -0.639337 -0.13062
-0.320433 -0.433825 -0.226533 -0.340637 -0.422071 -0.840133
-0.424976 -0.107867 0.156009 -0.38387 -0.635652 0.669769
0.683164 0.134571 0.144204 0.776107 -0.183691 0.603255
0.247217 -0.323732 -0.0943505 0.76721 -0.620746 -0.161443
0.482378 -0.0945567 -0.147977 0.584545 -0.801846 0.123894
0.400375 -0.156954 0.192674 0.70555 -0.706962 -0.0490372
0.0514993 0.227969 -0.515446 0.529856 0.568875 -0.628994
-0.328183 -0.149142 -0.321955 -0.471159 -0.449654 -0.758828
0.145564 0.378949 -0.269679 0.579591 0.569008 -0.583356
0.604138 0.141422 0.197216 0.35974 0.448806 0.818022
-0.126819 -0.457768 0.129822 -0.66736 -0.442516 0.599008
-0.0952877 0.375635 0.292454 -0.6381 -0.525689 0.562565
-0.141206 0.209896 -0.608956 -0.220269 -0.396042 -0.891422
-0.497979 0.0754409 0.102234 -0.642282 0.758204 -0.112248
0.0595958 -0.510954 -0.119242 0.695004 -0.717236 0.0504307
-0.126457 -0.36639 -0.357954 -0.380554 -0.444007 -0.811195
-0.130509 0.342989 -0.587955 0.511753 0.644967 -0.567562
-0.477816 -0.355471 -0.113174 -0.627142 -0.715807 0.307105
0.168275 -0.387718 -0.00189813 0.697486 -0.716218 0.0233435
0.10757 -0.115947 0.103618 -0.545091 -0.593763 0.591879
-0.199083 -0.287458 0.269783 -0.170576 -0.26132 0.950061
0.376209 0.382805 0.184312 0.432267 0.405037 0.805661
0.45687 -0.0831133 -0.391134 0.755226 0.354433 -0.551372
-0.123212 0.436495 -0.00230394 -0.734391 0.673513 0.083969
0.399125 0.381429 0.20597 -0.201402 0.775167 0.598794
-0.163709 -0.230251 -0.414414 -0.455878 -0.434022 -0.777046
-0.00131553 -0.267979 -0.468122 -0.0845858 -0.665128 -0.741923
-0.407079 0.139042 0.11197 -0.0661588 0.847722 0.526298
-0.106844 -0.580988 0.0404433 -0.553742 -0.555746 0.620094
0.120855 0.355018 -0.323934 0.686775 0.45187 -0.569345
-0.290009 0.269604 -0.0218677 -0.657923 0.674179 0.335589
-0.231274 0.231918 0.0186374 -0.449241 -0.324402 0.832434
0.542522 -0.00753633 -0.225354 0.835586 0.169842 -0.522446
-0.437021 0.127636 -0.102214 -0.688145 0.723482 -0.0550448
0.366242 -0.196467 0.114008 0.707697 -0.70596 0.028008
-0.498625 -0.33243 -0.128037 -0.636174 -0.76899 0.0627366
-0.106356 0.17693 0.0987068 -0.599395 -0.549308 0.582226
0.158663 0.175681 0.361439 -0.340819 -0.450688 0.825059
0.293215 0.520382 0.00849353 0.624464 0.517112 -0.585355
-0.335967 0.216259 -0.27397 -0.696437 0.716681 -0.0366614
0.0389336 0.591893 0.227295 -0.105285 0.835729 0.538955
0.373723 0.335442 -0.0794878 0.473239 0.738206 -0.480725
0.212771 0.00413567 -0.558188 0.561821 0.577458 -0.592367
0.502167 0.315425 0.0343597 0.53848 0.625665 -0.564432
0.266256 -0.313962 -0.510273 0.364775 -0.80806 -0.462578
0.264466 0.184999 -0.336127 0.55095 0.574501 -0.605312
0.223842 0.467608 0.210905 0.381673 0.480192 0.789773
0.197473 -0.0321498 0.273938 -0.399966 -0.718416 0.569128
0.0745617 0.587639 0.221766 0.341059 0.375187 0.861924
0.44644 0.203236 -0.130039 0.544036 0.583496 -0.602957
0.511091 0.229902 0.202314 0.729654 -0.646493 0.222827
0.0676732 0.315086 0.364739 -0.0511853 0.134613 0.989575
0.481538 0.0176604 -0.274243 0.623116 0.502853 -0.599054
-0.607333 -0.0358292 -0.0289321 -0.703107 0.698546 0.132943
0.268567 -0.296226 -0.0772194 0.693687 -0.718391 0.0520889
-0.234494 -0.420739 0.122661 -0.584961 -0.529122 0.614696
-0.140723 0.417678 -0.0808776 -0.66521 0.736497 -0.12275
-0.0591178 0.497263 -0.0399258 -0.657984 0.699491 -0.278873
0.552784 -0.014411 0.103876 0.737021 -0.67465 -0.0405906
0.153073 0.211133 -0.427287 0.524165 0.651067 -0.548965
-0.373838 0.172359 -0.411462 -0.71538 0.691592 0.0996576
-0.168313 -0.410604 0.186388 -0.062972 -0.827503 0.557918
-0.0826544 0.423223 0.349621 -0.438847 -0.452506 0.776306
0.398395 0.287721 -0.100572 0.490118 0.600561 -0.631753
-0.29692 0.132477 0.0679216 0.438503 0.504616 0.743692
0.275806 -0.0504474 -0.553155 0.635772 0.521169 -0.569365
-0.303269 -0.501336 -0.0117225 -0.586398 -0.533864 0.609202
-0.101417 -0.450662 0.165796 -0.531489 -0.657716 0.533788
0.296506 0.117675 -0.365354 0.604515 0.537431 -0.587988
-0.100567 0.375889 -0.53069 0.608195 0.535321 -0.586115
0.0730832 -0.345402 -0.424157 -0.42108 -0.322711 -0.847673
-0.0488812 -0.0386799 -0.517112 -0.385832 -0.428286 -0.817132
-0.185483 -0.653488 -0.0982049 -0.662467 -0.673086 0.328776
0.0351817 -0.199541 0.127696 0.544275 0.131228 0.828579
0.0262961 -0.53946 -0.0935986 0.692766 -0.719841 0.0436409
-0.074198 0.45797 -0.393305 -0.410159 0.879775 -0.240344
-0.0178434 -0.581348 -0.101745 0.702909 -0.711272 0.00331101
0.0985256 0.0700661 -0.613357 0.530613 0.358446 -0.768093
0.556443 0.349947 0.131905 0.620931 0.765637 -0.168063
0.167413 0.625392 -0.0240788 0.616088 0.538114 -0.575211
0.393966 0.119801 0.31731 0.744864 -0.667077 -0.0136313
0.500611 0.158021 -0.122998 0.637641 0.522452 -0.56609
-0.0726985 0.304624 0.248837 -0.613782 -0.539837 0.576063
0.435756 -0.12957 -0.0030536 0.737915 -0.67461 -0.0195767
-0.203391 -0.42722 -0.293322 -0.413501 -0.4314 -0.801817
-0.220517 -0.452188 -0.270974 -0.307436 -0.529507 -0.790636
0.191883 0.203326 0.385291 -0.528333 0.794949 0.298195
-0.623849 -0.15734 -0.176518 -0.358395 -0.421285 -0.83311
0.245055 0.252376 0.317227 -0.649097 0.756305 -0.0817047
-0.0971768 0.0611201 0.0209127 -0.0628734 -0.0166699 0.997882
-0.491775 -0.141924 0.0636431 -0.590831 -0.531947 0.60659
0.428795 0.0995064 0.298413 0.428858 0.404183 0.807909
-0.108536 0.247578 0.157684 -0.606173 -0.534648 0.588818
0.0136693 -0.543606 0.0941099 0.709163 -0.704542 -0.0266288
0.440409 0.212921 0.28624 0.460081 0.348359 0.816683
-0.172435 -0.647004 -0.143672 -0.465376 -0.472678 -0.748332
-0.180832 0.333099 0.165781 -0.592692 -0.556472 0.582285
0.567625 0.29379 0.0761594 0.750479 0.445502 -0.48817
-0.0345497 0.142815 0.137087 -0.528493 -0.619764 0.580162
0.309578 0.16269 0.379078 0.369123 0.450977 0.81263
0.488197 0.220201 -0.073011 0.513929 0.666429 -0.540138
-0.171384 0.359378 -0.510258 -0.688439 0.723883 -0.0452303
0.0930194 -0.462994 0.132616 0.682559 -0.725653 0.0868381
0.583894 0.219713 0.0188562 0.586411 0.564035 -0.581366
-0.594684 -0.0211772 0.00576118 -0.746351 0.659086 0.0925485
0.691506 0.120698 0.103955 0.739094 -0.67339 -0.0169377
0.368654 0.462039 0.0328945 0.610503 0.536061 -0.583031
0.633919 0.116021 -0.0229512 0.683622 0.514403 -0.517736
0.0423154 -0.513367 0.121893 0.80214 -0.588493 -0.101228
0.0273733 -0.397388 -0.369946 -0.398716 -0.366023 -0.840864
0.136259 -0.286642 -0.484948 -0.391709 -0.428184 -0.814384
0.154113 0.113753 0.372016 -0.714417 -0.340745 0.611148
-0.564779 0.00578511 -0.107911 -0.755004 0.655641 -0.0101738
0.360526 -0.199614 -0.59495 0.705073 0.265948 -0.657377
-0.0430248 -0.259168 -0.458079 -0.399623 -0.424807 -0.812306
-0.467803 -0.160049 -0.246553 -0.487445 -0.526355 -0.696669
0.174039 0.354239 -0.264087 0.595507 0.555349 -0.580482
-0.222896 0.107237 0.0440359 0.390818 0.433011 0.812258
0.15131 -0.159093 -0.563818 0.667044 -0.733924 -0.128095
0.0919277 0.333682 0.350883 0.36668 0.41992 0.830189
-0.0394866 0.514535 0.0541943 -0.72497 0.6887 -0.0105017
-0.425442 -0.244841 0.0374623 -0.712552 -0.433378 0.551773
0.4788 0.0921593 -0.20607 0.599668 0.549143 -0.5821
0.168489 0.0578647 0.329744 -0.614882 -0.536048 0.578423
-0.578226 -0.013646 -0.0763569 -0.669026 0.737699 -0.0905798
0.235021 -0.338499 -0.252339 0.722823 -0.690965 -0.00974124
0.172272 -0.394498 -0.045798 0.698268 -0.715045 0.0336522
-0.497386 -0.22623 -0.0121067 -0.554508 -0.553972 0.620996
0.652637 0.206065 0.0898103 0.655358 0.58018 -0.483629
0.233664 0.157696 -0.394347 0.537756 0.60525 -0.586933
-0.086448 -0.580341 -0.219918 -0.409841 -0.317579 -0.855087
-0.177393 0.387452 0.0120199 -0.681552 0.729668 -0.0554176
0.0271411 -0.523081 -0.30151 -0.00932542 -0.709794 -0.704348
0.503627 -0.0343782 -0.298801 0.653425 0.498037 -0.570083
-0.0171635 -0.549165 -0.264976 -0.361933 -0.488145 -0.794178
-0.435309 0.132439 -0.0626967 -0.703886 0.710299 -0.00446848
-0.166484 0.163514 -0.574403 -0.346702 -0.436932 -0.829993
-0.179939 -0.612803 -0.0531536 -0.537194 -0.560832 0.629993
-0.035004 -0.0922271 0.104134 0.387273 0.429364 0.815884
0.182339 -0.301364 -0.495535 -0.475184 -0.37452 -0.7962
-0.0357162 0.527391 0.173099 -0.644767 0.758402 -0.0954064
-0.0689395 -0.27035 -0.438367 -0.315895 -0.415309 -0.85307
-0.0804773 -0.183075 0.174674 0.408171 0.410733 0.815288
-0.209608 -0.239729 0.269689 0.0262524 0.266148 0.963574
-0.0722388 0.486064 0.119115 -0.652462 0.753631 -0.0795884
-0.531516 0.0355427 -0.140595 -0.696172 0.716866 -0.0380507
-0.297307 -0.473737 -0.222997 -0.426786 -0.334572 -0.840188
0.513125 0.00988049 -0.243799 0.639313 0.474956 -0.604728
-0.073519 -0.213774 -0.464435 -0.431513 -0.458824 -0.776709
0.065004 0.083879 -0.623954 0.135362 0.297621 -0.945039
-0.462046 -0.128417 -0.268328 -0.419947 -0.427726 -0.800434
-0.568838 0.0111214 0.0579993 -0.795049 0.58726 0.151728
-0.0868662 0.457078 -0.286694 -0.704175 0.708779 0.0420673
-0.61735 -0.0657967 -0.208874 -0.768764 0.301765 -0.563862
-0.304207 0.244366 -0.283224 -0.74358 0.665576 0.0640139
-0.0439996 0.525458 0.246992 -0.78004 0.598484 0.182634
0.179617 0.40894 -0.218644 0.472181 0.661446 -0.582695
0.0186276 -0.539271 -0.031853 0.700468 -0.713076 0.0294514
0.000177342 0.416809 -0.384172 0.673312 0.44352 -0.591558
-0.410856 -0.296179 0.00551497 -0.601806 -0.513739 0.611476
0.432239 -0.1202 0.245582 0.707815 -0.706397 0.00093101
0.178821 -0.398121 -0.412352 0.505998 -0.82402 -0.254868
0.516339 0.205732 -0.067438 0.677625 0.479298 -0.557761
0.453784 -0.0323751 0.362671 0.539116 0.432998 0.722404
0.260609 0.240623 -0.290121 0.642745 0.513795 -0.568238
0.263455 -0.0518867 0.262934 -0.581831 -0.562203 0.587707
0.457416 -0.103724 0.170646 0.742319 -0.660861 -0.110566
-0.448827 0.11265 -0.214735 -0.740395 0.671694 0.0253344
0.303937 0.571955 0.107799 0.629045 0.552967 0.546378
0.0347817 -0.533441 -0.216735 0.662517 -0.743367 0.0920691
0.502453 -0.0652995 0.12845 0.707392 -0.706622 0.0167943
-0.298298 -0.296874 -0.263753 -0.431573 -0.389886 -0.81347
-0.0320293 -0.289204 0.184345 0.805226 -0.376323 0.45825
-0.150729 0.328056 0.19107 -0.578111 -0.574539 0.57939
-0.362528 -0.195598 0.135786 -0.644046 -0.468736 0.604558
-0.13894 0.421559 0.266811 -0.877925 0.0799485 0.472077
-0.110439 -0.640126 -0.0248561 0.0325862 -0.896742 0.441353
0.184186 0.144363 0.424973 -0.383754 -0.208444 0.899602
0.513239 0.330402 0.0571763 0.705701 0.498214 -0.503755
0.284089 0.252759 -0.251001 0.453551 0.710131 -0.538522
0.23689 -0.345545 -0.428905 0.763608 -0.639749 -0.0873153
-0.243777 -0.382254 -0.295259 -0.434559 -0.391154 -0.811269
0.479259 -0.0838573 0.0720484 0.691473 -0.721123 0.042964
-0.215615 -0.117724 -0.401217 -0.519492 -0.33399 -0.786497
-0.262946 0.126154 0.0546221 0.409862 0.42598 0.806569
-0.47081 0.0193132 -0.346555 -0.391029 -0.432932 -0.812199
0.0245159 0.575525 -0.0921911 -0.688678 0.720848 -0.0781025
-0.375305 0.179236 -0.201098 -0.711592 0.702589 -0.00237034
-0.447501 -0.143031 0.102839 -0.595728 -0.517887 0.613923
-0.298636 0.231743 -0.514397 -0.788402 0.530721 -0.311059
0.132061 -0.153513 -0.593838 0.0938171 -0.788185 -0.608246
0.315389 0.139044 -0.328922 0.565276 0.584709 -0.581875
-0.0280973 0.322123 -0.505066 0.554161 0.6044 -0.572369
0.155573 0.401422 -0.245722 0.544385 0.610153 -0.575638
-0.10989 -0.290331 -0.405951 -0.332395 -0.435344 -0.836654
-0.413752 -0.287791 -0.216199 -0.232212 -0.395806 -0.888491
-0.0884248 0.462308 -0.191063 -0.696153 0.716946 -0.0368822
-0.27991 0.221909 -0.547617 -0.581799 -0.230431 -0.780008
0.154642 -0.100337 -0.639518 -0.376167 -0.38157 -0.844336
-0.197136 -0.228889 -0.386552 -0.758924 0.193833 -0.621661
0.117211 0.187914 -0.49516 0.516474 0.627763 -0.582382
-0.67089 -0.108903 -0.10863 -0.903893 0.199409 0.378435
-0.504261 -0.146965 -0.237162 -0.371974 -0.435745 -0.819611
-0.158016 0.410496 0.218648 -0.847225 0.517555 0.119775
-0.556988 -0.209592 -0.0613417 -0.630231 -0.509187 0.586121
0.0215498 -0.0429259 0.0886418 -0.51337 -0.568108 0.643198
0.0673602 0.218367 0.311506 -0.625984 -0.528696 0.573257
0.384096 -0.199776 -0.545451 0.902046 -0.40956 -0.136288
-0.309902 -0.196291 -0.310043 -0.468462 -0.367775 -0.803296
-0.546118 0.0133577 -0.263672 -0.774436 0.617685 -0.136803
0.422156 -0.15096 -0.039466 0.694072 -0.719002 0.0360536
-0.215159 -0.357731 0.197649 -0.599 -0.508726 0.618383
0.0543302 0.471636 -0.280312 0.45108 0.686776 -0.569969
0.0811641 -0.0327249 0.156531 -0.590853 -0.556455 0.584166
-0.133149 -0.461911 -0.256817 -0.402556 -0.420197 -0.813255
-0.151531 0.184188 0.0576218 -0.582976 -0.585071 0.563766
0.0791101 -0.122534 -0.585688 -0.536226 -0.388716 -0.74924
0.075654 0.632451 0.161779 -0.482063 0.844639 0.23281
-0.040495 0.509432 -0.147953 -0.702706 0.71145 0.00658878
0.0889428 0.259093 -0.447838 0.645276 0.528014 -0.552106
-0.528302 -0.258562 -0.174827 -0.413822 -0.411746 -0.811922
0.37026 0.45226 0.14803 0.415759 0.510114 0.752946
0.00498894 0.331136 -0.467447 0.654922 0.498695 -0.567785
0.385626 -0.150175 -0.527233 0.570618 0.594191 -0.566862
-0.231118 -0.487259 -0.236524 0.0474727 -0.854338 -0.517546
0.475829 0.137951 0.261126 0.401037 0.525845 0.750104
0.0853168 -0.468269 0.0749175 0.677432 -0.732092 0.0716109
-0.274611 -0.426165 -0.256661 -0.455091 -0.403435 -0.793808
0.167486 -0.390233 -0.0862697 0.782062 -0.605888 -0.145871
-0.130616 0.0186484 0.0483084 0.478074 0.36882 0.79713
0.00736546 0.0190934 0.0644159 -0.672185 -0.472279 0.570193
0.064551 0.194459 0.281873 -0.553536 -0.602268 0.575213
0.434258 0.44562 0.112919 0.730244 0.598185 0.330026
0.0662621 0.622182 0.112911 -0.742455 0.669402 0.0257298
0.158186 -0.222271 -0.527304 -0.396779 -0.429833 -0.811055
0.332886 0.414424 -0.0540091 0.626836 0.51331 -0.586166
0.439196 0.365489 0.018437 0.432276 0.685519 -0.585834
-0.209988 0.333212 -0.315505 -0.600328 0.783127 -0.162231
-0.12094 -0.500493 -0.243342 -0.240727 -0.424784 -0.872702
-0.511221 0.0520407 -0.217706 -0.668187 0.740388 -0.0731554
0.0133888 0.578434 0.169843 -0.716329 0.69759 0.0154869
-0.366142 -0.0121461 -0.379964 -0.41102 -0.420856 -0.808667
-0.47017 0.0969516 0.0128789 -0.691661 0.71952 -0.0624211
0.00347217 -0.478345 0.224633 -0.151193 -0.1991 0.968246
-0.530557 -0.212826 -0.0356858 -0.593318 -0.529622 0.606197
-0.0208238 0.00154284 -0.554607 -0.376784 -0.45421 -0.807296
-0.215644 -0.0173817 0.104601 0.402029 0.387404 0.829633
-0.126823 -0.24952 -0.422815 -0.402709 -0.412465 -0.817128
0.182686 -0.274243 0.0498846 0.389017 0.466261 0.794523
0.526795 0.077067 0.266123 0.470218 0.364147 0.803923
0.0494899 0.443149 -0.313732 0.61522 0.524878 -0.588224
0.130757 -0.428378 0.0482583 0.683471 -0.727931 0.0546186
-0.0349283 -0.594042 -0.18367 0.707398 -0.706482 0.0217067
-0.0645793 -0.450721 0.199493 -0.516141 -0.582723 0.62772
-0.16311 0.374146 -0.410215 -0.722685 0.688975 0.0551373
-0.0458027 -0.609826 -0.125462 0.70352 -0.704414 -0.0941318
-0.214559 -0.334675 0.227714 -0.457225 -0.645492 0.611788
-0.454855 0.111493 0.0476881 -0.687926 0.723602 -0.0561932
0.067496 -0.120394 0.0697424 0.370304 0.474725 0.798443
-0.0884412 0.459684 -0.249088 -0.678326 0.72845 -0.0960986
0.334883 0.341369 0.222014 0.319088 0.404705 0.85697
0.411345 0.401836 0.0183716 0.514419 0.586871 -0.625265
0.0337754 -0.269952 -0.436759 -0.405496 -0.412642 -0.815659
-0.524586 0.0466114 0.168633 -0.905832 0.29278 0.306184
-0.304892 -0.263531 0.134978 -0.653487 -0.464484 0.59767
-0.457063 0.117385 0.0862693 -0.738233 0.665507 0.110059
-0.0950111 -0.0178086 0.0527888 0.407159 0.480175 0.776951
-0.140909 0.323782 -0.619256 0.600584 0.529195 -0.599376
0.00585512 -0.560012 -0.213273 0.719833 -0.694126 0.0054059
0.0434922 -0.220909 -0.517327 -0.145533 -0.488292 -0.86046
0.277227 -0.228106 0.105652 -0.611038 -0.526637 0.591004
0.0764949 0.286632 -0.428947 0.757577 0.404374 -0.512405
0.113166 -0.0840585 0.141525 -0.677958 -0.446309 0.584107
-0.124879 0.445771 0.289341 -0.875154 0.445086 0.189746
0.42058 -0.156646 -0.265674 0.717737 -0.693968 -0.0571186
0.264759 -0.265032 0.0542737 -0.17132 -0.850639 0.497055
0.235899 -0.0367247 0.244559 0.687921 -0.724953 0.0347413
-0.332634 0.21676 0.0216756 -0.28464 0.846926 0.449106
0.1551 0.702724 0.0838956 -0.278838 0.959957 0.0270554
0.130279 -0.432912 -0.0896402 0.752774 -0.653106 -0.0823636
0.257834 -0.323706 -0.458315 0.698449 -0.714905 0.032865
0.209706 -0.210188 0.0568983 -0.621505 -0.539498 0.568043
-0.0870687 0.1394 0.0733068 -0.612981 -0.5387 0.577976
0.629722 0.0541925 -0.0125859 0.718178 -0.695693 -0.0152364
0.0564592 0.119607 -0.609359 0.510214 0.659109 -0.552501
0.236937 0.593899 0.0167814 0.6827 0.457046 -0.570113
0.0412383 0.591573 -0.118369 -0.657768 0.749613 -0.0736305
0.286496 0.048742 0.426946 0.136084 -0.52269 0.841591
0.398357 0.0117041 -0.36542 0.525592 0.641076 -0.559263
0.141326 0.40636 0.284315 0.512155 0.348412 0.785052
0.131417 0.00285556 -0.647216 0.420731 0.461008 -0.781318
-0.462485 -0.0964029 0.123519 -0.572708 -0.56121 0.597536
-0.371917 0.191012 -0.139805 -0.72501 0.688063 -0.030486
-0.310648 0.102342 0.0898124 0.364245 0.497738 0.787135
-0.46676 0.0990043 -0.110601 -0.682719 0.726403 -0.0789549
0.332391 0.304476 -0.154155 0.622448 0.532806 -0.573303
-0.0263177 0.099726 -0.60634 -0.397317 -0.42682 -0.812381
-0.272307 0.278345 -0.373067 -0.694147 0.717734 -0.0549283
0.305171 0.195646 0.364391 0.400115 0.419902 0.81461
0.248364 0.0601084 -0.47069 0.650681 0.412181 -0.637747
0.664013 0.0966108 0.0330993 0.876484 -0.412014 -0.24904
0.571783 -0.00159809 -0.122967 0.759279 -0.648092 -0.0589274
0.505587 -0.0503495 0.226165 0.75736 -0.650157 -0.0608369
-0.427324 -0.182747 -0.262083 -0.396242 -0.343926 -0.851297
0.283869 0.192376 -0.306943 0.57111 0.56896 -0.591708
-0.0523648 -0.611019 -0.0460962 0.692609 -0.719531 0.0506799
-0.219067 0.320829 -0.508153 -0.638002 0.757122 -0.140428
0.69769 0.167688 0.133939 0.533116 0.568432 0.626636
-0.117856 0.425582 -0.375022 -0.689827 0.722635 -0.0440263
0.0314411 -0.470201 -0.332849 -0.421467 -0.363186 -0.83094
-0.133973 0.283886 0.169791 -0.615936 -0.527091 0.58549
0.198654 0.520106 -0.081598 0.641963 0.495858 -0.584815
0.553544 0.285797 0.179975 0.781468 -0.225749 0.581675
-0.477615 -0.0164356 0.183291 -0.623865 -0.488686 0.609901
0.419529 -0.0640249 -0.410017 0.658946 0.484463 -0.5754
0.162223 0.332327 0.313954 0.393142 0.472386 0.788854
-0.202013 -0.00999558 -0.461295 -0.435702 -0.46164 -0.772692
0.295969 0.467422 -0.0367304 0.58388 0.574027 -0.574088
-0.233257 0.315558 0.0745828 -0.906807 0.0952225 0.41065
-0.0954041 -0.546892 -0.23311 -0.411728 -0.412648 -0.812528
0.468091 0.266895 0.245685 0.404043 0.408542 0.818439
-0.19327 -0.455535 0.104031 0.306743 -0.887818 0.343055
0.187503 0.11115 0.396875 -0.52935 -0.599964 0.59986
0.222224 -0.353372 -0.308657 0.654158 -0.745206 0.129404
-0.0693357 -0.253565 0.208148 0.328153 0.471224 0.818696
0.00853434 0.380981 0.358627 0.229569 0.0922595 0.96891
-0.0787633 0.493016 0.321758 -0.363768 0.740745 0.564774
0.358924 -0.0170746 -0.434151 0.598865 0.550211 -0.581918
0.25475 0.356244 -0.180973 0.622512 0.539884 -0.566572
-0.177408 0.390577 0.0996494 -0.597161 0.787718 -0.151328
0.241564 0.0203587 -0.515927 0.611828 0.538389 -0.579487
0.340682 0.226893 -0.22171 0.545956 0.578551 -0.60598
0.165297 -0.0152741 0.25771 -0.632268 -0.353114 0.689599
0.192029 -0.145431 0.0956181 -0.485784 -0.652989 0.58105
-0.207961 -0.485998 0.0343997 -0.572422 -0.553756 0.604721
0.0322657 0.425674 -0.344137 0.511136 0.598526 -0.616852
0.25257 0.524362 -0.0243776 0.618879 0.531077 -0.578746
0.27604 0.418093 -0.100458 0.554731 0.635142 -0.537464
0.0410877 -0.524321 -0.155016 0.714996 -0.699065 -0.00941753
0.337261 0.297892 0.296878 0.142994 0.529307 0.836293
0.195498 0.598488 -0.00897813 0.588472 0.648441 -0.482934
0.023091 0.470264 -0.307925 0.516333 0.595669 -0.615287
-0.0607549 0.499294 0.0200814 -0.700218 0.71369 0.0184712
-0.386978 0.168393 -0.294503 -0.698505 0.714942 -0.0307964
0.501211 0.282627 0.223856 0.388111 0.427206 0.816618
-0.020599 -0.540764 0.149948 -0.0295491 -0.873404 0.486098
-0.132141 0.121339 0.0212212 -0.366201 -0.298845 0.881243
0.451602 0.135476 -0.185763 0.5699 0.58326 -0.578811
-0.412269 0.155569 -0.0597502 -0.735516 0.676334 0.039852
-0.406812 0.0426235 -0.389864 -0.408334 -0.536546 -0.7385
-0.208186 -0.533227 -0.00740145 -0.525958 -0.579013 0.622986
0.348714 0.252559 -0.187529 0.63381 0.51632 -0.575932
-0.351544 -0.342306 0.018779 -0.670125 0.733674 -0.112495
0.240447 -0.0168233 -0.553357 0.554243 0.586083 -0.591034
-0.226244 0.330851 -0.165812 -0.661256 0.746847 -0.0704334
-0.263309 -0.14485 -0.361182 -0.392241 -0.541798 -0.743372
-0.279576 -0.559064 -0.124472 -0.64564 -0.697045 -0.311893
-0.124803 0.443365 0.234285 -0.707078 0.706599 -0.0275404
0.264014 0.324311 -0.206254 0.467836 0.683474 -0.560351
0.125076 -0.0175063 0.21532 -0.580115 -0.58202 0.569842
0.211255 0.279633 0.317569 0.40254 0.433594 0.8062
0.305302 -0.107059 0.249874 -0.599941 -0.527656 0.601373
-0.542825 -0.0321024 0.109488 -0.582454 -0.539309 0.608189
0.189639 -0.0700015 -0.646354 0.282273 0.393236 -0.875036
0.447368 0.116161 -0.214028 0.359548 0.689879 -0.628326
-0.447933 0.0575776 0.184362 0.3909 0.451121 0.802301
-0.376345 -0.237287 0.0957632 -0.602148 -0.517653 0.607827
-0.232672 0.333967 0.0388452 -0.686301 0.723824 -0.0712038
0.105327 -0.0251017 -0.65182 -0.211451 -0.186625 -0.959406
-0.451072 -0.372346 -0.102039 -0.653451 -0.50529 0.563634
-0.476989 0.0812453 -0.280976 -0.701012 0.710096 0.0659326
0.438764 -0.115396 0.290582 0.752544 -0.657116 -0.0433149
-0.227979 0.0476902 0.0789533 0.322177 0.471111 0.821131
0.100875 -0.479243 -0.302453 0.655166 -0.745815 0.120488
0.0711049 -0.0906237 0.0935224 -0.575206 -0.577794 0.579043
-0.164624 0.392596 -0.11374 -0.678865 0.727267 -0.101121
0.479166 -0.0901072 -0.0997421 0.7042 -0.703554 -0.0954735
-0.0561359 0.349093 -0.508101 0.517198 0.664404 -0.539512
-0.121103 -0.296145 0.257345 0.407961 0.469798 0.782852
0.21435 -0.359246 -0.343626 0.765705 -0.64313 0.00889079
-0.621631 -0.0996011 -0.0262424 -0.651367 -0.454645 0.60747
0.0678051 0.621889 0.0252821 -0.710619 0.703244 -0.0216583
-0.392249 -0.279915 0.0391647 -0.615565 -0.408552 0.673917
-0.356065 -0.311096 0.0464739 -0.651914 -0.5082 0.562797
-0.201549 0.291413 0.104011 -0.699223 -0.436477 0.566193
-0.0543879 0.124928 -0.60732 -0.403776 -0.424164 -0.810586
-0.591528 -0.10911 -0.00213002 -0.470152 -0.65196 0.594899
0.473854 0.28843 -0.0221559 0.762712 0.419731 -0.492033
0.302891 -0.271478 -0.257707 0.714527 -0.699282 0.02135
-0.0954495 0.460271 -0.0924456 -0.692884 0.717981 -0.0664431
-0.166493 -0.447074 -0.265032 0.522451 -0.80933 -0.268385
0.0569381 0.457303 0.291994 0.397638 0.446197 0.801743
-0.588023 -0.169387 -0.18999 -0.360749 -0.355763 -0.862145
-0.0168003 -0.364643 -0.367113 -0.392754 -0.457278 -0.797898
-0.221736 0.203863 -0.56536 -0.434209 -0.364441 -0.8238
0.256825 -0.306745 -0.129385 0.556078 -0.824384 0.105677
0.424618 -0.122274 -0.457553 0.627517 0.523487 -0.576354
-0.155579 -0.506734 -0.224058 -0.33447 -0.425958 -0.840648
0.248509 0.123672 0.428473 0.199525 0.183738 0.962512
-0.0158011 0.500575 0.312078 0.486245 0.438097 0.756067
0.382218 -0.0133744 0.381753 0.134011 0.156498 0.978544
-0.564515 -0.0961139 -0.241459 -0.296714 -0.423493 -0.855929
0.528658 -0.0307392 0.25478 0.749451 -0.656376 -0.0865705
-0.321891 -0.0144204 -0.403577 -0.393489 -0.554549 -0.733241
0.40135 0.121416 -0.258984 0.586284 0.568275 -0.577351
-0.0333059 0.512061 -0.224165 -0.702329 0.711738 -0.012758
0.256736 -0.0182818 0.286806 0.653512 -0.752644 0.0803134
0.0772972 -0.484478 -0.0895424 0.705949 -0.708215 0.00815048
0.337786 -0.24394 -0.322061 0.69219 -0.718657 0.0663732
0.122202 -0.067117 0.172266 -0.594202 -0.554698 0.582438
0.592188 0.0351422 -0.13639 0.875415 0.0999799 -0.472919
-0.0844564 0.0641896 -0.562434 -0.355367 -0.500746 -0.789283
0.298624 -0.166467 0.18144 -0.475837 -0.662755 0.578218
0.0144501 -0.336638 0.166049 0.321759 0.434958 0.841001
-0.528175 -0.111012 0.0550899 -0.563355 -0.633493 0.530393
-0.623044 -0.0568327 -0.109457 -0.687077 0.721287 -0.0875738
-0.160302 0.356182 0.214183 -0.452253 -0.691601 0.563166
-0.222315 -0.54156 -0.0356441 -0.654737 -0.409985 0.635005
-0.00771512 0.162232 0.175999 -0.605047 -0.535973 0.588771
0.310181 0.381848 -0.10055 0.61031 0.52752 -0.590969
0.0355376 -0.136014 0.0930947 0.423459 0.344879 0.8377
0.400118 -0.180653 -0.122455 0.671102 -0.728185 0.139171
0.335289 -0.0587271 0.326449 -0.592876 -0.554289 0.584176
-0.361921 -0.104452 -0.335331 -0.352659 -0.400049 -0.845927
0.271786 -0.313817 -0.423742 0.711324 -0.702864 -0.00051329
-0.452732 0.0975193 -0.314113 -0.667718 0.733104 -0.129268
0.239175 0.318834 -0.235597 0.545332 0.599526 -0.585817
-0.213725 -0.292432 -0.3587 -0.391911 -0.43164 -0.812461
-0.144685 -0.0311934 0.079025 0.485421 0.34927 0.801484
-0.336654 0.228525 -0.0968848 -0.713878 0.700107 -0.0151153
-0.107119 -0.51952 0.0933254 -0.515938 -0.616575 0.594678
0.688731 0.126899 0.0654246 0.900571 -0.00495131 -0.434681
-0.265348 0.283305 -0.237185 -0.703012 0.710768 -0.0241603
0.3387 0.189471 -0.255063 0.634534 0.435003 -0.638857
0.219265 -0.237924 -0.552486 -0.339709 -0.484089 -0.806384
-0.306532 -0.19983 0.184965 -0.620533 -0.503233 0.601411
-0.119502 -0.116608 0.136636 -0.439097 0.850503 0.28955
0.414 -0.15949 -0.0838465 0.699532 -0.714313 0.0202964
0.274135 -0.00104366 0.316091 -0.673136 -0.440611 0.593927
0.409011 -0.177273 -0.303559 0.697053 -0.716344 0.0311237
0.351421 0.457486 0.00206845 0.551779 0.596693 -0.582664
-0.396539 -0.0418434 -0.349293 -0.348289 -0.460628 -0.816404
-0.504136 -0.0365502 0.145836 -0.491652 -0.6091 0.622315
0.405804 0.192377 0.314308 0.476074 0.41192 0.776966
0.436019 0.299245 0.245338 0.396731 0.427492 0.812314
0.432417 0.0656156 0.322332 0.203459 0.422443 0.883259
-0.139574 -0.215906 -0.435721 -0.408564 -0.419753 -0.810483
-0.297872 0.245725 -0.466396 -0.787141 0.615818 0.0342933
-0.247806 -0.0297178 -0.434009 -0.381593 -0.498291 -0.77852
-0.225165 0.260684 -0.594313 -0.496903 -0.330985 -0.802207
0.102431 -0.333436 -0.445501 -0.340194 -0.459342 -0.820532
0.637171 0.153678 0.171688 0.341217 0.477765 0.809513
-0.0710381 -0.452272 -0.294707 -0.386059 -0.425578 -0.818438
0.208905 0.508835 0.197588 0.408631 0.524667 0.746823
-0.0404614 -0.188157 0.156742 0.420513 0.419584 0.804436
0.571996 0.150121 -0.0597247 0.640057 0.522048 -0.563731
-0.17606 0.0289766 -0.49183 -0.355153 -0.480766 -0.801705
-0.398257 -0.33136 -0.199317 -0.299664 -0.564502 -0.769116
0.119971 0.147137 -0.519867 0.551842 0.587534 -0.59184
0.0197625 -0.545686 -0.17774 0.636166 -0.759135 0.137864
-0.180512 -0.490777 0.0597013 -0.567174 -0.559691 0.604202
-0.346534 0.198902 -0.347217 -0.710259 0.702966 0.0370262
-0.154669 -0.164824 0.199807 0.12948 0.713936 0.688136
0.220582 -0.155336 0.112418 -0.621402 -0.468695 0.627841
0.474291 -0.0908903 0.121428 0.716363 -0.697672 0.00878002
-0.00565479 0.087074 0.116995 -0.580577 -0.571679 0.579753
0.182833 -0.342716 0.0757076 0.624782 0.135945 0.768873
0.259687 -0.0798951 0.228477 -0.689453 -0.489929 0.533501
