ply
format ascii 1.0
comment Created by Open3D
element vertex 512
property double x
property double y
property double z
property double nx
property double ny
property double nz
end_header
0.00739343 0.105321 -0.0381882 -0.100032 0.920562 -0.37757
0.371814 0.240546 -0.176577 0.101411 0.532196 -0.840525
0.142111 -0.0541184 -0.0440111 0.314606 -0.682974 -0.659219
-0.332057 0.0396831 -0.103143 -0.157495 0.968472 -0.193024
-0.0821378 0.0737073 -0.0836788 -0.0229076 0.809702 -0.586394
0.249871 0.202745 0.0853509 -0.948676 -0.202663 -0.242779
0.430489 0.248372 0.169989 0.948676 0.202663 0.24278
0.516512 -0.0676667 0.0976651 0.948675 0.202663 0.242782
-0.318956 -0.180665 -0.0748693 0.184018 -0.978085 0.097407
0.315062 0.326927 0.285054 -0.309835 0.749452 0.585084
-0.468477 -0.168777 -0.0879896 -0.948676 -0.202663 -0.24278
0.379613 0.259808 0.1886 -0.948676 -0.202663 -0.24278
0.446227 0.263143 0.0961611 0.948675 0.202664 0.242782
0.360221 -0.037474 0.124175 -0.948675 -0.202661 -0.242785
-0.143351 0.0113832 -0.140387 0.144924 0.403738 -0.903323
0.411439 0.171966 0.308206 0.948676 0.202664 0.242779
-0.394039 -0.0465073 -0.206428 0.158755 0.358767 -0.919828
0.214033 0.305729 0.14766 -0.948676 -0.202663 -0.242781
0.29969 0.0867654 0.256994 -0.948676 -0.202663 -0.24278
0.18945 0.281142 0.264247 -0.948676 -0.202664 -0.24278
0.202671 -0.0273994 -0.0409218 0.315893 -0.57075 -0.757929
0.54358 -0.150312 0.0608853 0.948675 0.202663 0.242781
-0.428011 -0.195453 -0.0698845 0.100031 -0.920561 0.377572
0.454453 0.168405 0.026795 -0.0556332 -0.648765 0.758953
0.555641 0.0387388 -0.17574 0.285247 -0.216849 -0.933601
0.448221 0.0990368 -0.00281512 -0.232322 -0.0742583 0.9698
-0.0202538 0.0553567 -0.0989642 0.0863541 0.572507 -0.81534
0.359739 0.213463 0.304948 -0.948676 -0.202664 -0.24278
0.455528 -0.0195077 0.106719 -0.220296 0.974274 0.0475336
0.442152 0.0970812 -0.0895781 0.22028 0.127376 -0.967084
0.331488 0.267847 0.0413437 -0.0863755 0.904537 -0.417555
-0.151125 -0.0845022 -0.142615 0.30665 -0.401766 -0.862873
0.284891 0.382097 0.0843024 -0.208712 0.977977 -0.000822091
0.406392 0.0181586 0.00512887 -0.314751 0.530378 0.787166
0.544687 0.115965 -0.165719 0.948675 0.202665 0.24278
0.351587 -0.245958 0.0863586 0.19661 -0.979248 0.0491746
0.497578 -0.0760906 0.178684 0.948675 0.202664 0.242782
-0.110542 -0.0994365 -0.116965 0.31625 -0.609706 -0.726805
0.309693 0.120794 0.1895 -0.948675 -0.202666 -0.242779
-0.43328 -0.0774279 -0.223128 0.209804 0.171109 -0.962655
-0.212633 -0.147927 -0.0112751 0.0849531 -0.902774 0.421642
0.148696 0.143411 0.0624828 -0.241793 0.959618 0.143768
-0.22813 0.00964281 -0.153043 0.101411 0.532196 -0.840526
0.447465 0.240774 -0.166769 0.116217 0.49056 -0.863623
0.365461 0.0516503 0.293198 -0.22028 -0.127376 0.967084
0.234916 0.26542 0.0997069 -0.948676 -0.202663 -0.24278
0.235241 0.140905 0.194139 -0.948676 -0.202664 -0.24278
0.235886 0.0437529 0.280959 -0.948676 -0.202664 -0.24278
0.348835 0.0520696 0.411224 -0.221338 -0.122836 0.96743
0.442846 0.0485375 0.288515 0.948675 0.202665 0.24278
-0.41709 -0.16187 -0.0230492 -0.0400453 -0.684522 0.727891
0.274979 -0.0938829 0.347531 -0.116216 -0.49056 0.863623
-0.416066 -0.199456 -0.136822 0.251653 -0.9487 -0.191411
-0.470966 -0.00579448 -0.177826 -0.0386012 0.836147 -0.547146
0.228017 0.0139882 -0.0520425 0.291699 -0.264177 -0.919305
0.359679 0.274296 0.254398 -0.948676 -0.202663 -0.24278
0.443496 0.372577 -0.0346858 -0.0541996 0.860514 -0.506535
0.462704 0.101532 0.166682 0.948676 0.202663 0.24278
-0.381339 -0.0997453 -0.211123 0.270232 -0.120689 -0.955201
0.200316 0.30216 0.204241 -0.948676 -0.202663 -0.24278
-0.214101 0.0592444 -0.0918477 -0.100032 0.920563 -0.377568
0.218992 0.234627 0.187639 -0.948676 -0.202663 -0.242781
-0.10146 -0.00243016 0.0875018 -0.270232 0.120689 0.955201
0.257003 0.270584 0.00909064 -0.948676 -0.202663 -0.24278
0.44316 0.181347 0.176428 0.948676 0.202663 0.24278
-0.253878 -0.00640955 0.0409616 -0.302414 0.356753 0.883897
0.361572 0.185678 -0.0673819 -0.948674 -0.202666 -0.242783
0.279777 0.340941 0.24298 -0.296929 0.835019 0.463225
0.400104 -0.00380276 0.337628 -0.144923 -0.403739 0.903323
0.340839 0.274851 -0.153981 0.0556324 0.648766 -0.758951
0.310359 -0.138797 0.318143 -0.0556328 -0.648765 0.758952
0.427409 0.301648 0.137551 0.948676 0.202664 0.242777
-0.00245058 0.105268 0.0454144 -0.277389 0.901933 0.331015
-0.397847 0.0263385 -0.116418 -0.157495 0.968472 -0.193023
0.46654 -0.0682543 0.122781 -0.948676 -0.202663 -0.24278
-0.442136 -0.171856 -0.188349 -0.948676 -0.202663 -0.24278
-0.270546 -0.0268239 -0.177311 0.172191 0.312903 -0.934046
0.397674 0.255428 0.121681 -0.948676 -0.202663 -0.242778
0.516851 -0.111447 0.132888 0.948676 0.202663 0.242779
0.400774 0.137851 -0.214251 0.197748 0.218957 -0.955486
0.0160802 -0.0648501 0.0916372 -0.0710814 -0.611397 0.788125
0.401313 -0.178307 -0.0956633 0.306291 -0.779937 -0.545787
-0.396348 -0.102509 0.010358 -0.197748 -0.218957 0.955486
0.29567 0.290468 0.102661 -0.948676 -0.202663 -0.24278
0.508004 0.0852415 -0.194208 0.252532 -0.0233324 -0.967307
0.457009 0.0353866 0.244153 0.948676 0.202663 0.24278
0.484503 0.125005 0.0619086 0.948676 0.202663 0.24278
0.247421 0.369952 0.131943 -0.241794 0.959618 0.143771
0.49205 -0.14705 0.0888763 -0.948676 -0.202663 -0.24278
0.345467 -0.133797 0.000973837 -0.948676 -0.202664 -0.242779
-0.312667 -0.167826 -0.136811 0.291134 -0.859479 -0.420162
0.450367 -0.131805 -0.124889 0.31582 -0.647143 -0.693875
0.271492 6.63964e-05 0.170054 -0.948675 -0.202665 -0.242782
0.457518 0.370118 -0.0372585 0.948675 0.202664 0.242781
-0.43657 -0.0610588 -0.00062942 -0.285247 0.216851 0.9336
0.251725 0.244 0.0519059 -0.948676 -0.202663 -0.24278
0.469712 0.136493 0.110115 0.948676 0.202663 0.24278
0.430962 0.227827 0.0146476 -0.948676 -0.202662 -0.242778
0.389274 -0.0233 -0.211531 0.291699 -0.26418 -0.919304
0.294707 0.332481 -0.0868375 -0.0386017 0.836147 -0.547145
0.383894 0.266811 0.0282587 -0.0863755 0.904537 -0.417555
0.432303 -0.18377 0.261913 0.0541989 -0.860513 0.506537
-0.381123 -0.194387 -0.0956404 0.19661 -0.979248 0.0491748
0.244779 0.164332 0.137315 -0.948676 -0.202662 -0.242781
0.229419 0.365697 0.0374811 -0.948676 -0.202663 -0.24278
0.410026 -0.0543327 0.26802 0.0863754 -0.904537 0.417555
0.330836 -0.0790951 0.363448 -0.116216 -0.49056 0.863623
-0.264025 0.0436164 -0.115648 -0.0696631 0.882742 -0.464666
0.299575 0.126073 0.179709 0.312826 -0.488691 -0.814445
0.241228 0.0723565 0.236205 -0.948676 -0.202663 -0.24278
0.298093 -0.171601 0.217647 -0.948675 -0.202664 -0.242781
0.409446 0.173676 0.314569 0.948676 0.202663 0.24278
-0.474793 -0.0180246 -0.0400263 -0.314606 0.682975 0.659218
0.264004 0.304073 0.286807 -0.312609 0.717104 0.622926
0.520022 -0.206991 0.0706099 0.241794 -0.959618 -0.14377
0.265858 -0.0205358 -0.0193524 0.31582 -0.647144 -0.693875
0.315591 -0.135891 0.119465 -0.948676 -0.202663 -0.242777
-0.0352466 -0.11514 0.0208934 0.129406 -0.949234 0.286723
-0.291756 0.021044 -0.147433 0.00467054 0.75862 -0.651517
0.444631 0.292137 -0.131596 0.0556325 0.648766 -0.758952
-0.497495 -0.0682109 -0.0585494 -0.948675 -0.202667 -0.242778
0.166752 0.0615693 0.155113 -0.278085 0.16898 0.945576
0.429267 0.348977 0.0907837 0.948677 0.202663 0.242777
0.232752 0.127566 -0.0191296 0.0243591 0.718575 -0.695023
0.272199 0.0338244 -0.0430178 0.278085 -0.168979 -0.945576
0.317825 -0.2267 0.195327 0.100032 -0.920562 0.37757
0.51057 -0.0989401 -0.0236543 -0.948676 -0.202662 -0.242782
-0.133302 -0.0425193 0.0784026 -0.209804 -0.171109 0.962655
0.334363 0.35326 -0.055085 -0.0696631 0.882742 -0.464665
0.277196 0.158362 0.285126 -0.948675 -0.202665 -0.242779
0.50231 0.136866 -0.192427 0.221338 0.122836 -0.96743
-0.340136 -0.0443093 -0.195998 0.172191 0.312903 -0.934046
0.288159 0.28253 -0.122623 -0.948675 -0.202664 -0.242781
0.539864 0.0188782 -0.0658265 0.948676 0.202662 0.242781
0.553094 -0.0660067 -0.0466648 0.948676 0.202663 0.24278
0.348753 0.0509825 -0.166113 -0.948675 -0.202664 -0.24278
0.416662 0.00401682 0.257355 -0.948676 -0.202663 -0.24278
0.390531 0.042743 -0.061223 -0.948676 -0.202663 -0.24278
0.398172 -0.133621 0.056139 -0.948676 -0.202663 -0.24278
0.446688 -0.144175 0.317721 -0.00861189 -0.750842 0.660425
0.493107 0.226955 -0.0568175 0.948676 0.202663 0.24278
0.514083 -0.157631 0.182257 0.948675 0.202664 0.242783
0.347783 0.151763 0.00991858 0.0243591 0.718575 -0.695023
0.473401 0.315316 -0.0535765 0.948676 0.202663 0.24278
0.222539 0.26163 0.309643 -0.31625 0.609706 0.726804
0.402907 -0.0874819 -0.178512 0.312826 -0.488688 -0.814447
0.390582 0.370043 0.224362 0.948676 0.202664 0.242779
0.450198 -0.0568734 -0.17763 0.30665 -0.401766 -0.862873
0.358552 0.176449 -0.210821 0.158755 0.358767 -0.919828
0.382191 0.169006 0.180607 0.314606 -0.682974 -0.659219
-0.353354 0.0134549 -0.156281 -0.0229078 0.809702 -0.586394
0.310411 0.0340693 0.278343 -0.22028 -0.127376 0.967084
0.450547 -0.0793754 0.3652 0.948676 0.202663 0.24278
0.429127 0.143635 0.262739 0.948676 0.202663 0.24278
0.230406 0.0821253 0.169897 -0.285247 0.216851 0.9336
0.525508 0.147627 -0.117207 0.948676 0.202664 0.24278
0.334662 0.227284 0.00303903 -0.948676 -0.202663 -0.24278
0.393202 -0.215962 -0.0312874 0.277389 -0.901934 -0.331015
0.226435 0.0690752 0.382287 -0.252532 0.0233324 0.967307
-0.321708 -0.107491 -0.191563 0.291699 -0.26418 -0.919304
0.498369 0.0358033 0.0300171 -0.314751 0.530378 0.787166
0.426996 0.1027 0.305239 0.948676 0.202663 0.24278
0.399765 -0.0191488 -0.0456412 -0.948676 -0.202663 -0.24278
0.21581 0.204439 0.225272 -0.948676 -0.202663 -0.24278
0.490314 -0.163532 0.280061 0.948676 0.202663 0.24278
0.404605 0.40348 0.0678452 -0.170969 0.974489 -0.145396
0.472719 0.145982 -0.0801989 -0.948675 -0.202665 -0.24278
0.47516 0.268097 -0.0210308 0.948675 0.202665 0.242782
0.382242 -0.121908 0.108608 -0.948676 -0.202663 -0.24278
0.444922 0.345629 0.0324051 0.948676 0.202663 0.24278
-0.320411 -0.0834873 0.0303416 -0.209804 -0.171109 0.962655
0.392143 -0.0913143 0.191607 0.0863754 -0.904537 0.417555
-0.147235 -0.143301 -0.0258089 0.170969 -0.97449 0.145394
0.48144 -0.0586721 0.227203 0.948675 0.202664 0.242781
-0.333026 -0.0043941 0.0104124 -0.314751 0.530377 0.787167
0.390634 0.285796 -0.140975 0.0556325 0.648766 -0.758952
0.481948 -0.14936 0.14126 0.184018 -0.978085 0.0974069
-0.0499572 0.0540619 0.0842117 -0.314751 0.53038 0.787165
0.449697 0.0411718 -0.0952233 0.22028 0.127376 -0.967084
0.343374 0.0256574 -0.123952 -0.948675 -0.202665 -0.24278
0.255822 0.0206159 0.214133 -0.948675 -0.202665 -0.242781
-0.267866 -0.169837 -0.0861534 0.231332 -0.968149 -0.0957706
0.272686 0.0201041 0.389419 -0.209804 -0.17111 0.962655
-0.114659 -0.0452106 -0.142568 0.270232 -0.120689 -0.955201
0.391958 -0.0386254 0.393482 -0.144924 -0.403737 0.903324
0.262663 -0.0686526 0.270154 -0.948676 -0.202662 -0.242779
0.264857 0.302001 -0.0478251 -0.948676 -0.202663 -0.242778
0.434706 -0.191415 -0.0545993 0.296929 -0.835019 -0.463224
-0.155211 0.0457626 0.0461825 -0.31582 0.647142 0.693876
0.340327 0.315436 -0.112374 -0.00715676 0.781243 -0.624186
-0.275397 -0.0868813 0.0386652 -0.172191 -0.312903 0.934046
-0.26137 -0.129007 0.0164226 -0.0400453 -0.684522 0.727891
-0.395413 -0.0206839 -0.00355964 -0.312826 0.48869 0.814446
0.470241 0.174093 -0.191032 0.1852 0.26626 -0.945942
0.171569 0.0886051 0.148001 -0.30665 0.401766 0.862873
0.362666 0.388923 0.0297692 -0.143629 0.960046 -0.240171
0.0655692 -0.0840092 0.0688655 0.0541998 -0.860514 0.506535
0.474427 0.321837 -0.102614 0.0243586 0.718576 -0.695022
0.407162 0.268044 0.244719 0.948676 0.202663 0.24278
0.38596 0.176874 0.233029 -0.948676 -0.202662 -0.24278
0.330987 -0.0908977 0.0167368 0.277387 -0.901934 -0.331014
0.215361 0.0829293 0.328457 -0.948676 -0.202663 -0.24278
0.212925 -0.0638709 0.0783674 0.143629 -0.960046 0.240171
0.305622 0.24269 -0.157603 -0.948676 -0.202664 -0.24278
0.356212 -0.100952 -0.0684297 -0.948676 -0.202662 -0.242781
0.236159 0.221916 0.131165 -0.948676 -0.202663 -0.24278
0.328374 0.26615 0.35098 -0.315893 0.570752 0.757927
0.0552557 0.0548776 0.121935 -0.297426 0.31085 0.902724
0.289915 -0.118188 0.205018 -0.948676 -0.202663 -0.24278
0.408728 0.325173 -0.10072 0.00467005 0.758621 -0.651516
0.446497 0.0877356 0.241528 0.948676 0.202663 0.24278
0.356372 0.397372 0.108235 -0.208712 0.977977 -0.000821894
0.413684 0.0347116 0.207731 0.116216 0.490561 -0.863623
0.243587 -0.0237238 0.307193 -0.948676 -0.202664 -0.24278
0.292768 0.192403 0.195861 -0.948676 -0.202663 -0.24278
0.370273 0.118636 -0.0454157 -0.948676 -0.202663 -0.24278
0.280434 0.221587 -0.0415678 -0.948675 -0.202664 -0.242781
-0.0264083 -0.0309772 0.103158 -0.1852 -0.26626 0.945942
-0.458521 -0.108113 -0.177536 -0.948676 -0.20266 -0.242781
0.456372 -0.218173 0.0397653 0.251654 -0.9487 -0.191414
0.39167 0.0858128 -0.101626 -0.948676 -0.202663 -0.24278
0.363465 -0.164359 -0.0438406 -0.948676 -0.202664 -0.242779
-0.46261 0.0139237 -0.122106 -0.184018 0.978085 -0.0974064
0.458975 0.119571 0.166195 0.948676 0.202663 0.24278
0.478728 0.0490726 0.14786 0.948676 0.202663 0.24278
0.00818203 0.00931641 -0.111314 0.221338 0.122837 -0.96743
0.509469 0.204599 -0.102089 0.948675 0.202664 0.24278
0.532329 -0.0790085 0.0453272 0.948676 0.202663 0.24278
0.219835 0.346072 0.0913126 -0.948676 -0.202663 -0.24278
0.434299 -0.114663 0.132307 0.0863755 -0.904537 0.417555
0.11702 -0.0580173 0.103228 -0.00861198 -0.750842 0.660425
0.321552 -0.179705 0.274825 0.00715679 -0.781243 0.624186
0.483392 -0.0478489 0.0398968 -0.948676 -0.202662 -0.242781
0.325337 -0.0393072 0.0345342 -0.284615 0.881803 0.376056
0.511334 -0.0181051 0.0765267 0.948676 0.202663 0.24278
-0.236814 0.0606745 -0.0339878 -0.251653 0.9487 0.191411
0.494414 0.0782243 0.0622315 0.948676 0.202663 0.24278
0.235344 0.144754 0.190525 -0.948676 -0.202664 -0.242779
-0.336291 0.0379846 -0.107711 -0.143629 0.960046 -0.240171
0.401402 -0.0144446 0.158158 -0.0541993 0.860514 -0.506536
0.328353 -0.00883867 0.224797 -0.948676 -0.202662 -0.242779
0.470247 0.0456048 -0.201622 0.270232 -0.120689 -0.955201
0.377731 0.324491 0.141958 -0.948676 -0.202663 -0.24278
-0.280785 0.0334648 -0.00262626 -0.306291 0.779936 0.54579
0.37156 0.0756784 0.212648 0.232322 0.0742594 -0.9698
0.398994 0.178246 0.0357852 0.0229072 -0.809701 0.586396
0.496843 0.0838668 -0.122612 -0.948676 -0.202663 -0.24278
0.454941 -0.060874 -0.0175062 0.306656 -0.777161 -0.549529
0.349725 -0.0410982 -0.093045 -0.948676 -0.202663 -0.24278
0.490855 -0.191229 -0.0156273 0.284616 -0.881802 -0.376057
0.377454 0.310554 0.325317 0.948676 0.202663 0.24278
0.19825 0.151705 0.085784 -0.260888 0.935424 0.238577
0.520968 0.0587395 -0.0252661 0.948676 0.202662 0.24278
0.558173 -0.0220378 -0.103218 0.948676 0.202662 0.242781
0.357415 -0.0726582 0.239205 0.0863754 -0.904537 0.417555
0.486194 -0.210502 0.175064 0.157495 -0.968472 0.193023
0.409869 0.389821 0.132486 0.948676 0.202663 0.242779
0.375218 0.247253 0.381494 -0.310124 0.445782 0.839703
0.399705 0.199215 0.134762 0.260888 -0.935424 -0.238579
0.380995 -0.18893 0.258638 0.0541996 -0.860514 0.506536
0.449273 -0.00432666 0.30753 0.948676 0.202663 0.24278
0.162454 -0.00470544 0.146534 -0.144924 -0.403738 0.903323
0.383429 -0.0922597 -0.182036 -0.948676 -0.202663 -0.24278
0.515814 -0.128695 -0.0971126 0.314606 -0.682972 -0.659221
0.320319 0.369134 0.211727 -0.277389 0.901934 0.331015
0.326285 -0.12423 0.067943 -0.948675 -0.202663 -0.242781
0.474803 0.0110503 0.194936 0.948676 0.202663 0.242779
-0.482871 -0.112346 -0.0788507 -0.948675 -0.202666 -0.24278
0.394321 0.100224 0.264343 -0.948676 -0.202661 -0.24278
0.457426 -0.0551436 0.318092 0.948676 0.202663 0.24278
0.38463 0.0656733 -0.0190101 -0.261708 0.0721014 0.96245
0.00401245 -0.10622 -0.0416464 0.277389 -0.901934 -0.331015
0.290655 -0.028156 0.380568 -0.172192 -0.312902 0.934046
-0.200019 -0.0353546 0.0630866 -0.252532 0.0233295 0.967307
-0.0482701 -0.120636 -0.0438157 0.260888 -0.935423 -0.23858
0.379196 0.138425 -0.096802 -0.948676 -0.202663 -0.24278
-0.0527909 0.0931891 0.0357933 -0.284615 0.881804 0.376054
-0.0964882 -0.126142 -0.0715841 0.277389 -0.901933 -0.331016
0.376296 -0.119302 -0.131591 -0.948676 -0.202664 -0.242779
0.325457 0.0021726 -0.0119267 0.314751 -0.53038 -0.787165
-0.366914 -0.166373 -0.170293 0.312609 -0.717103 -0.622928
0.508722 0.253795 -0.151129 0.116217 0.49056 -0.863623
0.283305 0.0810966 0.396844 -0.252532 0.0233324 0.967307
0.527001 0.2025 -0.171339 0.172191 0.312903 -0.934046
-0.471228 -0.108947 -0.127186 -0.948676 -0.202662 -0.242782
-0.315293 -0.129144 0.0117307 -0.0863537 -0.572508 0.815339
0.495635 0.172704 -0.0214068 0.948675 0.202664 0.24278
0.283786 0.154486 -0.00688762 -0.948675 -0.202664 -0.242781
0.223774 0.317369 0.247696 -0.306291 0.779937 0.545787
0.335888 -0.0621485 -0.0296434 -0.948676 -0.202662 -0.242781
0.453495 -0.0256582 -0.0681163 0.306656 -0.777161 -0.549529
0.061952 -0.0949056 -0.023544 0.269474 -0.919822 -0.285151
0.457484 0.273938 0.0431611 0.948676 0.202663 0.242779
0.51927 0.109678 -0.061153 0.948676 0.202663 0.24278
0.357432 -0.237317 0.145584 0.157495 -0.968472 0.193023
0.198725 0.210812 0.286711 -0.948676 -0.202663 -0.24278
0.505754 -0.0378548 -0.0558268 -0.948676 -0.20266 -0.242782
0.388253 0.0932143 0.423649 -0.242729 -0.0254943 0.969759
0.360674 0.192144 0.0781865 0.170969 -0.974489 0.145396
0.332275 -0.00561811 -0.0627129 -0.948676 -0.202663 -0.24278
0.286456 0.224104 -0.0671966 -0.948677 -0.202661 -0.242778
0.364049 -0.0583937 -0.13458 -0.948676 -0.202662 -0.24278
0.382818 0.296201 0.31634 0.948676 0.202663 0.24278
0.322956 0.0679117 -0.0876799 -0.948676 -0.202661 -0.24278
0.269914 0.241065 0.344646 -0.314751 0.530379 0.787166
0.481309 -0.10172 0.263649 0.948676 0.202663 0.24278
0.23586 -0.0488628 0.363269 -0.158755 -0.358768 0.919828
0.0556536 -0.027316 -0.0948441 0.297427 -0.310853 -0.902722
0.408154 0.127784 -0.00383425 -0.144924 -0.403738 0.903323
0.350617 0.162157 -0.00494135 -0.948676 -0.202663 -0.24278
0.10246 -0.0131336 0.132935 -0.158755 -0.358767 0.919828
0.537595 0.0730052 -0.102145 0.948676 0.202664 0.24278
0.329414 0.206354 0.384893 -0.302414 0.356754 0.883896
-0.307014 -0.166006 -0.136519 0.296929 -0.835019 -0.463224
0.555589 -0.0238078 -0.155571 0.30665 -0.401765 -0.862873
0.272858 -0.0436238 0.209424 -0.948676 -0.202662 -0.242779
0.341855 -0.0783406 0.230057 -0.948676 -0.202663 -0.24278
0.414594 0.136094 0.216194 0.302414 -0.356751 -0.883897
0.00538617 -0.0481796 -0.103906 0.30665 -0.401765 -0.862873
0.0576948 0.123451 -0.000858818 -0.157495 0.968472 -0.193023
0.430307 0.0403527 0.344345 0.948675 0.202664 0.24278
-0.0931294 0.0682347 0.0523807 -0.312609 0.717103 0.622927
0.221829 0.343371 0.198159 -0.284616 0.881802 0.376057
0.509509 -0.190205 0.227321 0.948676 0.202663 0.24278
0.399225 0.302011 0.0767344 -0.948676 -0.202663 -0.242779
0.433882 -0.221315 0.163495 0.157495 -0.968472 0.193023
0.465674 -0.0191365 0.255807 0.948676 0.202663 0.24278
-0.504476 -0.000757242 -0.086388 -0.27739 0.901933 0.331016
0.305331 -0.0629999 0.090474 -0.948676 -0.202663 -0.242778
0.413384 0.0529316 -0.217975 0.261708 -0.0721028 -0.96245
-0.212937 -0.158704 -0.0619859 0.208712 -0.977977 0.000822435
0.351428 -0.209955 0.224715 0.069663 -0.882742 0.464666
0.208058 0.0798411 -0.05323 0.158755 0.358766 -0.919828
0.321563 0.0593937 -0.0318722 0.252532 -0.0233321 -0.967307
-0.0481209 0.101111 -0.0266084 -0.157495 0.968472 -0.193023
0.348208 -0.0482794 0.180138 -0.948676 -0.202663 -0.24278
0.364822 -0.0930926 0.152626 -0.948676 -0.202663 -0.24278
-0.148576 -0.13681 -0.086019 0.284616 -0.881802 -0.376056
-0.478239 -0.0577652 -0.142514 -0.948676 -0.202663 -0.24278
0.448263 0.205618 -0.0344173 -0.948675 -0.202664 -0.242781
0.367543 -0.0335502 0.0720215 0.241794 -0.959618 -0.14377
0.266806 0.198388 0.0228155 -0.948676 -0.202663 -0.242779
0.167136 0.0230696 -0.0712492 0.261708 -0.0721009 -0.96245
-0.0553707 -0.0312876 -0.127555 0.270233 -0.120691 -0.955201
0.453193 -0.10401 0.204783 -0.948675 -0.202664 -0.242781
0.278764 -0.134337 0.262071 -0.948676 -0.202663 -0.24278
0.254079 -0.0141682 0.258217 -0.948675 -0.202664 -0.24278
0.548587 -0.184785 0.0139743 0.277389 -0.901934 -0.331015
0.433388 -0.0977511 0.0226194 0.306656 -0.777161 -0.549529
0.444977 -0.0049947 0.0478117 -0.301985 0.808485 0.505131
0.417326 0.190405 -0.195234 0.158755 0.358767 -0.919828
-0.150556 -0.126678 0.0194067 0.0386013 -0.836147 0.547146
-0.4324 -0.142327 -0.010822 -0.116216 -0.490561 0.863622
0.136522 0.139073 0.0136189 -0.143629 0.960046 -0.24017
0.398647 0.240497 0.300987 0.948676 0.202662 0.242781
0.260736 0.0887197 -0.0406629 0.172191 0.312904 -0.934046
0.165848 0.123058 -0.0251202 -0.00715709 0.781244 -0.624185
-0.0771103 -0.0586585 0.0839855 -0.144924 -0.403737 0.903324
-0.285965 0.052034 -0.0704566 -0.19661 0.979248 -0.0491738
0.488915 0.0386009 -0.0538498 -0.948676 -0.202664 -0.24278
0.349161 0.12319 0.412166 -0.270233 0.12069 0.955201
0.208715 0.198088 0.346075 -0.30665 0.401765 0.862874
0.352545 0.300119 0.106898 -0.0863756 0.904537 -0.417555
0.0568978 0.125158 0.0148733 -0.19661 0.979248 -0.0491738
-0.301489 -0.0329071 0.0341037 -0.285247 0.216851 0.9336
0.22181 0.00530698 0.368054 -0.948676 -0.202663 -0.24278
0.20581 0.200487 0.343755 -0.310124 0.445782 0.839703
0.322467 0.118533 -0.119788 -0.948675 -0.202665 -0.24278
0.499585 -0.0859588 -0.141452 0.314751 -0.530378 -0.787166
-0.35771 -0.161098 -0.0201557 -0.00861198 -0.750842 0.660425
0.488792 -0.104701 0.0633657 0.306656 -0.777161 -0.549529
0.392008 0.219372 0.344563 0.948676 0.202664 0.24278
0.390434 -0.0465698 0.0137082 -0.948676 -0.202663 -0.24278
0.314279 0.262259 0.161912 -0.306656 0.777161 0.549529
0.409731 -0.21236 0.205642 0.114861 -0.936061 0.33256
0.552081 -0.124922 0.00647322 0.948676 0.202665 0.242777
0.488275 -0.00469353 -0.0152063 -0.948676 -0.20266 -0.242782
0.233751 0.304342 0.071769 -0.948676 -0.202663 -0.242781
0.30807 0.181203 -0.115842 -0.948675 -0.202665 -0.242781
0.396607 -0.0576686 -0.00114481 -0.948676 -0.202663 -0.24278
0.0649137 0.100283 -0.0524687 -0.00715709 0.781244 -0.624185
0.400966 0.127493 0.386255 0.948675 0.202664 0.24278
0.43588 -0.228031 0.0834145 0.220296 -0.974274 -0.0475339
0.337086 0.149728 0.299653 -0.22028 -0.127376 0.967084
-0.205677 -0.0980441 0.0448409 -0.101411 -0.532195 0.840526
0.125737 0.112717 0.111009 -0.312609 0.717104 0.622927
-0.0519184 -0.084734 -0.10379 0.31625 -0.609706 -0.726804
0.497429 -0.127252 0.21622 0.100032 -0.920562 0.37757
-0.407406 0.00373424 -0.167592 -0.0229078 0.809702 -0.586394
0.250689 0.359591 -0.0183069 -0.129407 0.949234 -0.28672
-0.278972 -0.0774424 -0.184981 0.270233 -0.120691 -0.955201
-0.204603 -0.0955377 0.0464098 -0.116216 -0.490561 0.863622
0.449521 0.262947 -0.0693116 0.0400457 0.684522 -0.727891
0.459683 0.111393 -0.205287 0.232323 0.0742569 -0.9698
0.332471 -0.00343426 0.396311 -0.1852 -0.26626 0.945942
0.352444 0.101402 -0.222623 -0.948676 -0.202663 -0.24278
0.417168 0.212175 0.252256 0.948676 0.202663 0.24278
-0.18511 0.0710659 -0.0175149 -0.251654 0.9487 0.191414
0.311457 0.0526595 0.192252 -0.209803 -0.17111 0.962655
0.537485 -0.19776 0.124309 0.948675 0.202663 0.242781
0.344052 -0.171564 0.0380303 -0.948676 -0.202663 -0.24278
0.297161 0.162988 -0.0601583 0.0710827 0.611397 -0.788125
0.224602 0.123291 0.258653 -0.948676 -0.202664 -0.24278
0.520319 -0.161199 -0.0529477 0.301985 -0.808483 -0.505133
0.290875 0.160856 0.22959 -0.948676 -0.202663 -0.24278
0.116248 0.0701615 -0.0723805 0.130733 0.447705 -0.884573
0.314277 -0.173942 0.156364 -0.948676 -0.202663 -0.24278
-0.142684 -0.0905599 0.0571046 -0.0863537 -0.572508 0.815339
0.322489 -0.18101 0.273181 0.00715679 -0.781243 0.624186
0.468897 -0.100438 0.311078 0.948676 0.202663 0.24278
-0.0301355 -0.089558 0.0654507 -0.00861198 -0.750842 0.660425
0.364717 -0.149445 0.310398 -0.0243587 -0.718576 0.695022
0.298502 -0.0910119 0.144099 0.0849536 -0.902774 0.421642
0.446722 -0.135394 0.0832959 0.306656 -0.777161 -0.549529
0.417838 0.304431 0.00198346 -0.948676 -0.202663 -0.24278
0.438412 0.184048 0.192725 0.948676 0.202664 0.242779
0.0124093 -0.101314 0.0429561 0.100031 -0.920561 0.377572
0.246164 0.348238 -0.0133755 -0.948676 -0.202663 -0.24278
-0.491919 -0.0862194 -0.0123746 -0.270233 0.120691 0.955201
0.201415 0.14334 0.332525 -0.948676 -0.202664 -0.24278
0.289482 0.0977126 0.397871 -0.261708 0.0721005 0.96245
-0.257953 -0.134766 -0.151231 0.31582 -0.647142 -0.693876
0.412089 0.312744 0.188151 0.948676 0.202663 0.24278
-0.00169377 0.0201706 0.112871 -0.270233 0.120691 0.955201
0.467952 -0.158915 -0.0856443 0.309835 -0.749452 -0.585084
0.434976 -0.00979987 0.367967 0.948676 0.202663 0.24278
-0.176693 -0.0313327 -0.158773 0.221338 0.122837 -0.96743
0.308496 0.37435 0.00446574 -0.129407 0.949234 -0.28672
-0.204475 -0.127224 -0.133676 0.314606 -0.682974 -0.659219
0.31791 0.201237 0.250238 -0.306656 0.777161 0.549529
0.369003 0.0929842 0.21211 0.261708 -0.0721001 -0.96245
0.529436 -0.0332066 0.0183967 0.948676 0.202665 0.242777
0.425889 0.213135 0.06652 0.100031 -0.920562 0.377571
0.531986 -0.180368 0.131279 0.948676 0.202663 0.242779
0.374889 0.236944 -0.0345791 -0.0863755 0.904537 -0.417555
0.34834 0.395605 0.0967424 -0.19661 0.979248 -0.0491746
0.176424 -0.0478869 0.115438 0.00715635 -0.781242 0.624187
0.400365 -0.107173 0.351682 -0.0710811 -0.611398 0.788124
0.272255 0.364191 0.184248 -0.269474 0.919822 0.285151
0.268071 0.225094 0.353682 -0.312826 0.488687 0.814448
0.285428 0.381935 0.076056 -0.19661 0.979248 -0.0491746
0.467735 -0.00930718 -0.190656 0.291699 -0.26418 -0.919304
-0.152161 0.0655022 -0.0908416 -0.0696627 0.882741 -0.464667
0.0126782 0.0829706 0.0878959 -0.31582 0.647142 0.693876
0.19061 -0.0696336 0.0174304 0.260888 -0.935423 -0.23858
-0.281134 -0.160672 -0.0247911 0.0696627 -0.882741 0.464667
0.301219 -0.0283548 0.137791 0.0386013 -0.836147 0.547146
0.213517 0.0203691 0.164584 -0.1852 -0.26626 0.945942
0.124428 -0.0858081 0.0119763 0.231333 -0.968149 -0.0957718
0.253111 -0.0562473 0.03329 0.260888 -0.935423 -0.23858
0.381707 0.19805 0.402612 0.948676 0.202663 0.24278
0.401595 -0.0203401 -0.208472 0.291699 -0.26418 -0.919304
0.504001 0.115697 -0.00651083 0.948676 0.202663 0.24278
0.388588 -0.020651 0.400632 -0.158755 -0.358768 0.919828
-0.359027 0.022798 -0.0323342 -0.296929 0.83502 0.463223
0.312336 0.228627 0.0891604 -0.948676 -0.202663 -0.24278
0.507923 0.0259992 -0.11659 0.291699 -0.264178 -0.919305
0.111202 0.0134029 -0.0856812 0.252532 -0.0233307 -0.967307
0.554673 0.0236051 -0.127642 0.948676 0.202662 0.24278
0.108832 0.0644005 0.136308 -0.297426 0.310851 0.902723
-0.214836 0.0367551 0.0272818 -0.314606 0.682975 0.659218
0.494046 -0.024218 0.149185 0.948676 0.202663 0.24278
0.392376 -0.234592 0.0401644 0.241794 -0.959618 -0.143771
0.215549 0.303298 0.143765 -0.948676 -0.202663 -0.242781
0.473459 0.143316 -0.0763576 0.22028 0.127376 -0.967084
0.230817 0.159299 0.0380778 -0.143629 0.960046 -0.24017
0.351007 -0.0723559 0.36999 -0.116216 -0.49056 0.863623
0.333027 -0.17929 0.0875588 -0.948676 -0.202663 -0.24278
0.283694 0.156432 0.386853 -0.2917 0.26418 0.919304
0.393763 0.0799326 0.356717 -0.232322 -0.0742593 0.9698
0.381237 0.347177 0.279965 0.948676 0.202663 0.24278
0.426815 0.396464 0.0607217 0.948676 0.202663 0.24278
0.456636 0.191393 0.115382 0.948676 0.202663 0.24278
0.123351 -0.0868583 0.0286646 0.19661 -0.979248 0.0491748
0.235323 0.114014 0.38112 -0.270233 0.120691 0.955201
0.311055 0.171348 0.136901 0.291134 -0.859479 -0.420162
-0.428835 0.0152769 -0.0666899 -0.27739 0.901933 0.331016
0.567433 -0.142393 -0.05376 0.306291 -0.779937 -0.545788
0.312662 0.179677 0.0557247 0.143629 -0.960046 0.24017
0.310102 0.374575 0.00448501 -0.129407 0.949234 -0.28672
0.409648 0.00788324 -0.106824 -0.948676 -0.202663 -0.24278
0.496187 0.258858 -0.0954842 0.948676 0.202663 0.24278
-0.19283 -0.124504 -0.130937 0.314606 -0.682974 -0.659219
0.327765 0.217909 -0.195864 0.116216 0.49056 -0.863623
0.49625 0.0245501 0.099861 0.948676 0.202663 0.24278
-0.231362 0.00803177 -0.154453 0.101411 0.532195 -0.840526
0.311747 0.117162 -0.0196023 0.116216 0.490561 -0.863622
0.218891 0.134143 0.271913 -0.948676 -0.202663 -0.24278
0.237342 -0.0396766 0.124772 0.0229078 -0.809702 0.586394
0.0609086 0.0385548 -0.0941851 0.1852 0.266261 -0.945942
-0.119718 0.0842948 0.00238493 -0.260888 0.935424 0.238579
0.360729 -0.00724386 -0.164302 -0.948676 -0.202662 -0.24278
0.0486443 -0.0200761 0.120782 -0.172191 -0.312903 0.934046
0.403095 0.0102572 0.00959798 -0.31625 0.609706 0.726804
0.0822276 -0.0562335 -0.0693286 0.31625 -0.609706 -0.726804
0.414935 0.211317 -0.0807315 0.22028 0.127376 -0.967084
0.333272 0.238585 0.205992 -0.306656 0.777161 0.549529
-0.0829295 0.015051 -0.128696 0.172191 0.312904 -0.934046
0.326554 0.157362 -0.168169 -0.948676 -0.202663 -0.24278
-0.0548527 0.00952976 0.0991763 -0.270233 0.120691 0.955201
0.304922 0.382258 0.146513 -0.241794 0.959617 0.143771
-0.0943978 -0.119333 0.0257463 0.069663 -0.882741 0.464666
0.384301 0.367336 -0.0358314 -0.0696628 0.882741 -0.464667
0.572952 -0.0789826 -0.113431 0.948676 0.202662 0.242781
0.364035 0.391907 0.177458 -0.251654 0.9487 0.191413
0.441786 -0.0358948 0.192498 -0.948675 -0.202664 -0.242781
0.319185 0.0498615 0.193362 -0.197747 -0.218958 0.955486
0.325886 -0.0290722 0.273552 -0.22028 -0.127376 0.967084
0.366327 0.145118 0.34441 -0.285247 0.21685 0.933601
0.476828 0.216403 0.015601 0.948676 0.202663 0.24278
0.274967 -0.0940073 0.347459 -0.116216 -0.49056 0.863623
0.477261 0.086419 -0.0482255 -0.948676 -0.202663 -0.24278
