ply
format ascii 1.0
comment Created by Open3D
element vertex 512
property double x
property double y
property double z
property double nx
property double ny
property double nz
end_header
0.312276 0.0596567 -0.307174 -0.0263897 -0.738239 -0.674023
-0.224449 -0.307082 -0.206585 -0.557641 0.570472 -0.602991
0.12109 -0.292667 -0.393599 0.0975576 -0.676347 -0.730094
-0.309249 -0.0243491 0.255998 0.38375 0.821307 0.422127
0.392833 0.163656 -0.271727 0.821642 0.482673 -0.303202
0.195554 -0.224944 -0.270029 0.557637 -0.570472 0.602995
0.249372 0.0752696 -0.283037 -0.557641 0.570473 -0.60299
0.281893 0.127749 -0.263463 -0.557641 0.570474 -0.602989
-0.387434 -0.1417 0.297524 -0.80299 -0.186654 0.56601
0.432466 0.11421 -0.238723 0.830063 0.37824 -0.409792
-0.348831 -0.0986995 0.105588 -0.557639 0.570474 -0.602991
-0.259522 -0.363589 -0.205462 0.0149907 -0.719383 -0.694452
0.0288654 -0.233144 -0.288954 -0.791505 -0.146546 0.593333
0.121471 -0.32681 -0.355984 -0.149756 -0.783643 -0.60289
-0.222669 -0.379617 -0.0295919 0.557639 -0.570475 0.60299
-0.335436 -0.182375 0.261299 0.55764 -0.570473 0.602992
0.33193 0.215683 -0.226545 -0.557639 0.570473 -0.602992
-0.214274 -0.239945 -0.0890169 0.346591 0.820087 0.455337
-0.183335 0.287585 0.317992 -0.55764 0.570473 -0.602991
-0.292277 -0.318905 -0.155043 -0.557642 0.570474 -0.602988
-0.203234 -0.352431 -0.021846 0.557639 -0.570474 0.602991
-0.228241 -0.0979656 0.232472 0.826506 0.448949 -0.339606
-0.0802743 0.171451 0.360072 0.55764 -0.570473 0.602991
-0.351246 0.00653675 0.231087 0.269764 0.811538 0.518299
-0.133957 0.18087 0.418629 0.55764 -0.570473 0.602991
0.146304 -0.244307 -0.242802 0.55764 -0.570473 0.602991
-0.402314 -0.00830615 0.240567 -0.557642 0.570471 -0.602991
0.287946 0.288502 0.0525397 0.513079 -0.334156 -0.790626
-0.320647 -0.34088 -0.0861743 -0.825371 -0.30377 0.475906
0.177399 0.312711 0.185014 -0.745388 -0.0244643 0.666182
0.0870296 -0.269157 -0.223867 -0.726254 0.0164859 0.687229
-0.25101 -0.0673616 0.222702 0.794866 0.576324 -0.189839
-0.140226 -0.319273 -0.0487455 0.55764 -0.570473 0.60299
-0.283416 -0.157858 0.169123 0.410095 -0.442245 -0.797647
-0.146544 0.281534 0.278243 -0.55764 0.570476 -0.602988
0.071876 -0.153398 -0.285025 -0.179151 0.626591 0.758478
0.250687 0.427527 0.111821 0.489173 0.812728 0.316517
0.143463 -0.231871 -0.42045 0.5755 -0.257793 -0.776107
0.225861 0.32321 0.220537 0.557641 -0.570472 0.602991
0.381893 0.177916 -0.201675 0.52199 0.805813 0.279626
0.158271 0.33563 0.0475327 -0.557641 0.570473 -0.602989
0.253602 0.12055 -0.182077 -0.745388 -0.0244643 0.666182
0.411885 0.0517873 -0.266027 0.544967 -0.296343 -0.784342
0.100534 -0.148114 -0.35673 -0.557639 0.570473 -0.602992
0.179771 0.254123 0.11976 -0.689041 -0.723198 -0.0469789
0.284691 0.285706 0.13065 0.557639 -0.570474 0.602991
0.0731191 -0.141635 -0.325248 -0.557639 0.570473 -0.602991
0.344277 0.17521 -0.276254 -0.55764 0.570473 -0.602991
0.0496159 -0.267271 -0.271474 -0.819943 -0.265358 0.507227
0.359522 0.121013 -0.114758 -0.179151 0.626591 0.758478
0.237927 0.287608 0.0297987 0.219328 -0.599346 -0.769857
0.314015 0.337607 0.073855 0.812476 0.226285 -0.537288
-0.193985 -0.378381 -0.177105 0.373608 -0.476196 -0.796024
0.371131 0.0165238 -0.260861 0.0975569 -0.676348 -0.730093
-0.0347244 0.246692 0.285086 0.812476 0.226286 -0.537287
-0.278801 -0.161386 0.228781 0.557642 -0.570471 0.602991
-0.353707 -0.0272733 0.177671 -0.55764 0.570473 -0.602991
-0.335706 0.0105424 0.196801 -0.557639 0.570473 -0.602992
0.267131 0.250553 0.113631 0.557642 -0.570472 0.60299
0.143813 -0.308695 -0.375484 0.138527 -0.65228 -0.745212
0.134535 0.399515 0.129923 -0.55764 0.570473 -0.602991
-0.375482 -0.0119816 0.212276 -0.557639 0.570474 -0.602992
-0.0409451 0.276918 0.297567 0.821641 0.482675 -0.303201
0.182628 -0.181944 -0.285417 0.553514 0.796895 0.242036
-0.297291 -0.365817 -0.191931 -0.346583 -0.820086 -0.455344
-0.336497 -0.313048 -0.108607 -0.55764 0.570474 -0.60299
0.233888 0.311527 0.0112863 0.336198 -0.508957 -0.792423
0.171078 0.355466 0.173415 -0.6046 0.218606 0.765944
0.143071 0.350222 0.0753937 -0.55764 0.570473 -0.602991
0.453476 0.0817885 -0.218362 0.55764 -0.570471 0.602993
-0.0117401 0.194246 0.305229 0.726253 -0.016487 -0.68723
0.301748 0.144553 -0.152322 -0.410097 0.442243 0.797647
-0.146682 0.240715 0.415126 -0.575496 0.257798 0.776109
0.234976 0.283677 0.174706 0.55764 -0.570473 0.602991
-0.159526 -0.337171 -0.165777 0.726252 -0.0164897 -0.687231
-0.265062 -0.0625781 0.289195 0.455139 0.817622 0.352622
0.375318 0.185477 -0.283938 0.814735 0.515194 -0.266048
-0.413028 -0.0364575 0.223842 -0.557639 0.570474 -0.602991
0.201747 0.372751 0.0424458 -0.55764 0.570473 -0.602991
0.141671 0.29363 0.0950396 -0.750336 -0.657097 0.0722424
-0.442964 -0.11836 0.174041 -0.55764 0.570473 -0.602991
-0.260183 -0.128891 0.175966 0.68262 -0.0981634 -0.72415
-0.450464 -0.0775112 0.229273 -0.80299 -0.186652 0.56601
-0.248491 -0.0984451 0.193206 0.812476 0.226284 -0.537289
-0.295926 -0.114299 0.289166 0.55764 -0.570473 0.602991
-0.256399 -0.302041 -0.0275381 -0.410097 0.442243 0.797648
-0.182605 0.261356 0.292502 -0.55764 0.570472 -0.602992
0.183975 -0.284225 -0.372789 0.544967 -0.296343 -0.784342
-0.152144 0.319184 0.319042 -0.557637 0.570474 -0.602993
0.209567 -0.203877 -0.29383 0.711258 0.702894 0.00722453
0.240165 0.244949 0.133268 0.557639 -0.570473 0.602992
-0.328096 -0.29066 -0.0848729 -0.705314 0.0573956 0.706568
0.330224 0.0223748 -0.160589 0.55764 -0.570473 0.602992
-0.195495 0.195026 0.27177 -0.553516 -0.796894 -0.242034
0.352691 0.0948498 -0.32254 0.445561 -0.407196 -0.797287
-0.201034 -0.413674 -0.0818205 0.55764 -0.570473 0.602991
-0.248159 -0.416616 -0.137838 -0.346589 -0.820087 -0.45534
0.41156 0.0937511 -0.274728 0.726252 -0.0164887 -0.68723
-0.391554 -0.0366282 0.270285 -0.373615 0.47619 0.796025
-0.20504 -0.416217 -0.149767 0.0563491 -0.698731 -0.713161
-0.0226996 0.266068 0.379518 0.612355 0.773141 0.165147
0.113718 0.340145 0.101839 -0.830063 -0.37824 0.409792
-0.314481 -0.00662271 0.22185 0.521992 0.805813 0.279625
-0.218744 -0.3645 -0.19635 0.297951 -0.540454 -0.786851
-0.292964 -0.0440142 0.279136 0.34659 0.820087 0.455338
-0.325865 -0.106322 0.324399 0.557642 -0.570472 0.602991
-0.13604 -0.298743 -0.0757123 0.711259 0.702893 0.00722257
0.0602795 -0.207692 -0.375868 -0.557641 0.570473 -0.60299
0.278431 0.0359166 -0.209955 -0.750332 -0.657103 0.0722326
-0.0576748 0.157536 0.286579 0.29795 -0.540455 -0.786851
0.267718 0.102919 -0.273844 -0.55764 0.570473 -0.602992
-0.278867 -0.373206 -0.0356975 -0.812476 -0.226283 0.537289
-0.351897 -0.212642 0.247884 -0.58366 -0.785995 -0.203846
-0.372709 -0.175719 0.184487 -0.383755 -0.821307 -0.422122
0.119929 0.366162 0.122418 -0.76267 -0.0653572 0.643477
0.284341 0.349045 0.0375873 0.762672 0.0653617 -0.643474
-0.0652397 0.217422 0.252821 0.604605 -0.218598 -0.765942
-0.292212 -0.322879 -0.0464665 -0.68262 0.0981644 0.72415
-0.167324 -0.344785 -0.0478214 0.55764 -0.570473 0.602991
-0.404256 -0.112422 0.282 -0.76267 -0.0653565 0.643477
0.256964 0.420238 0.0363071 -0.55764 0.570473 -0.602991
0.220916 0.251232 0.0674815 -0.190262 -0.794925 -0.576103
0.207755 0.278824 0.0353271 -0.0677121 -0.755263 -0.651914
0.0969238 -0.124793 -0.331328 -0.557642 0.570473 -0.602989
-0.252424 -0.424874 -0.0448915 0.55764 -0.570473 0.602991
0.191281 0.340688 0.193428 -0.5755 0.257793 0.776107
0.11364 -0.234311 -0.438507 0.410098 -0.442242 -0.797647
0.182865 0.334558 0.0237735 -0.55764 0.570473 -0.602991
0.229713 0.0951687 -0.232884 -0.821642 -0.482672 0.303204
-0.350478 -0.168644 0.16333 -0.108869 -0.770411 -0.628183
-0.372433 -0.0583344 0.292244 -0.373615 0.47619 0.796025
0.407536 0.155946 -0.240557 0.794866 0.576323 -0.189841
0.386277 0.06507 -0.288372 0.479918 -0.371136 -0.794945
-0.286585 -0.339392 -0.179689 -0.557642 0.570473 -0.602989
0.0271701 -0.161037 -0.30111 -0.55764 0.570474 -0.602991
-0.376035 -0.115461 0.31193 -0.682619 0.0981655 0.724151
-0.0291498 0.202369 0.342044 0.557641 -0.57047 0.602993
-0.424396 -0.0802474 0.192926 -0.55764 0.570472 -0.602992
0.0894342 -0.329826 -0.324356 -0.52199 -0.805814 -0.279627
-0.122736 0.318514 0.366595 0.0677159 0.755265 0.651912
-0.140603 0.153691 0.399061 0.55764 -0.570473 0.602991
0.354624 0.126306 -0.332089 -0.557639 0.570474 -0.602991
0.394023 0.108529 -0.138081 0.55764 -0.570473 0.602991
0.161201 -0.262495 -0.273786 0.557641 -0.570473 0.60299
0.273955 0.409838 0.0639722 0.794863 0.576331 -0.189831
-0.184034 0.22209 0.256676 -0.557639 0.570473 -0.602992
-0.07259 0.148593 0.331341 0.557639 -0.570473 0.602992
-0.293057 -0.082443 0.31665 0.55764 -0.570473 0.602991
-0.358745 -0.141602 0.133712 0.0149965 -0.71938 -0.694454
0.191166 0.313441 -0.00143293 0.0563482 -0.698732 -0.713161
0.249039 0.345585 0.220158 -0.21933 0.599345 0.769857
-0.0977771 0.244414 0.438909 -0.258958 0.570612 0.779322
-0.117567 -0.326231 -0.0762821 0.55764 -0.570474 0.60299
0.153943 0.376122 0.0898424 -0.557641 0.570471 -0.602992
0.312434 0.3741 0.126988 0.731701 0.680849 -0.0325371
0.22364 0.401276 0.165648 -0.0149947 0.719381 0.694453
-0.0911666 0.31262 0.363724 0.308565 0.816828 0.487421
-0.245218 -0.227968 -0.0915564 0.190263 0.794925 0.576103
-0.20703 0.291305 0.343424 -0.557639 0.570474 -0.602991
0.370439 0.0662558 -0.156264 0.557642 -0.570471 0.602991
-0.267101 -0.39967 -0.15391 -0.383756 -0.821307 -0.422121
0.435189 0.128545 -0.207629 0.781952 0.604778 -0.150977
0.353403 -0.0152743 -0.217644 0.557641 -0.570473 0.60299
-0.122738 0.266497 0.242001 -0.557639 0.570475 -0.602991
0.297461 0.0204649 -0.22845 -0.583662 -0.785994 -0.203842
-0.341437 -0.0154923 0.258498 0.14975 0.783641 0.602894
-0.22131 0.22722 0.319454 -0.826506 -0.448946 0.339609
-0.0748742 0.266327 0.237058 0.745389 0.0244664 -0.666181
-0.323994 -0.359308 -0.120084 -0.794865 -0.576325 0.189838
-0.0938278 0.162991 0.272389 0.0975598 -0.676346 -0.730094
0.39302 0.155458 -0.163532 0.383758 0.821307 0.42212
-0.0550476 0.262195 0.261247 0.802989 0.186647 -0.566014
0.0151281 -0.260533 -0.372431 -0.689042 -0.723198 -0.0469782
-0.304732 -0.295067 -0.0627405 -0.632202 0.178867 0.753875
-0.432702 -0.103831 0.245132 -0.819943 -0.265363 0.507223
0.096265 -0.262272 -0.424956 0.138527 -0.65228 -0.745212
0.294201 0.199417 -0.207042 -0.557643 0.570472 -0.60299
0.1531 -0.274643 -0.395858 0.410098 -0.442243 -0.797647
0.19841 0.270797 0.196337 0.55764 -0.570474 0.60299
0.0854113 -0.32285 -0.260796 0.55764 -0.570474 0.60299
0.408954 0.0729156 -0.185583 0.55764 -0.570475 0.602989
-0.138527 -0.352936 -0.142997 0.745388 0.0244654 -0.666182
-0.148054 0.22223 0.223534 -0.557641 0.570472 -0.602991
0.13093 -0.132112 -0.331942 0.521992 0.805813 0.279625
0.268935 0.0597237 -0.18418 -0.829315 -0.414112 0.375163
-0.0981773 0.26379 0.216727 -0.557641 0.570471 -0.602992
0.255225 0.271403 0.144368 0.55764 -0.570473 0.602991
-0.261675 -0.351647 -0.013781 -0.68262 0.0981644 0.72415
0.167178 -0.285232 -0.300824 0.557641 -0.570472 0.602991
0.0511529 -0.262772 -0.419538 -0.557637 0.570473 -0.602993
-0.406751 -0.075844 0.277168 -0.632202 0.178867 0.753875
-0.273636 -0.0929732 0.288727 0.55764 -0.570473 0.602991
0.280359 0.2344 0.0837878 0.138524 -0.652282 -0.745211
0.104683 -0.164051 -0.270294 -0.0149965 0.71938 0.694454
-0.163252 0.174724 0.390031 -0.830063 -0.378238 0.409794
0.41463 0.132872 -0.139233 0.383758 0.821307 0.42212
0.402647 0.127545 -0.28061 0.802989 0.186647 -0.566014
-0.408707 -0.142641 0.153214 -0.419969 -0.820485 -0.387855
0.437447 0.0793476 -0.246 0.778057 0.10609 -0.619171
0.323684 0.358685 0.163633 0.55764 -0.570473 0.602991
0.281345 0.0544178 -0.289029 -0.346589 -0.820087 -0.455339
-0.290738 -0.395925 -0.0979232 -0.750334 -0.6571 0.0722369
0.291471 0.38072 0.168147 0.419969 0.820485 0.387855
0.215747 -0.280598 -0.347562 0.705313 -0.0573965 -0.706568
0.327976 0.34889 0.11004 0.821642 0.482671 -0.303205
-0.0382673 0.226665 0.373462 0.55764 -0.570473 0.602991
0.117823 -0.245296 -0.217398 0.55764 -0.570473 0.602991
0.109249 -0.183565 -0.398328 -0.55764 0.570471 -0.602992
-0.432313 -0.128163 0.220218 -0.805802 -0.546439 0.228227
0.0235428 -0.268714 -0.343058 -0.750334 -0.6571 0.072237
0.420768 0.142122 -0.173169 0.583662 0.785994 0.203843
0.184088 0.384345 0.0697443 -0.557638 0.570474 -0.602992
-0.179986 0.213386 0.383905 -0.802988 -0.186644 0.566016
-0.453085 -0.0968819 0.203721 -0.55764 0.570472 -0.602992
-0.165304 -0.276033 -0.142747 0.814735 0.515197 -0.266045
-0.329963 -0.150763 0.146317 0.179151 -0.626591 -0.758478
0.134199 0.321141 0.125674 -0.828747 -0.341432 0.443398
0.272872 0.386137 0.0323572 0.819943 0.265362 -0.507224
-0.0670062 0.310797 0.334408 0.612355 0.773141 0.165147
0.303204 0.083801 -0.1293 -0.682622 0.0981608 0.724149
-0.133041 0.312718 0.295258 -0.557642 0.570473 -0.602989
0.160836 -0.157479 -0.368799 0.794866 0.576323 -0.18984
-0.0957669 0.294652 0.243695 -0.55764 0.570472 -0.602992
-0.11255 0.336784 0.336645 0.346588 0.820087 0.45534
0.255198 0.386057 0.0070221 0.778054 0.106082 -0.619175
0.256271 0.0610341 -0.220042 -0.781954 -0.604774 0.150984
0.0118212 -0.239485 -0.320075 -0.830063 -0.378241 0.409791
0.205011 0.29634 0.214398 0.557641 -0.570472 0.602992
0.334897 0.148868 -0.143606 -0.138528 0.652279 0.745212
0.284267 0.117257 -0.152454 -0.6322 0.178869 0.753876
-0.295663 -0.142952 0.261814 0.55764 -0.570473 0.602991
-0.316956 -0.365931 -0.163563 -0.583661 -0.785994 -0.203843
0.228199 0.40759 0.050943 -0.55764 0.570474 -0.60299
0.354642 0.055821 -0.297511 0.258964 -0.570607 -0.779323
0.160345 0.403883 0.110187 -0.557639 0.570475 -0.602991
-0.16037 0.202765 0.407141 -0.778056 -0.106087 0.619172
0.187158 0.396985 0.162077 -0.297951 0.540454 0.786851
0.0487975 -0.169947 -0.32954 -0.55764 0.570473 -0.602991
-0.270785 -0.123361 0.257341 0.55764 -0.570473 0.602991
0.351433 0.178853 -0.176952 0.190261 0.794924 0.576104
0.0596511 -0.305835 -0.305669 -0.750335 -0.657099 0.0722392
-0.099076 0.22351 0.227904 0.445558 -0.407199 -0.797287
-0.0993531 0.147153 0.354729 0.557641 -0.570473 0.60299
0.142672 0.348028 0.147454 -0.745388 -0.0244643 0.666182
-0.38365 -0.169559 0.286112 -0.829316 -0.414106 0.375169
-0.249707 -0.253801 -0.132819 -0.557641 0.570473 -0.60299
-0.233901 -0.390918 -0.176599 0.0149907 -0.719383 -0.694452
0.293716 0.350632 0.183728 0.557641 -0.570473 0.60299
-0.217696 -0.274293 -0.181809 -0.55764 0.570476 -0.602989
-0.25455 -0.382591 -0.00568462 -0.76267 -0.0653573 0.643477
-0.271755 -0.244068 -0.10322 -0.55764 0.570473 -0.602991
-0.0506749 0.175199 0.336245 0.55764 -0.570473 0.602991
0.209855 -0.218846 -0.336019 0.829316 0.414109 -0.375166
0.145091 -0.21484 -0.217506 -0.0975581 0.676347 0.730094
0.301487 0.0936467 -0.313846 -0.55764 0.570473 -0.602991
-0.187815 0.182642 0.301043 -0.665113 -0.741703 -0.0866146
0.290562 0.0614813 -0.145408 -0.802988 -0.186645 0.566015
-0.0699266 0.302296 0.260697 0.829316 0.414108 -0.375167
-0.249699 -0.0975479 0.262262 0.55764 -0.570473 0.602991
-0.40171 -0.14654 0.271181 -0.830063 -0.378241 0.409791
0.319317 0.176868 -0.251602 -0.55764 0.570473 -0.60299
-0.26784 -0.295077 -0.1551 -0.557641 0.570473 -0.602991
-0.0613718 0.30721 0.300793 0.767097 0.631724 -0.111747
0.00765418 -0.208898 -0.311261 -0.791505 -0.146546 0.593333
0.199171 0.24738 0.173479 0.557641 -0.570475 0.602989
-0.298331 -0.366941 -0.0643331 -0.828748 -0.341434 0.443396
-0.265859 -0.0508342 0.254178 0.612357 0.773141 0.165145
0.314681 0.296116 0.0712751 0.682619 -0.0981653 -0.724151
0.228301 0.436173 0.0778899 -0.55764 0.570473 -0.602991
0.101443 -0.217167 -0.230049 -0.410093 0.442247 0.797647
0.218583 0.430644 0.13116 0.190259 0.794924 0.576105
-0.396362 -0.128768 0.122708 -0.14975 -0.783642 -0.602894
-0.376413 -0.0594304 0.168247 -0.557639 0.570475 -0.60299
0.17837 -0.24983 -0.386984 0.658232 -0.138683 -0.739931
0.168952 0.286732 0.164135 -0.828747 -0.341432 0.443398
-0.0316659 0.162113 0.306286 0.55764 -0.570473 0.602991
-0.0414531 0.254623 0.402858 0.557638 -0.570473 0.602992
-0.352384 -0.123359 0.332805 0.557642 -0.57047 0.602992
0.12489 -0.130018 -0.362135 -0.557641 0.570474 -0.60299
-0.252507 -0.169355 0.196925 0.557639 -0.570474 0.602991
0.195327 -0.252662 -0.296042 0.55764 -0.570471 0.602993
-0.0966511 0.21472 0.416154 0.557642 -0.570471 0.602991
0.216033 -0.248813 -0.344448 0.802989 0.186649 -0.566013
-0.115434 -0.344877 -0.108653 0.825371 0.303772 -0.475905
-0.13399 -0.315806 -0.120157 0.829316 0.414108 -0.375167
0.124141 -0.1561 -0.386116 -0.55764 0.570474 -0.60299
0.289564 0.167539 -0.232913 -0.557641 0.570472 -0.602991
0.158817 -0.191325 -0.244887 0.190263 0.794925 0.576103
-0.17214 0.201465 0.235408 -0.230299 -0.804231 -0.547882
-0.42446 -0.14123 0.184681 -0.665113 -0.741702 -0.0866137
-0.250526 -0.30458 -0.180102 -0.55764 0.570474 -0.602991
-0.112409 0.193501 0.242322 0.179147 -0.626594 -0.758476
-0.17325 -0.292898 -0.175058 0.812477 0.226288 -0.537285
0.0282538 -0.262047 -0.30867 -0.826506 -0.448951 0.339604
-0.205357 0.240732 0.356838 -0.791506 -0.146549 0.593331
0.438448 0.0455067 -0.238789 0.55764 -0.570474 0.602991
-0.172174 -0.378552 -0.0752821 0.557639 -0.570475 0.60299
-0.0655009 0.261128 0.427112 0.108864 0.770409 0.628187
-0.400529 -0.158585 0.180757 -0.521988 -0.805814 -0.279629
0.302123 0.267287 0.0971035 0.557642 -0.570471 0.602991
0.183375 -0.184216 -0.353488 0.814735 0.515197 -0.266045
0.347918 0.0300573 -0.275952 0.014994 -0.719382 -0.694453
-0.14425 -0.378352 -0.100916 0.55764 -0.570473 0.602991
0.07232 -0.23684 -0.242034 -0.658226 0.138693 0.739934
0.159736 -0.193941 -0.40614 0.791505 0.146545 -0.593334
0.344666 0.0468712 -0.15077 0.55764 -0.570473 0.602991
0.206394 0.444177 0.105722 -0.557641 0.570473 -0.60299
-0.133235 0.27309 0.40591 -0.297947 0.540457 0.78685
-0.280099 -0.401212 -0.0645235 -0.805801 -0.546442 0.228223
-0.0857837 0.193582 0.386105 0.55764 -0.570473 0.602991
-0.235472 -0.141536 0.201698 0.726255 -0.016483 -0.687228
-0.368345 -0.193679 0.222293 -0.553517 -0.796894 -0.242032
-0.30943 -0.309488 -0.13027 -0.55764 0.570474 -0.60299
-0.361939 -0.0736836 0.141377 -0.557639 0.570474 -0.602991
-0.149358 0.249772 0.250797 -0.55764 0.570473 -0.602991
0.325284 -0.0100424 -0.186689 0.55764 -0.570473 0.602991
0.369855 0.0394258 -0.181108 0.557641 -0.570473 0.60299
-0.294504 -0.0192037 0.197431 0.731704 0.680845 -0.0325446
0.150625 -0.15697 -0.398615 0.826506 0.448949 -0.339607
0.30656 0.329635 0.151986 0.55764 -0.570473 0.602991
-0.149661 -0.285393 -0.103107 0.750335 0.657098 -0.0722406
-0.321829 -0.00733577 0.167053 -0.55764 0.570472 -0.602992
-0.152337 0.291402 0.386098 -0.297947 0.540457 0.78685
0.334618 0.00337529 -0.237582 -0.308563 -0.816828 -0.487422
-0.34963 -0.0728087 0.311327 -0.3362 0.508955 0.792423
-0.124466 0.12436 0.342212 -0.521992 -0.805813 -0.279625
-0.212468 -0.223539 -0.134707 0.612357 0.773141 0.165146
-0.173719 0.250366 0.391019 -0.6322 0.178869 0.753876
-0.0891441 0.283706 0.403433 0.0677159 0.755265 0.651912
-0.146615 -0.349919 -0.0718299 0.55764 -0.570472 0.602992
-0.341639 -0.0495063 0.145477 -0.55764 0.570474 -0.60299
0.296608 0.373837 0.0669337 0.829315 0.414112 -0.375163
-0.0987294 0.139971 0.296732 -0.108869 -0.770411 -0.628184
0.317709 0.119583 -0.304311 -0.557639 0.570474 -0.602991
-0.154443 0.159923 0.296849 -0.455133 -0.817623 -0.352628
0.0248411 -0.191715 -0.292728 -0.658226 0.138693 0.739934
-0.005512 0.222622 0.339344 0.55764 -0.570471 0.602992
-0.183855 0.190084 0.361517 -0.826506 -0.448946 0.339609
-0.280524 -0.286982 -0.048621 -0.479915 0.371139 0.794945
0.265355 0.301652 0.163617 0.557637 -0.570475 0.602992
0.0887181 -0.291051 -0.394329 -0.149756 -0.783643 -0.60289
-0.378428 -0.154961 0.153157 -0.230302 -0.804232 -0.54788
-0.173609 -0.410787 -0.104451 0.557641 -0.570472 0.602991
0.0942755 -0.209528 -0.409044 -0.557641 0.570471 -0.602991
0.271301 0.369729 0.197421 0.149749 0.783641 0.602895
-0.300008 -0.0624328 0.132735 0.778054 0.106081 -0.619176
0.308929 0.176046 -0.172222 -0.138528 0.652279 0.745212
-0.160618 -0.368571 -0.161418 0.604603 -0.218601 -0.765943
-0.198421 -0.260724 -0.0637978 0.308557 0.816828 0.487427
0.284878 0.402254 0.105056 0.68904 0.723199 0.046982
0.112026 -0.31436 -0.277377 0.55764 -0.570472 0.602992
-0.283727 -0.0904703 0.149478 0.726255 -0.016483 -0.687228
0.220326 -0.235787 -0.303196 0.55764 -0.570474 0.60299
0.315126 0.307034 0.122682 0.55764 -0.570472 0.602992
0.137971 -0.301631 -0.289328 0.557643 -0.570474 0.602988
-0.279907 -0.196125 0.195735 0.219329 -0.599345 -0.769857
-0.256711 -0.137567 0.230886 0.55764 -0.570473 0.602991
0.405582 0.0110206 -0.247702 0.29795 -0.540455 -0.786851
0.17499 0.26262 0.090968 -0.583657 -0.785996 -0.203848
-0.415343 -0.143553 0.242553 -0.814734 -0.515198 0.266043
0.00245493 -0.242983 -0.349664 -0.805802 -0.546439 0.228227
-0.171372 -0.268475 -0.0792187 0.553514 0.796895 0.242035
-0.384793 -0.182288 0.249722 -0.750334 -0.6571 0.0722372
-0.329988 -0.0495016 0.296482 -0.0149995 0.719379 0.694456
-0.14379 0.34442 0.335192 -0.55764 0.570473 -0.602991
-0.286063 -0.029541 0.228909 0.639528 0.758365 0.126039
-0.294007 -0.384216 -0.155941 -0.521989 -0.805814 -0.279627
0.359586 0.198002 -0.218304 0.489177 0.812727 0.316513
0.366813 0.200873 -0.254208 0.689038 0.7232 0.0469838
-0.418345 -0.0488945 0.260355 -0.5755 0.257794 0.776107
-0.0100581 0.253785 0.351316 0.781954 0.604775 -0.150982
-0.205745 0.23424 0.288249 -0.55764 0.570473 -0.60299
-0.308564 -0.108892 0.131352 0.54497 -0.29634 -0.784341
0.185711 -0.219948 -0.377913 0.791505 0.146544 -0.593334
-0.177382 0.316846 0.340169 -0.557639 0.570474 -0.602991
-0.217089 -0.272209 -0.0420213 0.0677125 0.755264 0.651914
0.130331 -0.260021 -0.415495 0.373611 -0.476193 -0.796024
0.376011 0.133798 -0.313113 0.745389 0.0244663 -0.666181
0.265083 0.321308 0.0241334 0.575499 -0.257794 -0.776108
-0.341162 -0.192203 0.192159 -0.230304 -0.804232 -0.547879
0.254934 0.325015 0.195358 0.557641 -0.570472 0.602991
-0.187793 -0.351254 -0.187148 0.544966 -0.296344 -0.784342
0.281185 0.398897 0.137567 0.521986 0.805815 0.279632
-0.236458 -0.337289 -0.221543 0.3362 -0.508955 -0.792423
-0.376187 -0.101826 0.127928 -0.557639 0.570474 -0.602992
0.211926 0.225082 0.140588 0.55764 -0.570473 0.602991
0.30118 0.0305623 -0.145395 -0.830063 -0.378236 0.409796
-0.168898 -0.403289 -0.15043 0.373608 -0.476196 -0.796024
0.428059 0.0639816 -0.211703 0.557639 -0.570475 0.60299
0.0232628 -0.207134 -0.341108 -0.55764 0.570474 -0.60299
-0.187384 -0.263495 -0.180308 0.830063 0.378241 -0.409791
0.17193 -0.222617 -0.24598 0.55764 -0.570473 0.602991
0.249018 0.0844075 -0.201352 -0.830063 -0.37824 0.409792
-0.226437 -0.408134 -0.0530873 0.55764 -0.570474 0.60299
-0.132903 0.129939 0.36947 0.557642 -0.570475 0.602988
-0.292471 -0.27441 -0.112769 -0.557641 0.570471 -0.602991
0.135313 0.310669 0.0451483 -0.557641 0.570473 -0.60299
-0.235635 -0.34392 0.00482968 -0.51308 0.334154 0.790626
-0.364549 -0.194758 0.276507 0.557639 -0.570471 0.602993
0.0862839 -0.193779 -0.251119 -0.336198 0.508957 0.792423
-0.192558 0.271976 0.370093 -0.6322 0.17887 0.753876
0.065788 -0.305138 -0.27546 -0.814735 -0.515194 0.266049
0.402395 0.090522 -0.16286 0.55764 -0.570473 0.60299
-0.265633 -0.402238 -0.0304021 -0.830063 -0.378241 0.409791
0.301395 0.0323324 -0.264389 -0.383757 -0.821307 -0.422121
0.192027 -0.186432 -0.320527 0.750334 0.6571 -0.0722382
0.0451786 -0.286624 -0.36536 -0.583662 -0.785994 -0.203843
-0.0402921 0.195803 0.278684 0.604605 -0.218598 -0.765942
-0.175482 0.169152 0.333865 -0.731705 -0.680844 0.0325464
-0.188089 -0.317643 -0.196018 0.682619 -0.0981659 -0.724151
-0.304328 -0.25957 -0.0758976 -0.445561 0.407196 0.797287
0.0803742 -0.327607 -0.294016 -0.711257 -0.702895 -0.00722637
-0.349402 -0.156342 0.298844 0.55764 -0.570474 0.60299
0.399405 0.0319108 -0.215545 0.557642 -0.570472 0.602991
-0.126604 -0.388057 -0.128383 0.658228 -0.13869 -0.739933
0.143065 -0.168835 -0.271085 0.230305 0.804232 0.547878
0.435763 0.0960112 -0.188525 0.557639 -0.570472 0.602993
0.222136 0.358674 0.0102714 -0.557638 0.570475 -0.602991
0.152905 0.286332 0.0627712 -0.583659 -0.785995 -0.203846
-0.294407 -0.134167 0.151098 0.479914 -0.37114 -0.794945
0.138698 -0.186178 -0.428035 -0.557641 0.57047 -0.602993
-0.322923 -0.126642 0.302455 0.557642 -0.570471 0.602991
0.254903 0.269491 0.0487401 0.219328 -0.599346 -0.769857
0.262348 0.146888 -0.227282 -0.55764 0.570473 -0.602991
0.157568 0.278821 0.120293 -0.781953 -0.604776 0.150981
-0.166842 -0.295332 -0.0257923 0.308559 0.816828 0.487425
0.0445833 -0.243908 -0.395616 -0.55764 0.570473 -0.602991
-0.126786 0.21376 0.4388 -0.604604 0.2186 0.765943
0.268296 0.0503226 -0.260069 -0.583662 -0.785994 -0.203843
0.15433 0.378315 0.15353 -0.575501 0.257791 0.776107
0.2559 0.389298 0.17581 0.149753 0.783642 0.602892
0.181327 0.436973 0.122087 -0.55764 0.570473 -0.602991
-0.201336 -0.380485 -0.0501421 0.55764 -0.570473 0.602991
-0.182138 -0.321314 -0.0119168 0.55764 -0.570473 0.602991
-0.326422 -0.0669162 0.114934 -0.557639 0.570474 -0.602991
0.159519 -0.314093 -0.321045 0.557641 -0.570473 0.602991
0.31201 0.0518055 -0.11953 -0.762669 -0.0653531 0.643479
0.27691 0.0847252 -0.299558 -0.557643 0.570473 -0.602988
0.126442 -0.195335 -0.238067 -0.0975581 0.676347 0.730094
-0.150262 -0.311242 -0.147586 0.825371 0.303771 -0.475905
-0.283471 -0.054909 0.159648 0.825371 0.303774 -0.475903
0.166886 -0.162943 -0.313902 0.612355 0.773141 0.165147
0.19155 0.266008 0.0593726 -0.346589 -0.820087 -0.45534
-0.305927 -0.172151 0.243682 0.557642 -0.570472 0.60299
0.124217 -0.276414 -0.252751 0.557641 -0.570471 0.602992
-0.312609 -0.0337152 0.13357 -0.55764 0.570473 -0.602991
-0.110506 0.307254 0.269248 -0.557639 0.570471 -0.602993
0.309036 0.147148 -0.270211 -0.55764 0.570473 -0.602991
0.223077 0.362231 0.199531 -0.258962 0.570609 0.779323
0.193683 -0.277236 -0.31777 0.55764 -0.570472 0.602991
-0.302728 -0.196305 0.217871 0.557639 -0.570473 0.602992
-0.122508 0.237609 0.214459 -0.55764 0.570473 -0.602991
-0.218861 -0.448309 -0.0981012 0.557639 -0.570473 0.602992
-0.266125 -0.421255 -0.0876051 -0.689039 -0.723199 -0.046982
0.0947947 -0.138788 -0.29755 0.0677128 0.755264 0.651914
0.188943 0.417833 0.0969367 -0.55764 0.570473 -0.602991
0.116204 -0.336534 -0.302219 0.557638 -0.570472 0.602993
-0.271976 -0.411685 -0.115934 -0.583661 -0.785994 -0.203843
-0.240008 -0.273612 -0.160531 -0.55764 0.570474 -0.60299
0.355397 0.159592 -0.301313 -0.557639 0.570475 -0.602989
-0.406228 -0.160736 0.21621 -0.711256 -0.702896 -0.00722826
0.0302811 -0.22657 -0.365986 -0.55764 0.570473 -0.602992
0.133582 -0.146885 -0.301914 0.383755 0.821307 0.422123
0.378298 -0.00475665 -0.230716 0.557641 -0.570473 0.602991
0.0834129 -0.178654 -0.369789 -0.557639 0.570473 -0.602992
0.206667 0.235376 0.10826 -0.521992 -0.805813 -0.279624
0.0484439 -0.227526 -0.26574 -0.705313 0.0573972 0.706568
-0.0193702 0.25395 0.319587 0.826506 0.448951 -0.339604
0.356973 0.0823149 -0.128618 0.557639 -0.570474 0.602991
0.269504 0.187529 -0.193291 -0.3362 0.508956 0.792423
0.244665 0.225514 0.11072 0.557639 -0.570473 0.602992
0.321585 0.110095 -0.123452 -0.479919 0.371135 0.794945
-0.0877793 0.331012 0.270708 -0.55764 0.570473 -0.602991
-0.187308 -0.43459 -0.114302 0.557641 -0.570472 0.60299
-0.23904 -0.44034 -0.0719013 0.557639 -0.570473 0.602992
-0.322608 -0.337861 -0.144927 -0.55764 0.570473 -0.60299
-0.223098 -0.4342 -0.124113 -0.269765 -0.811538 -0.518297
-0.228536 -0.252486 -0.0638993 0.108867 0.77041 0.628184
-0.0662305 0.229651 0.402147 0.557644 -0.570472 0.602989
-0.0397396 0.286051 0.336653 0.711256 0.702896 0.00722736
-0.399762 -0.0945172 0.156645 -0.557637 0.570473 -0.602994
0.0653795 -0.306517 -0.34611 -0.553516 -0.796894 -0.242034
0.151222 0.320817 0.153313 -0.802989 -0.186649 0.566013
-0.196468 -0.286847 -0.205079 0.76267 0.0653565 -0.643477
0.0400128 -0.285481 -0.324574 -0.767098 -0.631722 0.11175
-0.132411 0.169404 0.266629 -0.149751 -0.783642 -0.602893
0.27167 0.156599 -0.175297 -0.479919 0.371135 0.794945
0.159923 0.30474 0.0167806 -0.55764 0.570473 -0.602991
0.239074 0.143801 -0.198072 -0.705312 0.0573985 0.706569
0.406475 0.160071 -0.207915 0.665114 0.741702 0.0866125
0.189709 -0.31066 -0.345717 0.557638 -0.570475 0.602991
-0.261172 -0.249753 -0.0667962 -0.0975601 0.676346 0.730095
0.294254 0.0206127 -0.186095 -0.7671 -0.631719 0.111754
-0.228121 -0.293917 -0.0221858 -0.17915 0.626592 0.758477
-0.398208 -0.0540325 0.193509 -0.55764 0.570473 -0.602991
-0.185646 -0.251665 -0.102696 0.583659 0.785995 0.203847
0.38484 0.0968114 -0.300517 0.632204 -0.178863 -0.753874
0.23766 0.126355 -0.223876 -0.55764 0.570473 -0.602991
0.323577 0.19633 -0.192622 0.108869 0.770411 0.628183
-0.202056 0.206039 0.338045 -0.821641 -0.482674 0.303201
0.370461 0.143583 -0.136206 0.0677136 0.755264 0.651913
0.0975168 -0.294319 -0.244999 0.55764 -0.570471 0.602993
-0.270546 -0.382569 -0.180095 -0.230299 -0.804231 -0.547882
-0.147981 0.186636 0.248099 -0.14975 -0.783641 -0.602894
-0.275017 -0.0439542 0.193511 0.805801 0.546441 -0.228225
-0.309579 -0.182778 0.178119 0.0975559 -0.676348 -0.730093
-0.209014 0.257395 0.313178 -0.55764 0.570473 -0.602991
0.260565 0.35664 0.0121021 0.705316 -0.0573927 -0.706566
-0.0613732 0.292715 0.37587 0.41997 0.820485 0.387853
0.354512 0.0100725 -0.194689 0.557641 -0.570473 0.60299
0.250014 0.110409 -0.250386 -0.55764 0.570474 -0.60299
0.305399 0.377645 0.0978949 0.794864 0.576328 -0.189834
