ply
format ascii 1.0
comment Created by Open3D
element vertex 128
property double x
property double y
property double z
property double nx
property double ny
property double nz
end_header
0.203333 0.540889 -0.147896 -0.0717201 0.996131 0.050792
0.170245 -0.159235 -0.0405327 0.983785 -0.1179 -0.135154
-0.156674 0.452589 0.221247 0.458277 0.267569 -0.847578
-0.362715 0.468618 -0.0300747 -0.106528 0.990217 0.0901236
0.274905 0.526889 0.0743232 -0.132778 0.984294 0.116338
0.273206 0.492246 0.0699677 0.0850826 -0.994179 -0.0661036
-0.0790238 -0.333476 -0.096998 -0.793388 -0.198607 -0.575405
-0.110993 -0.238365 -0.0829809 -0.874929 -0.193759 -0.443798
0.124942 -0.213465 0.0327896 -0.940579 0.0777766 -0.330547
-0.255885 0.384676 0.143857 -0.897341 -0.212747 0.386675
0.0179383 0.226981 0.228807 0.206392 -0.202822 0.957218
-0.130619 -0.211852 -0.0313319 -0.966028 -0.258215 -0.0106877
0.105582 0.416259 -0.0983911 -0.727487 0.00368863 0.686111
-0.212939 0.312518 0.168811 -0.731571 -0.309797 0.607314
0.0825418 -0.00613082 -0.1578 0.439427 0.0242267 -0.897952
0.0698227 -0.156859 -0.162976 0.308991 0.0128762 -0.950978
-0.131083 0.460421 -0.193178 -0.250276 -0.466755 -0.848234
-0.0541335 0.176385 0.221417 -0.18439 -0.166331 0.968677
-0.22399 0.463404 0.186131 -0.125324 0.986633 0.104159
-0.131199 0.490864 -0.157897 0.362306 0.132086 0.922652
0.156734 0.349838 0.035807 -0.999125 0.0409354 -0.0086249
0.0614972 0.109328 -0.1691 0.255204 0.0967159 -0.962038
0.0383787 0.301133 0.202174 -0.376387 0.166466 -0.911385
-0.239888 0.389224 0.00750525 0.962618 0.230195 0.14275
0.0966878 0.119742 0.175703 0.527612 -0.139772 0.837908
-0.0475746 0.0371651 -0.140061 0.140612 0.0833483 0.98655
-0.0326064 0.0424897 0.190611 -0.115999 -0.274592 0.954538
0.121349 0.0517571 0.141746 0.672373 -0.128723 0.728934
-0.146557 0.260901 -0.15858 -0.469664 -0.140655 -0.871568
0.143217 0.0853316 0.121341 0.795241 -0.0669215 0.602589
-0.119038 -0.235441 0.0275599 -0.910116 -0.278503 0.306799
-0.115178 -0.251197 0.0233833 -0.903971 -0.281514 0.321847
-0.128469 -0.0364554 -0.119044 -0.781378 -0.132511 -0.609827
0.0400759 -0.505323 0.0604852 0.0489646 -0.998461 -0.0260407
-0.256945 0.316271 -0.0230904 -0.944148 -0.178547 -0.276958
-0.0592919 -0.393417 -0.108576 -0.777829 -0.169411 -0.605212
-0.338113 0.480248 -0.1294 -0.0916743 0.993584 0.0662333
0.0455618 -0.233894 -0.129422 -0.255043 0.0469672 0.965788
-0.182871 0.145033 0.0336587 0.939334 0.318354 -0.127678
-0.0272201 0.0665383 -0.18183 -0.169776 0.0132389 -0.985394
0.0660558 -0.345322 -0.159076 0.155632 -0.0158485 -0.987688
-0.00533247 0.312079 -0.191706 0.207199 -0.0707208 -0.975739
-0.317134 0.437626 -0.0245492 0.0760018 -0.994756 -0.0684404
0.159314 -0.351 -0.0786631 0.928099 -0.00219781 -0.372326
0.0387659 0.427545 -0.186614 0.342268 0.0102403 -0.939547
0.156855 -0.123708 0.064396 0.922337 -0.0309805 0.385143
-0.329896 0.467627 0.0248032 -0.112252 0.988989 0.0964374
-0.078815 0.448355 0.395593 -0.0821645 -0.0824112 0.993206
-0.0292927 0.365432 -0.162024 -0.119604 0.0631147 0.990813
0.173118 0.128602 -0.0483899 0.944854 0.0221641 -0.326742
0.0652256 0.12275 0.152627 -0.500714 0.143915 -0.853566
0.115241 0.11552 0.160224 0.667625 -0.0855175 0.73957
-0.138172 -0.173881 0.0181481 -0.953225 -0.228561 0.197791
0.136235 0.101167 0.0659714 -0.938902 0.0512431 -0.340348
-0.00146946 0.380468 0.26512 0.209395 -0.210003 0.955014
0.172233 0.471706 0.173805 0.23012 -0.972953 0.0201872
-0.10595 -0.207889 -0.105156 -0.830927 -0.109618 -0.545475
-0.199702 0.229548 -0.101561 -0.797411 -0.191825 -0.572135
0.0801277 0.477544 -0.167416 0.546693 -0.156798 -0.822522
0.0931732 -0.308705 -0.148522 0.463271 -0.0167359 -0.886059
0.251553 0.501837 -0.0566959 0.127376 -0.975813 -0.177663
0.148445 0.175289 0.0079406 -0.994725 -0.0147223 0.101511
-0.0839565 -0.382055 0.0118477 -0.936262 -0.232996 0.262918
0.166077 0.529869 -0.0773031 -0.118611 0.988118 0.0977498
-0.122682 -0.178746 -0.0834379 -0.895052 -0.202249 -0.397464
0.223609 0.501421 0.26628 0.774711 0.0350173 0.631345
0.145534 0.0535194 0.112893 0.823777 -0.0806027 0.561155
-0.300729 0.442466 -0.0781093 0.127279 -0.98786 -0.0890623
-0.25629 0.462554 0.18991 -0.105658 0.99075 0.0851523
0.126627 0.503438 0.17256 -0.105579 0.991398 0.0773527
-0.204253 0.435459 0.180059 0.706111 0.254428 -0.660813
0.172718 0.278723 -0.0596421 0.913828 0.00569958 -0.406061
0.0752381 -0.342574 -0.155531 0.267958 -0.00790112 -0.963398
-0.246137 0.420595 0.335025 -0.465617 -0.31337 0.827648
-0.373452 0.43985 -0.103751 -0.505016 -0.773462 -0.383035
0.189553 0.301377 0.0347465 0.99846 -0.039138 0.0393178
-0.206931 0.462198 0.215362 -0.110255 0.992082 0.0601454
-0.348713 0.464416 0.0572945 -0.133356 0.985561 0.104337
-0.0315215 -0.297075 0.0606944 0.578935 0.275299 -0.767493
0.0902442 0.356456 0.223683 0.562638 -0.14852 0.813253
0.0177025 -0.271503 -0.129158 0.129891 0.0389251 0.990764
0.166729 0.459708 0.158641 0.89236 -0.138383 0.429586
0.187656 0.277453 0.0242985 0.99891 -0.0466572 -0.00107452
0.125434 -0.035373 -0.128263 0.693083 -0.0162142 -0.720675
-0.113404 -0.0922201 0.113373 -0.695665 -0.250663 0.673215
0.153671 0.388811 0.0490938 -0.997597 0.0200917 -0.0663062
0.167908 -0.37274 -0.027113 0.999919 -0.012721 -0.000324165
0.11948 0.157995 -0.0792229 -0.850212 0.0180236 0.526131
0.19168 0.537945 -0.156639 -0.107266 0.990535 0.0856428
0.209201 0.484376 0.0666624 0.19962 -0.968264 -0.150388
0.121117 0.298931 0.188508 0.680982 -0.125364 0.72149
-0.245459 0.4546 0.281807 -0.13118 0.98254 0.131937
-0.0796922 -0.165363 -0.0893729 0.77975 0.128124 0.612841
-0.181252 0.252839 0.179455 -0.637711 -0.273207 0.720196
-0.0319051 0.195311 0.229118 0.0706947 -0.317336 0.945674
0.132868 0.0905992 0.139715 0.721946 -0.124273 0.680698
0.111431 0.353049 0.204679 0.616858 -0.0868941 0.782263
-0.11858 -0.0426532 0.0692554 0.859224 0.188076 -0.475774
0.00645502 -0.472113 0.0420109 0.455724 0.111163 -0.883153
0.130781 -0.372846 -0.0511995 -0.9634 -0.150468 0.221854
0.244921 0.506146 -0.135767 0.111764 -0.99153 -0.0661635
0.125643 0.263408 -0.0684551 -0.867169 -0.014996 0.497789
0.169835 0.165014 0.0917345 0.914263 -0.0806331 0.397015
-0.0707665 0.447173 0.396886 -0.0927683 -0.0753919 0.992829
0.159237 -0.155415 -0.0825011 0.86149 0.0613044 -0.504061
0.0433933 -0.486928 -0.15203 0.105338 -0.991418 -0.0774294
0.139745 0.13593 0.0660244 -0.933765 0.049896 -0.354391
-0.24563 0.416901 0.306691 0.106391 -0.990572 -0.0862997
-0.129203 0.452473 -0.192363 -0.285845 -0.245283 -0.926352
-0.119433 -0.261458 -0.00158497 -0.970053 -0.229314 0.0800739
-0.155152 0.432741 -0.176527 -0.451951 -0.155679 -0.878353
0.119592 0.163938 0.164472 0.673785 -0.12483 0.728307
0.0250786 -0.401377 0.057525 0.280113 0.0593567 -0.95813
-0.209927 0.468814 -0.266061 0.0901575 -0.993542 -0.0688917
-0.248077 0.407576 0.168513 -0.791522 -0.344423 0.504842
0.0633713 -0.022291 -0.129314 -0.424194 -0.00842599 0.905532
0.0616644 -0.104443 0.112939 -0.434388 0.222861 -0.87272
0.0603988 0.298285 0.230105 0.423911 -0.154817 0.892374
0.125382 -0.100786 0.110591 0.748682 -0.13293 0.649465
-0.235243 0.299155 -0.0706006 -0.87599 -0.183148 -0.446205
-0.178141 0.373382 -0.107818 0.618332 0.140975 0.77317
0.112981 -0.0308182 0.083926 -0.757723 0.108612 -0.643475
-0.0333417 0.0797262 0.160975 0.14208 0.23534 -0.961472
-0.235269 0.435849 -0.116699 -0.717872 -0.244656 -0.65177
0.289593 0.538167 -0.0358752 -0.116948 0.98201 0.148253
0.0220831 -0.409439 0.0540385 0.264641 0.0703382 -0.961778
-0.22378 0.264845 0.129869 -0.840953 -0.278067 0.464194
0.176779 0.197669 -0.042445 0.952434 -0.0236357 -0.303828
