ply
format ascii 1.0
comment Created by Open3D
element vertex 128
property double x
property double y
property double z
property double nx
property double ny
property double nz
end_header
-0.45771 0.0269309 0.229537 -0.862981 0.0719623 0.500085
-0.0722128 0.200084 0.210345 -0.0936357 0.399569 -0.911909
0.18976 -0.010069 -0.467086 0.284559 -0.0978238 -0.953654
-0.198526 -0.00479867 -0.278432 -0.373489 0.887834 -0.268807
-0.00298133 0.0709758 0.501613 -0.0943049 0.363871 0.926663
-0.422623 -0.26004 -0.0802626 -0.892779 -0.415071 -0.175104
0.273836 -0.0364682 -0.0470254 -0.925206 -0.235192 0.297788
0.110426 0.288602 0.22635 -0.369633 0.913016 -0.172549
-0.166191 -0.126774 0.180638 0.776802 0.172896 -0.605546
0.417707 0.106704 0.281141 0.771708 -0.304013 0.558607
-0.194208 -0.291332 -0.362015 -0.522367 -0.562175 -0.641165
-0.204943 -0.0813018 0.457722 -0.064059 -0.590455 0.804525
-0.320336 -0.212651 0.238977 0.386549 -0.87813 0.281899
0.267464 -0.172516 -0.307195 0.311019 -0.880163 0.35858
-0.144069 -0.239552 -0.0881393 0.910514 -0.285776 0.298826
-0.0436267 -0.00698629 0.509496 0.0869386 -0.437103 0.8952
0.301062 0.189831 -0.288738 -0.40784 0.89001 -0.203835
-0.345948 -0.0828645 -0.33438 -0.340686 0.88198 -0.325646
-0.222151 -0.0708018 0.101561 0.848673 0.354865 -0.392205
-0.344184 -0.0934344 -0.361547 -0.643426 0.338373 -0.686664
0.32761 0.283023 -0.0391021 -0.259885 0.913175 -0.31396
-0.377184 -0.237466 -0.223372 -0.774426 -0.429506 -0.464531
0.168 0.0121361 -0.194526 -0.713799 0.120963 0.689825
-0.139667 0.0619099 0.208451 0.516528 -0.247715 -0.819656
-0.503754 -0.0208201 0.042997 -0.93058 0.364025 -0.0388156
-0.343538 0.0296842 -0.00398235 -0.188765 0.90345 -0.384897
0.194892 0.171439 -0.102419 -0.887119 -0.341256 0.310746
-0.00386369 -0.298397 -0.374591 0.33364 -0.878787 0.341202
0.00706743 0.0629713 0.247382 -0.0407271 -0.462989 -0.885428
-0.314106 -0.116304 -0.393336 -0.565265 -0.455458 -0.687774
-0.295653 0.16124 0.312133 -0.341523 0.887524 -0.309294
0.335122 0.0267701 0.180272 0.250565 -0.878861 0.405981
-0.32871 0.135828 0.290568 -0.358686 0.885183 -0.296304
-0.11252 -0.172754 -0.451882 -0.230398 -0.303658 -0.924504
-0.438446 0.0393537 0.128347 -0.315164 0.88106 -0.352711
-0.412244 0.0300647 0.062381 -0.329387 0.891094 -0.312178
0.199295 0.240282 -0.0203647 -0.916592 0.328197 -0.228355
-0.0871382 0.272558 0.391946 -0.344891 0.885349 -0.311781
0.452801 -0.0500506 -0.170618 0.328869 -0.888833 0.319094
0.309323 -0.126026 -0.231593 0.398046 -0.903637 0.158116
0.210132 0.105932 -0.421052 -0.393658 0.877015 -0.275461
0.0451634 0.217957 0.177138 -0.28475 -0.487419 -0.825433
0.376546 0.274818 0.182041 0.761614 0.581529 0.285951
-0.169213 -0.106059 0.187453 0.811805 0.00895007 -0.58386
0.356497 0.228298 -0.234665 -0.356442 0.884539 -0.300897
0.3036 0.189749 -0.290554 -0.296897 0.866849 -0.400531
-0.00250617 -0.028145 0.404866 0.399769 -0.876028 0.269741
0.000228838 0.300615 0.383177 -0.280228 0.897351 -0.340931
-0.307021 0.134596 0.38586 -0.623615 0.220878 0.749878
0.167401 0.290075 0.143463 -0.398537 0.87656 -0.269834
-0.0363098 0.0466357 -0.308222 -0.291667 0.838363 0.460519
0.310132 -0.0677429 -0.388685 0.58486 -0.0596872 -0.808936
-0.272301 -0.00543056 -0.0491741 0.961341 0.271598 0.0453693
0.415095 0.054712 0.177226 0.339595 -0.870038 0.357365
-0.207917 -0.0213417 0.142839 0.698856 0.257751 -0.667207
-0.0605838 -0.0890597 0.280841 0.587384 -0.650256 -0.481816
0.468741 -0.0376021 -0.152392 0.246526 -0.890682 0.381981
-0.10375 -0.189013 -0.44959 -0.366973 -0.263037 -0.892268
-0.260099 -0.18355 0.253939 0.366033 -0.890509 0.27021
0.233911 0.0447289 0.343923 0.403063 -0.890519 0.210991
-0.118358 0.0207894 -0.281482 -0.0802724 0.948235 0.307257
-0.136542 -0.125411 0.287236 0.358177 -0.886338 0.293453
0.341668 0.0180074 -0.367446 0.765243 -0.0282775 -0.643121
-0.0488373 -0.0456934 0.412022 0.38891 -0.880184 0.272075
-0.35051 0.0680435 0.101045 -0.378154 0.896975 -0.228987
0.412788 -0.0958356 -0.259977 0.400174 -0.883324 0.244128
0.0725951 0.0603386 0.24424 -0.180262 -0.393909 -0.9013
-0.148462 -0.0688695 0.459323 0.319303 -0.886435 0.335079
0.12274 -0.215294 -0.442227 0.153925 -0.382505 -0.911042
0.177185 0.233376 0.0308933 -0.786437 0.331855 -0.520951
-0.282406 0.0311943 0.00720684 0.863049 0.464612 -0.198197
-0.117877 -0.148305 -0.17451 0.518886 0.462729 0.718776
-0.288812 -0.276722 0.0211358 0.468731 -0.848547 0.245476
0.465899 -0.0311913 -0.21586 0.810579 0.272851 -0.518184
-0.309915 -0.333317 -0.118625 0.335979 -0.882973 0.327837
-0.0366231 0.222966 0.45305 -0.0583963 0.379215 0.923464
-0.271839 -0.147922 0.372395 0.506353 -0.839662 0.196401
0.18133 0.0540117 -0.176007 -0.713114 -0.224191 0.664234
0.0985792 0.0134565 0.411413 0.321039 -0.874071 0.364601
0.0682096 -0.0362858 0.313684 0.474919 -0.836381 0.273713
0.319968 0.0723576 -0.385308 0.667024 0.0371133 -0.744111
-0.251165 -0.139741 0.370536 0.224022 -0.917338 0.329097
0.415308 0.21391 -0.206844 0.878134 0.316355 -0.358889
-0.323817 -0.0764218 0.382337 -0.757441 0.162368 0.632392
0.277838 -0.108436 -0.409754 0.516038 -0.118831 -0.848283
-0.104134 -0.0207634 -0.252557 0.285054 0.357818 0.889219
-0.439886 -0.192858 -0.121371 -0.804031 -0.52866 -0.272125
0.235882 0.162651 -0.292885 -0.302207 0.873795 -0.380989
-0.000931389 -0.0870012 -0.497036 0.082062 -0.326761 -0.941538
-0.353936 0.130674 0.348015 -0.733824 0.536723 0.41645
0.250006 0.00504654 -0.435003 0.513341 -0.0456938 -0.856968
0.312958 0.269441 -0.0611291 -0.179591 0.855575 -0.48553
0.284493 -0.00127913 0.150864 0.344335 -0.887574 0.306014
0.440618 0.101614 -0.215268 0.869238 0.202755 -0.450906
0.287936 0.331609 0.150591 -0.274099 0.864944 -0.420407
0.103472 0.0664658 -0.433261 -0.25061 0.888933 -0.383395
0.00295099 -0.0212524 -0.512327 -0.113391 0.391217 -0.913286
0.248435 0.198792 -0.20048 -0.411051 0.884211 -0.221828
0.363147 0.184632 0.295113 0.597766 0.373423 0.709388
0.3928 0.212348 -0.258539 0.839934 0.32079 -0.437727
-0.458598 0.0205759 0.0973912 -0.376523 0.883131 -0.279839
-0.207932 -0.0484924 -0.387087 -0.315528 0.883419 -0.346428
0.492463 0.0359187 -0.135693 0.90003 0.248922 -0.357749
0.157429 0.134111 -0.279836 -0.354707 0.890488 -0.284979
-0.057627 0.0850523 0.232828 0.152032 -0.135885 -0.97899
0.236909 0.0184778 0.141872 -0.814834 -0.44155 -0.375605
0.201808 0.202772 -0.13473 -0.338233 0.883745 -0.32341
-0.323303 -0.184717 0.329377 0.347652 -0.886126 0.306462
0.0240852 0.166118 0.471728 -0.0140709 0.369922 0.928956
0.0370194 -0.00518844 0.436424 0.363371 -0.884041 0.293997
0.126953 0.0419176 0.467145 0.348291 -0.886243 0.305396
0.431925 0.0459029 -0.250014 0.858243 0.0823242 -0.506598
0.201196 0.0194391 0.320905 0.303213 -0.889593 0.341594
-0.469744 0.0432804 0.186598 -0.841204 0.52989 0.107664
-0.0628061 0.228482 0.447802 -0.147307 0.190545 0.970563
0.462082 0.0468384 0.0955955 0.324674 -0.88484 0.334134
0.421239 0.132977 0.259225 0.77738 0.565027 0.276451
-0.464742 -0.114581 0.154571 -0.918364 -0.254242 0.303262
-0.264939 0.19568 0.37713 -0.376242 0.883848 -0.277948
-0.34304 -0.0743597 -0.301744 -0.343394 0.885832 -0.312061
-0.374237 -0.296166 0.0562453 0.380331 -0.878735 0.288398
0.464009 0.0422708 0.0906754 0.355667 -0.885121 0.300103
-0.435218 0.0153986 0.262278 -0.647322 -0.257236 0.717498
0.0408498 -0.0162598 0.278404 0.0217792 -0.338181 -0.940829
0.389742 0.029175 0.12379 0.201992 -0.896635 0.394012
-0.291941 -0.286192 -0.00591667 0.391782 -0.876571 0.279519
-0.239625 0.0732948 0.432977 -0.529067 0.281048 0.800687
0.21689 0.203231 -0.143865 -0.357325 0.885512 -0.296964
