ply
format ascii 1.0
comment Created by Open3D
element vertex 820
property double x
property double y
property double z
property double nx
property double ny
property double nz
end_header
-0.168896 0.04866 0.0406667 -0.797368 0.59772 0.0832699
-0.00657582 -0.0662346 -0.0153702 -0.0800963 -0.990129 0.115016
0.0809944 -0.0920594 -0.188507 0.750449 -0.092038 0.654489
0.0162284 -0.013072 -0.200734 0.667438 0.558326 -0.492747
-0.100365 0.0436888 -0.181981 0.115289 -0.624438 -0.772519
0.152099 -0.117809 0.363799 -0.760409 -0.61127 0.21938
0.18428 -0.00412607 0.251108 0.941403 -0.0617603 -0.331582
-0.249076 0.022849 -0.235835 -0.126862 -0.99004 0.0610455
0.00866965 -0.0322028 0.355988 -0.9542 -0.27141 0.125854
-0.0947052 0.0150993 -0.145471 -0.584158 -0.777725 0.232171
-0.179702 0.0775559 -0.245591 0.589473 -0.750549 0.298659
0.0224666 0.016978 -0.0506302 0.875661 0.424369 -0.230498
-0.179503 -0.00960285 -0.139286 0.0689363 -0.985924 -0.152322
-0.123597 0.0129473 0.118042 -0.120726 -0.989186 0.0832843
-0.0414693 0.0425664 -0.0828132 0.530658 0.657133 -0.535329
0.201633 -0.0454443 0.298393 0.825864 0.214899 -0.521314
-0.0998056 0.0203023 0.158063 -0.831826 -0.402672 0.381996
-0.160487 0.0973939 -0.272593 0.474832 0.868133 -0.144498
-0.175342 0.0206146 -0.0307744 -0.609247 -0.752276 0.250798
-0.00348984 0.0357024 -0.0206195 0.165603 0.984648 -0.0551755
-0.0627919 -0.0352915 -0.151686 -0.509185 0.115032 -0.852935
-0.140052 -0.0335024 -0.0574187 -0.609559 -0.758671 0.229905
-0.00296177 -0.0484548 0.184045 -0.492122 -0.866933 0.0790153
-0.00103713 -0.121112 -0.156901 -0.440307 -0.892246 0.100131
-0.0202479 0.0505987 0.480212 -0.718882 0.659413 0.219964
0.167035 -0.124394 0.178472 0.873515 -0.345174 -0.343259
0.184356 -0.044714 0.187378 0.709056 0.217925 -0.670633
-0.0303162 -0.0266243 -0.417454 0.201081 0.979432 -0.016711
-0.217191 -0.0296729 -0.387351 -0.868603 -0.486401 -0.0945608
0.184451 0.0433894 0.470699 0.26701 -0.000758692 0.963694
0.0106578 -0.0534087 -0.421767 0.571829 0.191873 -0.797619
0.167958 0.0940119 0.430339 0.824453 0.540046 -0.169197
0.11868 0.107617 0.48448 0.174944 0.137607 0.974915
-0.253861 0.0841052 -0.361683 -0.283327 0.602358 -0.746251
-0.0252953 -0.0979543 -0.112211 -0.683437 -0.260646 0.681893
0.203259 -0.143476 0.295984 0.933855 -0.201346 -0.295592
0.0360577 -0.118928 -0.0668798 -0.607849 -0.754134 0.2486
-0.236537 0.0671078 -0.407062 -0.0702703 0.504662 -0.860453
0.201956 -0.0709731 0.454145 0.147256 0.338505 0.929371
0.219621 -0.0642123 0.290712 0.943892 -0.317295 -0.0916117
0.0188168 0.0716232 0.411685 -0.385454 0.920679 0.0614446
0.189999 0.0670258 0.423512 0.0664255 0.991959 -0.107728
0.0451786 0.062199 0.0292636 0.452481 0.752595 -0.478394
0.0495778 -0.152681 -0.17617 0.935173 -0.353911 -0.0140829
-0.189117 0.0958198 -0.110598 -0.241303 0.838124 0.489205
-0.303065 0.0655468 -0.296065 -0.912194 0.289184 0.290303
0.191167 -0.0725708 0.0565152 0.579546 0.405902 -0.706661
-0.0216681 -0.106731 -0.357787 -0.365151 0.723471 0.585879
0.132185 -0.0846733 0.401271 -0.489862 -0.854981 0.170418
-0.166806 0.0756625 0.14156 -0.729097 0.641316 0.23902
0.0833769 -0.046932 -0.158999 0.892469 -0.115178 0.436157
0.0842927 0.109533 0.368563 0.202374 0.975513 -0.0861293
-0.0125713 -0.0573657 0.14796 -0.453577 -0.879156 0.146125
0.106683 0.0123454 0.00309542 0.939068 0.0366758 0.341768
0.150397 -0.116341 0.0328404 -0.309349 0.0277913 -0.950542
0.0995968 -0.0264571 -0.0300724 0.587357 0.431058 -0.684982
-0.262007 0.0388043 -0.178952 -0.258982 -0.965281 0.034076
-0.230341 0.120048 -0.292495 0.174576 0.910783 -0.374162
-0.217891 0.10508 -0.3204 0.328464 0.944139 -0.0266941
-0.0247167 0.130453 0.135419 0.693298 -0.235782 0.680989
0.105986 0.043167 0.044841 0.804646 0.580519 -0.124673
0.0791993 0.0776004 0.184691 0.396473 0.906462 -0.145379
0.000458751 -0.0973247 0.000290779 -0.294897 -0.955082 0.0292136
-0.0517908 0.0823066 0.0211813 -0.00144416 0.837908 -0.545809
-0.00927902 0.0610309 0.0149074 0.477693 0.371567 -0.796082
-0.0401491 0.0652375 0.258752 -0.605345 0.452571 0.65478
0.0155941 -0.0622304 -0.304888 -0.777265 0.477528 0.409667
0.244978 0.0296585 0.446425 0.505241 0.802371 -0.317697
0.11545 0.104013 0.462899 -0.206003 0.975609 0.0758318
0.0799453 -0.0342963 -0.104187 0.796403 0.573088 -0.193165
0.102637 -0.0666692 -0.112956 0.911737 0.0785542 -0.403193
0.0449143 -0.0625812 -0.288483 0.75416 0.580064 0.307845
-0.144732 0.0155413 0.0682477 -0.866582 -0.426735 0.258713
0.225037 -0.0791751 0.453659 0.106709 0.429567 0.896708
0.123826 0.0306185 0.0610731 0.0775308 0.968423 -0.236953
-0.220393 0.0168739 -0.266207 0.728361 -0.673725 0.124841
0.00389431 -0.133698 -0.175989 -0.756741 -0.590522 0.280403
0.164533 -0.13024 0.0759887 0.200348 0.0130684 0.979638
-0.233886 0.115537 -0.269236 -0.550464 0.83343 0.0488192
0.208535 -0.102504 0.22741 0.748054 -0.0946711 -0.656851
-0.167236 0.00497993 -0.375204 0.286465 0.147232 0.94671
0.0748505 -0.10068 -0.208043 0.88158 -0.221096 -0.417053
-0.141372 0.0855842 -0.111349 -0.0288327 0.994383 0.101841
0.133873 -0.017756 0.00366279 0.597516 0.330792 -0.730446
-0.0419795 -0.0570252 0.0169861 -0.353812 -0.932962 0.066318
0.0352577 0.0797638 0.142596 0.138775 0.989635 -0.0369371
-0.0434691 0.00682683 0.335792 -0.423207 -0.902913 0.075132
0.112219 -0.0226931 -0.0199947 0.978193 0.0155945 -0.20711
-0.14632 0.0325992 0.0745795 -0.602644 0.787047 0.13182
-0.0774677 -0.006968 -0.411496 0.491779 0.854363 -0.167982
-0.0412718 0.0152117 0.421007 -0.439046 -0.884599 0.157236
-0.23024 0.109787 -0.341541 -0.247809 0.850227 -0.464441
-0.0553687 0.0156805 0.35758 -0.3065 -0.890848 0.335331
0.0303472 -0.0161872 -0.19518 0.842681 0.49398 0.214178
-0.169487 0.0750316 -0.289509 0.685141 -0.687942 0.239413
0.154964 -0.0230915 0.0201565 -0.778892 -0.0930028 -0.620223
0.0595882 -0.0844438 0.242193 -0.456992 -0.866155 -0.20232
0.117783 0.0863498 0.314718 0.732883 0.628505 -0.260509
-0.247603 0.0994531 -0.262208 -0.922499 0.145419 0.35756
0.199278 -0.0633092 0.254668 0.524437 0.497661 -0.690868
-0.0324156 0.00262698 0.367575 -0.588261 -0.799549 0.121118
0.0345924 -0.0496983 -0.309803 0.316816 0.936752 -0.148738
0.0264436 0.0996346 0.0684062 0.755988 0.605053 -0.249786
-0.246058 0.0357332 -0.154235 -0.522701 -0.836342 0.165279
0.0954189 -0.0640035 -0.124508 0.95055 -0.227361 -0.21157
-0.00327162 0.0753308 0.0352281 0.793416 0.283054 -0.538861
-0.0864969 -0.0174973 -0.47864 0.350472 -0.016418 -0.936429
-0.0437931 0.051326 -0.0997832 0.53374 0.828 -0.171864
0.00164482 -0.172219 -0.360597 -0.635101 -0.749828 0.185487
-0.127345 -0.0506825 -0.465596 -0.37061 0.0972134 -0.923687
-0.118502 0.00399969 0.172871 -0.617189 -0.770621 0.158808
0.159686 0.00549222 0.480439 0.134254 0.282972 0.949686
0.219803 0.0159724 0.387167 0.730607 0.620911 -0.284048
0.0899667 -0.058943 -0.114266 0.894706 -0.428739 -0.125235
-0.131639 0.101865 -0.19953 0.606175 0.768199 -0.205966
0.22295 -0.065798 0.329494 0.936823 0.0402609 -0.347479
-0.0215262 0.0398391 -0.0404442 0.551568 0.819231 -0.156951
0.070193 -0.0547978 -0.196473 0.850907 -0.111417 0.513364
0.0613834 -0.0296517 -0.140354 0.474063 0.880317 -0.0175031
-0.0107835 -0.0298821 -0.364032 -0.499381 0.468365 0.72887
0.0501077 0.0980798 0.412716 -0.0161763 0.983795 -0.178566
0.0489376 -0.0626358 -0.279073 0.60785 0.774392 -0.1756
-0.0851849 0.0449162 -0.131198 0.32364 0.945631 0.0322284
0.022499 -0.133934 -0.195201 -0.583421 -0.772785 0.249844
-0.310716 0.050809 -0.279315 -0.246251 -0.934433 0.257286
0.0926041 0.0604329 0.502111 0.314691 -0.101566 0.943745
0.0182124 0.0784957 0.482901 -0.593603 0.752487 0.285303
-0.0489616 0.00084081 0.300553 -0.593836 -0.772712 0.224221
0.245767 -0.127321 0.438604 0.877245 -0.31936 -0.358399
-0.0689977 0.0699227 -0.0495099 0.643939 0.702469 -0.303117
0.0156804 0.0103432 -0.144129 0.807926 0.58864 0.0275446
0.023734 0.0450674 0.511176 0.0941971 0.140649 0.985568
-0.253413 0.105447 -0.303154 -0.552683 0.785795 -0.27761
-0.154648 -0.00997853 -0.0163768 -0.837934 -0.45461 0.301988
-0.272884 0.0593663 -0.191977 -0.0965063 -0.987512 0.124525
-0.0207292 -0.119534 -0.222167 -0.269222 0.873326 -0.405982
0.0935019 -0.0948353 0.250262 -0.617996 -0.743579 0.255287
0.0778583 0.106107 0.446324 -0.172709 0.983752 0.0490205
0.094429 -0.0712424 -0.198765 0.846238 0.527636 -0.0740374
0.0892834 -0.131261 0.109186 -0.702747 -0.444916 0.555154
-0.269194 0.0402608 -0.21541 -0.336495 -0.854956 -0.394743
-0.291591 0.0222711 -0.348204 -0.843904 -0.347807 0.40848
-0.231656 0.0926173 -0.137171 -0.297868 0.538687 0.788093
0.138842 0.0674014 0.337018 0.343009 0.931025 -0.12465
0.0885717 -0.040756 -0.113492 0.640597 0.746654 -0.179288
0.0940384 -0.050343 -0.060902 0.941214 0.0810698 -0.327939
0.0814301 0.0858233 0.253224 0.553349 0.80949 -0.196293
0.0404666 -0.054981 0.352991 -0.619549 -0.751822 0.225659
-0.0380515 -0.0279506 0.17392 -0.172988 -0.977508 0.120635
-0.156671 0.0611187 -0.392954 0.427854 0.891082 -0.15137
0.0606191 -0.144204 -0.190106 0.974902 -0.222583 -0.00478491
-0.0188213 0.0199861 -0.152978 0.77771 0.604562 -0.172257
0.195699 -0.131251 0.412886 -0.469119 -0.876192 0.110521
0.160077 0.0551316 0.221789 0.0446252 0.99742 -0.0562306
-0.200185 0.0243759 -0.0649352 -0.664342 -0.646292 0.375442
0.0856448 -0.146013 -0.0367384 0.850319 -0.191999 -0.489993
-0.105766 -0.00340748 -0.474107 0.728147 -0.0873151 -0.679836
0.024557 0.0103596 -0.107449 0.471702 0.865163 -0.170263
-0.197328 0.0406183 -0.0735962 -0.273044 0.956188 0.105601
-0.0123507 0.05263 0.504495 -0.679711 0.724244 0.11603
-0.0240642 0.0704203 0.362604 -0.423514 0.844417 0.328018
0.128269 -0.017013 0.0241783 0.898662 0.314713 -0.305552
-0.126465 0.0679896 0.0545069 -0.577387 0.691679 0.433826
0.0603466 -0.0772776 0.260782 -0.964262 -0.259219 0.0548175
-0.0959064 -0.0278089 -0.00469747 -0.499708 -0.854632 0.14105
0.000497736 -0.108097 -0.0874142 -0.23647 -0.92277 0.304265
-0.254355 0.0635483 -0.144082 -0.533122 0.284433 0.796793
0.0968763 0.00153846 -0.0117627 0.313785 0.522715 -0.792659
0.171556 -0.0319228 0.153872 0.999807 0.0120527 -0.0155013
-0.256334 0.0361669 -0.399856 -0.684536 0.474012 -0.553826
0.064718 -0.115954 -0.161473 0.533274 0.322615 -0.782009
0.183637 -0.138744 0.0389475 0.799008 -0.581447 -0.153317
0.110125 0.0550666 0.255821 0.752469 0.581191 -0.309851
0.139606 0.0298575 0.111435 0.92126 0.216981 -0.322799
0.075884 -0.0805385 0.34246 -0.643056 -0.606132 0.468062
-0.00356931 0.0884197 0.283309 0.0108826 0.999309 -0.035526
0.248993 -0.0119408 0.459393 0.812759 -0.214859 0.541533
-0.129903 0.020538 -0.377171 0.73178 0.320818 -0.601309
-0.200312 0.096241 -0.324721 0.441004 0.892332 -0.0962235
-0.0806711 0.0533966 0.266488 -0.648307 0.761134 -0.0193126
-0.0249468 0.0157434 -0.109766 0.223253 0.959048 -0.174315
-0.0502228 -0.0878778 -0.372946 -0.389691 0.445924 0.805787
-0.0184679 -0.0783818 0.0998655 -0.200828 -0.966288 -0.16111
-8.03246e-05 0.0340108 -0.0430345 0.18831 0.977497 -0.0950777
-0.247048 0.0273849 -0.423367 0.112763 0.425813 -0.897757
0.0474534 -0.136633 -0.0924806 -0.351922 -0.918638 0.179594
-0.105635 -0.0923119 -0.47145 0.499723 -0.447863 -0.741415
0.109113 0.0746144 0.178773 0.748998 0.651149 -0.122499
-0.0125451 -0.00956578 0.382182 -0.742406 -0.661647 0.105151
0.236527 -0.00322078 0.387475 0.698146 0.399608 -0.594059
0.0301949 -0.130374 -0.104477 -0.477783 -0.852369 0.21258
0.0991165 -0.0133772 0.503404 0.270694 0.00296538 0.962661
-0.157019 0.0351319 0.0423434 -0.810134 0.434512 0.39355
0.140514 -0.0616001 0.467804 0.171379 0.0807179 0.981893
-0.00253469 -0.0881434 0.0354939 -0.758736 -0.628737 0.170321
0.232128 -0.0208578 0.456267 0.292299 0.0111374 0.956262
0.206978 -0.153911 0.408117 0.824075 -0.240191 -0.513038
0.128488 0.100362 0.47984 -0.0757045 0.960204 0.268844
-0.242395 0.0537498 -0.112999 -0.493657 0.571889 0.655169
-0.00845448 -0.12191 -0.164502 -0.565498 -0.79807 0.208077
-0.00849773 -0.037906 0.195015 -0.0808517 -0.992579 -0.0908242
0.105913 -0.143027 0.128335 -0.457021 -0.888621 0.0385154
0.00526829 -0.159639 -0.30261 -0.775955 -0.541579 0.323397
-0.290125 0.043567 -0.353908 -0.670462 0.516058 -0.53307
-2.37087e-05 -0.144394 -0.393734 0.73409 -0.5984 -0.320983
0.0114014 -0.030532 -0.21835 -0.429774 0.65347 -0.623114
0.0687519 0.0417881 0.00704951 0.323533 0.533172 -0.7817
-0.234656 0.116951 -0.188405 -0.152634 0.89593 -0.417148
-0.197628 0.07213 -0.38574 0.277926 0.87539 -0.395537
0.149809 0.00785764 0.0553436 0.856714 0.513761 -0.0457314
0.150775 -0.0895078 0.0957912 0.949841 -0.15148 -0.273599
0.00352298 0.0730607 0.432827 -0.804552 0.148209 0.575091
-0.182584 0.0154792 -0.357475 0.202634 -0.608654 0.767124
-0.0251756 -0.0252781 0.22403 -0.741595 -0.660224 0.118912
0.146307 -0.065132 0.0316022 -0.75137 -0.231691 -0.617869
0.163183 -0.0165212 0.03282 0.665341 0.671306 -0.326603
0.0358144 -0.1533 -0.208332 -0.910186 -0.399012 0.111137
0.21272 -0.15631 0.40647 -0.887142 -0.448086 -0.110441
-0.126184 0.0895991 -0.10843 0.162466 0.974635 0.153918
-0.102503 0.0657435 -0.176589 0.244987 -0.501316 -0.829858
0.00341782 -0.0451746 0.236593 -0.895208 -0.439039 0.076462
-0.158321 0.049162 0.120955 -0.34874 0.277092 -0.895321
-0.0112152 -0.0728012 -0.429256 0.33323 0.503381 -0.797224
-0.101409 0.0858864 -0.0377435 -0.345522 0.925969 0.152301
-0.0228298 -0.134018 -0.319493 -0.417168 -0.888102 0.192991
-0.0673023 0.0474232 0.221118 -0.562098 0.793886 0.231928
0.211523 0.0319026 0.359184 0.628811 0.61485 -0.475979
0.192854 0.0524204 0.318232 0.806164 0.377822 -0.455357
0.02122 0.0919079 0.444985 -0.0336657 0.990121 -0.136115
0.144515 -0.161728 0.0616567 -0.901799 -0.248515 0.353552
-0.0731943 -0.0939949 -0.485382 0.199647 -0.308531 -0.930027
0.0357225 0.0784615 0.444901 -0.278131 0.95668 -0.0860666
-0.0173933 0.00279669 0.404969 -0.405321 -0.894269 0.189733
0.0211585 -0.0875555 -0.41781 0.737915 -0.134406 -0.661375
-0.0245185 0.0210523 0.463312 -0.0522809 -0.995463 0.0794978
-0.100322 -0.0325632 -0.388867 0.385898 -0.093205 0.917821
0.0594529 0.0961324 0.35185 -0.939741 0.172679 0.295076
-0.0119831 -0.0616541 -0.339813 -0.442402 0.858348 0.259844
-0.0204401 -0.158484 -0.351855 -0.516771 -0.837359 0.178263
0.221369 0.0396601 0.457335 0.158454 0.126487 0.979231
-0.00293572 -0.0573224 -0.247447 -0.846595 0.445602 -0.291061
0.177835 -0.0215306 0.136858 0.894094 0.243138 -0.376139
-0.102946 0.0854965 0.00345453 -0.100333 0.829009 -0.550161
-0.133402 -0.0579369 -0.127545 -0.800531 -0.599263 -0.0058389
0.200467 0.0248062 0.454443 0.610172 -0.176682 0.772317
0.0937439 -0.135266 0.0494884 -0.585498 -0.745871 0.317597
0.0719601 -0.067322 0.359324 -0.299239 -0.939129 0.168799
-0.204749 0.0246932 -0.240904 0.858811 -0.402139 -0.317376
-0.145614 0.0570989 0.0876662 -0.669345 0.649441 0.360838
0.0542107 -0.0324683 0.436688 -0.585448 -0.780209 0.220283
0.0320619 0.0731822 0.0274253 0.620532 -0.0815904 -0.779925
0.208881 0.0530875 0.392861 0.819108 0.568689 -0.0752014
0.026899 0.0974356 0.106 0.0358115 0.869915 0.4919
-0.0871141 0.113513 0.155334 0.0228463 0.221202 0.97496
0.137734 -0.0625195 -0.0242094 0.818033 -0.462958 0.341309
0.113425 -0.0687718 0.0170937 0.917236 -0.304153 -0.257235
0.197666 -0.0407123 0.236081 0.910806 0.236184 -0.338599
-0.127202 0.067919 0.172731 0.290649 -0.000641454 0.95683
0.015099 -0.106258 -0.0511772 -0.125858 -0.991644 0.0283036
-0.0736188 -0.0723394 -0.0366577 -0.897109 -0.418027 -0.143
-0.148537 0.0127411 0.101126 -0.470453 -0.877048 0.0972665
0.0897269 0.0973738 0.285737 -0.0709563 0.97743 -0.198988
0.0130565 0.111413 0.0939258 0.481814 -0.495994 0.722389
0.0878543 -0.0723384 0.450949 -0.866978 -0.494626 -0.0607828
-0.112341 0.0634243 0.160591 0.365358 -0.0205335 0.93064
-0.152065 0.0719528 0.15917 -0.651318 0.726124 0.220292
0.021134 -0.063312 0.224478 -0.444794 -0.892481 0.0750736
0.170738 -0.0135159 0.457909 0.40267 -0.178263 0.897819
-0.0297313 0.0183622 0.389543 -0.262018 -0.964988 -0.0120471
0.128059 -0.156541 0.120341 -0.269112 -0.943078 0.195405
-0.032039 0.0598483 0.317474 -0.447805 0.893953 0.0178527
-0.0310643 -0.0521139 -0.45623 0.294559 0.574045 -0.764007
-0.00123134 0.010215 -0.180098 -0.764658 0.219576 -0.605875
-0.0269952 -0.00945219 0.285126 -0.496831 -0.854924 0.149213
-0.0696607 -0.0994191 -0.374631 -0.308393 0.19356 0.931358
0.0560478 -0.0579339 -0.251236 0.366349 0.917751 -0.153367
-0.224203 0.00620127 -0.17552 -0.294634 -0.75059 -0.591444
-0.229345 0.109283 -0.215885 -0.480661 0.875986 -0.0401722
0.240216 -0.147104 0.433631 0.892953 -0.256047 -0.370236
0.0122095 -0.092487 -0.288689 -0.732432 0.68059 0.0184653
0.00543711 0.0524991 0.521427 -0.426777 0.0150169 0.904232
0.0702562 -0.115498 -0.307471 0.733142 0.556081 -0.391505
0.0970587 -0.109844 -0.0767189 0.947565 -0.292311 -0.129131
0.0514558 0.0895861 0.485834 -0.391169 0.912339 0.120934
0.0822163 -0.0477441 -0.142801 0.836338 0.31964 -0.445387
0.0741266 0.10826 0.464194 0.85804 0.300141 -0.416752
0.176325 -0.0501971 0.469769 -0.373786 0.598706 0.708403
-0.129479 -0.00308544 0.0910737 -0.877148 -0.285684 0.386
-0.143014 0.02829 -0.153498 -0.768153 -0.611255 0.190546
-0.290931 0.0611905 -0.245352 -0.515348 -0.835163 0.192144
-0.0238765 -0.0960717 -0.450942 0.542383 -0.237739 -0.805792
0.0279329 -0.123554 -0.0345314 -0.576978 -0.793425 0.19384
0.0817976 -0.0429598 0.476345 -0.359082 -0.868965 0.340529
-0.0360781 -0.0559694 -0.37174 -0.555872 0.574825 0.600486
0.00271321 -0.150603 -0.252014 -0.487326 -0.856114 0.171992
-0.0494532 -0.0160945 -0.144676 -0.875079 -0.435959 -0.210184
0.181653 -0.0324964 0.473682 0.356557 -0.0892666 0.929999
-0.227312 0.0922386 -0.320472 0.168675 0.912458 -0.372785
0.125106 0.0895947 0.420582 0.545346 0.724238 -0.421992
0.155894 -0.0793556 0.0138317 -0.157638 -0.139475 -0.977598
0.182823 -0.109047 0.147735 0.850495 -0.159499 -0.501217
-0.176004 0.082755 -0.110662 -0.197514 0.956561 0.214427
0.195451 -0.123774 0.409501 -0.754046 -0.637537 0.15799
-0.0717837 -0.000350087 0.143329 -0.227333 -0.965782 0.124838
0.174402 0.00433425 0.182333 0.898325 0.335028 -0.284197
0.0630863 -0.135074 -0.111103 -0.867119 -0.487375 0.102809
0.199757 0.033768 0.328877 0.576362 0.712709 -0.399815
0.212983 -0.0284876 0.295073 0.907241 0.299454 -0.295368
0.0808138 0.0974342 0.328126 -0.149228 0.979203 0.137451
0.18928 -0.0886372 0.187456 0.697358 0.524462 -0.488498
0.109272 0.0869438 0.292701 0.148198 0.976346 -0.157436
-0.286075 0.0588162 -0.165842 -0.587112 -0.779867 0.217039
0.112132 0.0377168 0.069562 0.339473 0.906857 -0.249738
-0.039381 0.151287 0.111348 0.575311 0.798012 -0.179426
-0.0482842 -0.0483922 0.0968701 -0.325212 -0.933117 0.153395
-0.0548068 -0.0346876 0.127616 -0.265137 -0.911186 0.315346
-0.0134177 -0.0850575 -0.0413358 -0.56686 -0.805171 0.174266
-0.122839 -0.0975368 -0.44867 -0.811528 -0.58308 0.0379545
0.218151 -0.132707 0.348405 0.867923 -0.427913 -0.252192
0.0773562 -0.0407833 0.402732 0.246036 -0.967962 0.0501642
-0.00890211 -0.0843249 -0.0242813 -0.594105 -0.767537 0.240678
0.0334364 -0.0021546 0.492641 -0.531525 -0.829568 0.171168
-0.0161818 -0.032273 0.173675 -0.398335 -0.912777 -0.0903745
-0.122266 0.0267008 -0.140648 0.00769611 -0.237244 -0.97142
-0.274636 0.0695629 -0.21099 -0.713494 0.649412 0.263041
-0.0314251 -0.00630418 0.297318 -0.673698 -0.673229 0.304786
-0.2646 -0.00227724 -0.314022 -0.490625 -0.865689 0.0993483
0.014339 0.108064 0.169825 0.140549 0.965497 -0.21923
0.0607797 -0.0917151 -0.329842 0.922186 -0.368971 -0.1159
0.164939 -0.134593 0.333433 -0.522862 -0.833943 0.176505
-0.124261 0.0498805 0.210809 -0.715339 0.697839 0.0362026
-0.25429 0.0881283 -0.167624 -0.587316 0.692692 0.418615
0.162347 -0.106857 0.403068 -0.271035 -0.955888 0.113222
0.182798 -0.132927 0.320819 -0.390801 -0.915306 0.0974122
-0.122815 0.0916966 -0.123909 0.298199 0.933926 -0.19713
0.0185696 -0.127782 -0.0964992 -0.426212 -0.900687 0.0842983
0.0931151 -0.00909331 0.486388 0.0899462 0.184237 0.978758
-0.00949715 0.0528757 0.452108 -0.655818 0.729652 0.193679
0.111646 0.0141302 0.483491 0.47651 -0.102135 0.873216
0.248073 -0.0545128 0.381506 0.95661 -0.0157748 -0.290944
0.0403155 0.0915367 0.32563 0.19351 0.96034 -0.200749
0.131184 -0.131007 0.334368 -0.713063 -0.575883 0.399875
0.10702 -0.0760134 -0.0930775 0.971595 -0.234233 -0.033748
0.220902 0.0406976 0.431376 0.675096 0.68479 -0.274423
0.0705173 -0.150832 -0.0764296 0.639986 -0.768322 0.009937
0.0548312 0.108365 0.395571 0.107491 0.786897 -0.60765
0.14878 0.0941775 0.370123 0.161377 0.986656 0.0216334
-0.0602409 -0.0407544 -0.383809 -0.446356 0.485672 0.751591
-0.0989408 -0.00382514 -0.154916 0.411569 -0.219334 -0.884592
-0.0380347 0.0631005 0.344186 -0.440232 0.89642 0.0512504
-0.226826 0.109583 -0.314104 -0.771383 0.623321 0.128215
0.208901 -0.0926126 0.264336 0.875864 -0.479201 0.0568163
0.117199 0.0882905 0.327443 0.297556 0.868044 -0.397441
-0.0569806 -0.0226922 0.219434 -0.459813 -0.87128 0.171592
0.144352 -0.133334 0.141607 0.869967 -0.425307 -0.249543
0.224165 -0.161582 0.371099 0.792249 -0.594426 -0.137838
0.167063 0.0458145 0.289542 0.298009 0.944282 -0.139719
-0.283135 0.0933761 -0.27541 -0.506623 0.450815 -0.734914
-0.164971 0.0358049 -0.0237791 -0.654264 0.735956 0.174092
-0.0372797 -0.0753925 -0.157744 -0.141653 0.17783 -0.973813
0.162507 -0.150376 0.23513 -0.59255 -0.780868 0.197812
0.0495841 -0.0389011 -0.298018 0.407809 0.891605 -0.196803
-0.225701 0.111776 -0.170238 -0.279228 0.669075 0.688745
0.0987593 -0.115028 0.154783 -0.747545 -0.630449 0.209071
0.0470973 0.0199804 -0.00713963 0.00394363 0.765454 -0.643479
0.15502 -0.16507 0.0650139 0.0652711 -0.0784661 0.994778
-0.0349447 -0.135101 -0.348431 -0.472437 -0.875807 0.0988172
0.0714188 -0.0356646 -0.095929 -0.00625638 0.980414 -0.196848
0.0610923 -0.0497754 -0.340097 -0.101324 0.994009 0.0409749
-0.0545972 -0.154968 -0.415006 -0.698794 -0.708797 0.0964078
-0.0935209 0.130569 0.143905 -0.0796713 0.977686 -0.19438
0.000259767 0.0220453 0.498885 -0.452747 -0.880202 0.142357
-0.0455394 -0.066307 0.0101391 -0.420625 -0.884694 0.200973
-0.0297125 0.00204114 -0.160197 -0.683755 0.519622 -0.512319
0.187349 0.0542694 0.338061 0.274975 0.959072 0.067592
0.12703 -0.13598 0.241539 -0.283468 -0.938734 0.19602
-0.0290276 0.0959448 0.161744 -0.201201 0.977864 -0.0574521
0.0203416 -0.0823088 0.0632026 -0.304715 -0.901107 0.308472
-0.0294525 -0.0717167 -0.464672 0.416678 0.0232661 -0.908756
0.223765 -0.017528 0.363102 0.664972 0.567321 -0.485755
-0.0757585 -0.130404 -0.431936 -0.560947 -0.806806 0.18548
-0.18225 0.0797996 -0.370401 0.528667 0.832289 -0.166751
-0.0596989 0.127415 0.116485 0.122452 0.920491 -0.371082
0.171031 0.0382333 0.355562 0.69353 0.565537 -0.446301
-0.0806819 0.0160844 0.252124 -0.265686 -0.95884 -0.100182
0.185815 -0.0371707 0.208249 0.931164 -0.301866 -0.204474
0.0984892 0.0721416 0.110475 0.347292 0.926319 -0.146021
-0.283933 0.0376776 -0.21478 -0.849748 -0.500161 0.166634
-0.0273644 0.0513797 0.438784 -0.728466 0.632749 0.262615
0.148135 -0.137976 0.13947 0.678447 -0.330012 -0.656355
-0.147715 0.0684276 0.00213579 -0.551078 0.829835 -0.0876781
0.00460822 0.072137 0.462965 -0.20002 0.978266 -0.0546611
0.214416 -0.0742988 0.264188 0.914915 0.0238578 -0.402941
-0.0665646 0.0742861 0.00803129 -0.314458 0.94577 0.0814551
-0.0970065 -0.0523807 -0.468008 -0.157963 0.248683 -0.955617
-0.146886 -0.0132553 -0.457237 -0.122262 0.205278 -0.971037
-0.00860186 0.0888827 0.0380972 -0.0408319 0.952742 -0.301023
0.147652 -0.0685956 0.468398 -0.234874 -0.960178 0.151301
0.114645 -0.116562 0.0166908 0.904422 -0.213471 -0.369393
0.175218 0.0192793 0.469245 0.51106 -0.0850482 0.855327
-0.150092 0.0486934 -0.381138 -0.358054 -0.357178 0.862682
-0.1969 -0.0623606 -0.446337 -0.640483 -0.765146 0.0658273
0.0630145 -0.0248566 -0.0579635 0.433245 0.839686 -0.327453
-0.202001 0.0756278 -0.236389 0.553112 -0.829954 -0.0724115
0.0271758 -0.13988 -0.14155 -0.544878 -0.824097 0.154828
0.178151 -0.117292 0.0357934 0.670422 0.318918 -0.669945
0.0835656 -0.0638892 -0.250149 0.770878 0.543508 -0.332184
-0.25514 0.0928803 -0.302578 -0.185451 0.828164 -0.528915
0.15123 0.024944 0.164618 0.695295 0.583889 -0.419093
0.0360451 -0.126382 -0.021931 -0.663459 -0.164148 0.729984
-0.013625 0.0460891 -0.0626812 0.105454 0.957232 0.269419
0.0423774 0.113687 0.256089 0.349839 0.912888 -0.210353
-0.0156304 -0.126458 -0.210359 -0.887462 0.460788 0.00925741
-0.149543 0.0580657 -0.0132449 -0.551097 0.834361 0.0115499
-0.0873026 0.0228521 0.234587 -0.65188 -0.720208 0.237388
-0.0944182 0.0108624 0.141931 -0.367317 -0.914619 0.168967
-0.0190365 -0.0994633 -0.118331 0.263228 -0.923303 -0.279683
0.0171971 -0.157215 -0.284572 -0.811909 -0.574285 0.10488
0.0926311 -0.129605 0.0490642 -0.0904659 -0.99251 -0.0820939
0.0025509 0.0967892 0.13147 -0.137926 0.968032 0.209498
-0.256731 0.0795153 -0.349301 -0.737868 0.614682 -0.278779
0.0120562 -0.0484709 -0.349381 0.729515 0.599503 -0.329246
0.105026 0.0300244 0.0374202 0.594516 0.788191 -0.159078
0.0601028 -0.100181 -0.180305 0.980756 -0.191085 0.0400454
0.0208201 -0.0157139 -0.150451 0.365183 0.926376 -0.0920302
-0.0481635 0.0708124 0.0041359 0.556225 0.805743 -0.20345
-0.018436 0.0176956 0.39571 -0.88628 -0.370963 0.277298
-0.257175 -0.00984124 -0.435304 -0.14094 -0.979838 -0.141613
0.0731706 -0.103964 0.141125 -0.34097 -0.911352 0.230603
-0.0847316 0.000244092 -0.152325 0.142738 -0.394975 -0.907535
-0.118842 0.0708764 -0.183121 0.130863 0.0436374 -0.99044
0.156908 0.0317295 0.201817 0.369 0.887768 -0.275148
0.193054 0.0618731 0.43753 0.983127 0.155145 -0.0969046
-0.00262352 -0.0690516 -0.339205 -0.61693 0.724484 0.307441
-0.073405 0.0552511 0.280768 -0.719145 0.668543 0.189422
-0.00585085 0.00285339 -0.167208 0.442463 0.871949 -0.2096
0.143536 -0.150942 0.027042 -0.671616 0.297621 -0.678494
-0.0047939 0.0736193 0.368611 -0.514001 0.844744 0.149035
-0.210701 0.0684891 -0.377779 -0.585421 0.76158 -0.277991
0.0190727 0.102776 0.256995 -0.0381334 0.926189 -0.375127
0.155561 -0.0025536 0.14245 0.975197 -0.0202465 -0.220409
0.0569164 -0.111013 -0.343033 0.870654 -0.4916 0.0170514
-0.153319 0.10422 -0.214715 0.501983 0.847561 -0.172201
-0.16949 0.0247412 0.00139224 -0.658034 0.738232 -0.148338
0.165927 -0.110186 0.0330202 0.862575 -0.0404454 -0.504309
-0.139213 0.0191462 0.151264 -0.627696 -0.742324 0.234418
0.114731 -0.01888 -0.0171044 0.960324 -0.0225592 -0.277973
-0.0126696 -0.0091974 0.331664 -0.465679 -0.880423 0.0894361
-0.00644284 0.00807294 0.44384 -0.811176 -0.55686 0.178605
-0.00577349 -0.155489 -0.401768 -0.606856 -0.780238 0.151505
0.0650014 -0.114152 -0.0978098 0.779592 -0.619067 0.0948261
0.0833479 -0.0273705 -0.0646704 0.418362 0.907877 -0.0270783
-0.134531 0.0805914 -0.0313815 -0.521917 0.564205 0.639746
-0.0151752 -0.0485287 0.153983 -0.749456 -0.407024 0.522156
-0.198515 0.1093 -0.135496 -0.0782956 0.915443 0.394759
-0.166519 0.0595589 -0.0184253 -0.609465 0.765614 -0.205881
-0.132052 0.0312247 -0.407832 0.448212 0.876389 -0.176204
0.185464 0.0418014 0.356891 0.365288 0.925157 0.103193
0.120709 -0.130137 0.289012 -0.546185 -0.820097 0.170654
-0.0452495 0.0660478 0.394921 -0.73301 0.222483 0.642805
-0.0185905 -0.140126 -0.30328 -0.532926 0.845976 0.0177113
0.211204 0.0146364 0.331938 0.877145 -0.456495 -0.149095
0.059541 0.070779 0.124369 0.312421 0.947349 -0.070163
0.0795882 -0.0269829 0.493678 -0.114182 0.530532 0.83994
-0.167895 -0.0645784 -0.420317 -0.426233 -0.879843 0.210241
0.0349797 -0.0177763 -0.133165 0.477698 0.859008 -0.184143
0.0290799 -0.0805309 0.156685 -0.749385 -0.566157 0.34335
0.183491 -0.0994065 0.0275838 0.957996 -0.267486 -0.103417
-0.056888 -0.12919 -0.358475 0.0791224 -0.996446 0.0288847
-0.0637108 0.094809 0.156642 -0.360235 0.900019 -0.245348
-0.0515803 0.107706 0.0215811 0.140984 0.813314 -0.564486
-0.0815528 0.0503787 -0.138883 0.325481 0.934539 -0.14387
-0.0970482 -0.0529612 -0.479024 -0.202943 0.358913 -0.911041
0.180482 -0.0198897 0.178512 0.853718 0.442986 -0.27373
0.140801 0.0496561 0.323546 0.155668 0.980105 -0.123134
0.0484203 0.00521654 0.52094 0.785103 -0.193747 0.588281
-0.140991 -0.0158718 -0.082724 -0.215498 -0.913748 0.344421
0.143388 0.0134989 0.179193 0.353581 0.877189 -0.324838
-0.160119 -0.0750894 -0.408985 -0.400531 -0.903509 0.152464
-0.187663 0.10195 -0.219654 0.194178 0.962082 -0.191553
-0.205645 0.0590061 -0.0974103 -0.4694 0.645906 0.602054
0.00533192 -0.0345411 0.308778 -0.696219 -0.450298 0.559027
0.216129 -0.093653 0.325994 0.921258 0.190213 -0.339268
-0.00654464 0.0901802 0.176223 -0.303992 0.887839 0.345444
0.00797883 0.107413 0.187304 -0.0540319 0.937238 0.344479
0.148016 -0.0182377 0.110808 0.812574 0.460473 -0.357335
0.0788186 -0.127078 0.0842762 -0.922017 -0.351796 0.161628
0.015557 0.10802 0.0375242 0.124085 0.98934 -0.076212
-0.0570643 0.0316664 0.390806 -0.319604 -0.912377 0.255778
0.0657594 -0.141508 -0.269439 0.59688 -0.602605 0.529718
0.0597971 -0.152559 -0.296076 0.876498 -0.46566 -0.122115
0.00708677 -0.113789 -0.118948 0.191096 -0.981078 0.031131
0.271544 -0.034137 0.448215 0.455187 -0.0614972 0.88827
-0.23513 0.0753297 -0.374412 -0.462504 0.63157 -0.622262
-0.16927 -0.0383238 -0.379201 0.501835 -0.11694 0.857022
-0.00438055 -0.112599 -0.231548 -0.970385 0.234287 0.0588353
-0.228327 0.00287974 -0.221458 -0.756591 -0.0802657 0.648943
-0.0156857 0.124055 0.0919358 0.924395 0.335542 -0.1814
-0.185515 -0.00755744 -0.345848 0.597394 -0.270674 0.754888
-0.177065 0.0915191 -0.361252 0.581578 0.600989 -0.548251
0.056955 -0.158887 -0.20416 0.777107 -0.419317 0.469338
-0.0640724 -0.147007 -0.422801 -0.409091 -0.912329 0.0173453
0.0602986 0.000209534 -0.0100932 -0.307382 0.831048 -0.463548
-0.0223547 -0.0938098 -0.132337 0.163842 -0.970723 0.175652
-0.191929 0.00330063 -0.329891 0.485618 -0.42225 0.765428
0.218791 0.0475334 0.415887 0.433154 0.900849 0.0291466
-0.176646 0.0901046 -0.088272 -0.437617 -0.0075981 0.899129
-0.128257 0.108985 0.131897 -0.409495 0.908401 0.0843873
-0.0660891 0.0832008 0.185221 -0.385115 0.530277 0.75531
0.174416 -0.136576 0.322309 -0.765305 -0.604449 0.221246
-0.119952 -0.0330946 -0.1316 0.501433 -0.463597 -0.730508
0.209723 0.00474578 0.301511 0.884856 0.369545 -0.283667
0.106312 -0.0703059 0.395419 -0.723273 -0.683111 -0.101174
-0.189412 0.0904557 -0.320685 0.68104 0.732168 -0.0106823
0.141389 -0.115738 0.334379 -0.68957 -0.624909 0.366036
0.0157543 -0.109679 -0.266413 -0.678984 0.481498 -0.554202
0.130995 -0.1496 0.175855 -0.681276 -0.701863 0.20797
0.122715 0.0742172 0.475069 0.261875 0.0429831 0.964144
-0.0182572 -0.059799 -0.208034 -0.714422 -0.668507 0.206639
0.113138 -0.117198 0.266839 -0.619053 -0.730003 0.289601
0.0358051 -0.101095 0.0180118 -0.0957157 -0.935891 0.339038
-0.245285 -0.00333427 -0.387451 -0.824487 -0.54356 0.157369
-0.186493 0.0726539 -0.259286 0.895956 -0.332753 -0.294175
-0.199881 -0.041959 -0.419845 -0.716623 -0.668345 0.199413
0.100439 -0.123887 0.16999 -0.441896 -0.896277 0.0376146
-0.121902 0.09202 0.00950292 -0.66924 0.644132 0.370421
-0.124158 0.011461 0.143359 0.198018 -0.969631 -0.143541
0.133573 -0.128138 0.0958356 0.880327 -0.366571 -0.301082
-0.198987 0.0365547 -0.19182 0.627433 -0.476653 -0.615735
0.226237 -0.057456 0.345822 0.922305 0.12326 -0.366279
-0.0791984 0.0615425 0.259431 -0.629499 0.773419 0.0745196
0.0340647 0.107792 0.317746 -0.259551 0.920468 0.292184
0.136642 0.0677451 0.488641 0.56165 0.0185473 0.827167
-0.0454305 -0.0827485 -0.355631 -0.545621 -0.819222 0.176559
0.0444934 -0.143108 -0.174679 0.867405 -0.385815 0.314253
0.0763979 -0.152253 -0.20916 0.898338 -0.407692 0.163635
0.0864366 -0.0725364 -0.325618 0.694084 0.677662 -0.242942
0.109601 0.0387188 0.11405 0.398628 0.89335 -0.207417
-0.207378 0.0132803 -0.216612 0.696204 -0.646414 0.312169
-0.0960164 -0.0415354 -0.0898315 -0.468807 -0.871459 0.144152
-0.0821667 0.0867438 -0.0700661 0.206144 0.938222 0.277928
0.266328 -0.0433002 0.441496 0.939559 -0.341048 0.0302533
0.0605551 -0.117603 -0.298036 0.934765 -0.166504 -0.313833
-0.217386 0.00163612 -0.448768 -0.58644 0.308967 -0.74875
0.159115 -0.0967209 0.430395 -0.564425 -0.80595 0.178516
-0.104463 0.0910211 0.0378785 -0.234333 0.971938 0.020611
0.159398 0.0423005 0.276218 0.723353 0.664792 -0.186577
0.0330765 -0.13541 -0.124403 -0.765572 -0.638007 0.0827428
0.0366973 -0.0524453 0.282785 -0.856113 -0.470031 0.214805
-0.0235614 0.0614098 -0.0163193 0.529783 0.814557 -0.236276
0.0942062 0.0917998 0.49255 0.300824 -0.256558 0.918522
-0.0277062 0.0545209 0.339208 -0.591862 0.793264 0.14294
-0.0364595 -0.0759865 -0.0158841 -0.870749 -0.476983 0.119516
-0.214527 0.0389091 -0.27065 0.422318 -0.808341 0.410162
-0.246049 -0.00213286 -0.319563 -0.142855 -0.981794 -0.125194
0.094894 -0.0840169 0.304693 -0.775235 -0.420936 0.470982
0.114508 -0.0707283 -0.0581424 0.924381 -0.375262 0.0685482
-0.0183987 0.0897298 0.173826 0.601276 0.70967 -0.3672
0.105826 0.0330803 0.484503 0.616328 -0.107195 0.78016
0.0962885 -0.0538252 0.482798 0.0299283 -0.955888 -0.292203
0.131188 -0.0880414 0.467056 -0.326184 -0.931044 0.163589
0.0450709 -0.139414 -0.376023 0.80243 -0.428859 -0.414953
0.224486 -0.0218341 0.324391 0.931924 0.203343 -0.300281
-0.153147 0.0114344 0.029196 -0.580431 -0.694146 0.425747
0.114535 -0.0942198 0.372512 -0.393615 -0.910882 -0.12394
0.0552047 -0.0905508 -0.403316 0.4207 0.389271 -0.819439
-0.00760971 0.0971594 0.318853 -0.397218 0.8774 0.269048
0.0215618 0.101009 0.211597 -0.195841 0.968006 0.156879
-0.26675 0.110879 -0.236431 -0.515916 0.751919 -0.410425
0.251273 -0.042565 0.400229 0.553382 -0.820364 0.144122
-0.0449882 -0.0810717 -0.113205 -0.706487 -0.684594 0.179465
-0.0760089 0.102568 0.0507254 -0.304161 0.948209 0.0915788
0.215638 -0.0139299 0.463143 0.643826 -0.014865 0.765027
-0.170931 0.0801254 -0.256103 0.564234 -0.812667 0.145643
-0.0569953 -0.0220794 0.156464 -0.62808 -0.600228 0.495219
-0.101424 0.0530335 0.168658 -0.418169 0.504195 0.755594
-0.0127764 0.0249495 -0.13281 0.236402 0.969633 -0.0626575
0.0948621 -0.103677 0.253882 -0.43839 -0.891554 0.113782
-0.0497514 0.0696127 -0.07219 0.381868 0.884573 -0.267783
-0.270398 0.100174 -0.264174 -0.14151 0.90275 -0.406224
0.0377238 -0.170438 -0.362749 0.75476 -0.275665 -0.59527
0.0517612 0.0740178 0.501297 0.945789 -0.108835 0.306003
-0.0277614 0.0461848 -0.117063 0.42781 0.902732 -0.0453116
-0.0963208 -0.0132604 0.0226532 -0.604969 -0.784389 0.136919
0.19023 0.0400742 0.452515 0.774038 0.533443 -0.341034
0.155806 -0.100246 0.116057 0.917199 -0.0734105 -0.391608
-0.0453459 0.0059977 -0.17324 -0.0122932 0.0175213 -0.999771
-0.174895 -0.0681745 -0.381591 0.276411 -0.0770516 0.957946
-0.0489692 -0.0329621 0.0517549 -0.711612 -0.65843 -0.245109
-0.0432878 0.0469316 -0.167375 -0.0035218 -0.340701 -0.940165
0.128224 -0.111643 0.345722 -0.541519 -0.823034 0.171385
-0.180722 -0.0250789 -0.474623 -0.602545 0.287725 -0.744415
-0.148735 0.0316467 -0.425206 0.751839 0.630467 -0.193001
-0.26197 0.0992857 -0.245056 -0.28198 0.847221 -0.450227
-0.0888837 0.131976 0.12934 -0.816646 0.396472 0.419403
-0.199237 -0.0481463 -0.381658 -0.340363 -0.930006 0.138718
-0.0385836 0.0831281 0.296381 -0.351919 0.734647 0.58004
-0.0238354 0.0833207 0.0195354 -0.24016 0.653748 -0.71759
0.15889 -0.00297588 0.143026 0.97523 0.219322 -0.0287276
-0.211454 0.0752159 -0.137704 -0.140034 0.95242 -0.270714
-0.135229 0.107522 0.133428 -0.569211 0.742343 0.353448
0.0309104 -0.0986438 0.111408 -0.52479 -0.834406 0.168414
0.181023 -0.119401 0.357684 -0.487689 -0.8701 0.0713135
0.236273 -0.146639 0.41352 0.800507 -0.558916 -0.216337
-0.155494 -0.00181345 -0.460616 0.175663 0.334279 -0.925959
-0.025416 0.0506109 -0.0644098 0.666808 0.659243 -0.347515
-0.146832 0.0714667 -0.200238 0.594611 -0.644229 -0.481048
-0.190795 -0.0159491 -0.176362 0.480677 -0.456631 -0.748624
-0.0780476 0.086633 0.145277 0.360816 0.0654416 0.930338
-0.262911 -0.012514 -0.395925 -0.385837 -0.914749 0.119851
0.162258 -0.0671631 0.0890633 0.61132 0.69266 -0.382766
0.0676307 -0.112188 -0.17621 0.97136 -0.237484 -0.00783799
0.0214928 0.101303 0.18706 -0.173488 0.982821 0.062968
0.0167305 -0.0625998 -0.270395 -0.771912 0.565667 -0.290127
-0.076445 0.0796637 0.0393661 0.262156 0.959066 -0.10708
-0.182401 0.0581767 -0.307082 0.206396 -0.213733 0.95484
0.0200819 0.0872748 0.494361 -0.454458 0.880592 0.134261
0.0340822 -0.172083 -0.253682 -0.539705 -0.82399 0.172505
0.0113462 -0.114441 -0.0142401 -0.604681 -0.740694 0.292803
-0.091644 0.0315293 -0.387716 0.622148 0.751444 -0.219692
-0.163303 0.0522189 0.158788 -0.758875 0.427739 0.491068
-0.0525819 0.0757175 0.0605835 -0.338618 0.791291 0.509113
0.0136452 -0.106072 -0.0106473 -0.425553 -0.869289 0.251477
-0.133137 -0.00306989 -0.391785 0.137165 0.200384 0.970068
-0.16052 0.00851699 -0.0482655 -0.0684201 -0.993765 0.0880324
-0.0708529 -0.0363573 0.0279624 0.00612264 -0.908178 -0.418538
0.184723 -0.129887 0.256088 0.819904 -0.515884 -0.248237
-0.259172 0.0854256 -0.35798 -0.583105 0.633219 -0.508942
-0.222998 0.0315988 -0.139143 -0.348853 -0.924594 0.153059
-0.0482651 0.0933882 0.0729654 -0.171889 0.981895 0.079598
0.199566 -0.020252 0.257585 0.910646 0.23114 -0.342489
-0.114309 0.0285646 0.18884 -0.976309 0.104557 0.18944
-0.118912 0.0527849 0.175529 -0.603156 0.794825 -0.0667526
-0.168749 0.0807727 -0.232092 0.708318 -0.351053 -0.612411
-0.251772 0.0928644 -0.335455 -0.70098 0.656916 0.277647
0.111386 0.0625189 0.186468 0.66621 0.70935 -0.230189
-0.213786 0.063316 -0.402471 -0.457841 0.565553 -0.685953
-0.044877 0.0179082 0.345091 -0.657247 -0.707783 0.258977
-0.220399 -0.0433003 -0.392412 -0.196094 -0.806889 0.557205
0.0424038 0.092138 0.144703 0.864007 0.467933 0.185822
-0.188531 0.00626347 -0.120388 -0.514467 -0.847029 0.133663
-0.0784146 0.0371506 0.285942 -0.786906 0.433806 0.438852
0.0660572 -0.0789711 -0.155321 0.809267 0.254961 -0.529228
0.126592 0.0824029 0.463556 -0.187271 0.904611 0.382896
-0.0708313 0.0895049 -0.0214469 0.668465 0.647882 -0.365243
-0.151999 0.0470926 -0.340393 0.793097 -0.535933 0.289436
0.0317517 -0.12227 0.0049604 -0.749293 -0.654643 0.100016
0.0342267 -0.186144 -0.31085 0.729144 -0.684343 -0.00495967
0.0634294 -0.0451711 -0.12734 0.591327 0.538452 -0.600335
-0.252977 0.0508194 -0.177164 -0.64752 -0.731273 0.214378
-0.14264 -0.0541186 -0.397295 0.284657 0.0663731 0.956329
0.0246389 -0.0280434 -0.2182 0.464278 0.882575 -0.0742134
0.0630266 -0.11702 -0.27619 0.791667 -0.574147 0.20885
-0.0208396 0.0939839 0.172299 0.343255 0.928772 -0.139853
0.111347 -0.139073 0.12653 0.0137155 -0.994546 0.103394
-0.000889708 -0.0642273 -0.201581 -0.585251 0.327621 -0.741718
-0.188883 0.100465 -0.152221 -0.364406 0.475136 0.800908
0.223545 -0.0288532 0.325848 0.775729 0.339282 -0.532102
0.0659627 -0.0333449 0.488579 -0.626133 -0.763128 0.159982
0.229737 -0.131382 0.450696 -0.610715 -0.77321 0.170803
0.177376 -0.116982 0.0512468 0.358171 -0.646145 0.673951
-0.112021 -0.0138942 0.0109905 -0.249561 -0.963302 0.0988324
0.116419 -0.066956 -0.0196482 0.969023 -0.0703449 -0.236739
0.0853954 -0.131816 -0.0206073 0.818515 -0.550724 -0.16351
0.138489 0.0393332 0.234717 0.554499 0.811995 -0.182198
0.237992 0.0188716 0.433768 0.823462 0.482947 -0.297778
0.234601 -0.0353594 0.367854 0.902535 0.335464 -0.26999
0.0853286 -0.0146715 0.498804 -0.293804 0.166256 0.941296
0.221818 -0.145019 0.33159 0.84276 -0.4266 -0.328279
-0.0791118 0.0346042 0.333868 -0.728284 -0.667644 0.154449
0.224305 -0.0874161 0.385239 0.931165 -0.330874 -0.153149
-0.0405444 -0.0904893 -0.451985 0.376875 -0.0758023 -0.923157
0.0795112 0.0353515 0.492915 0.356853 -0.0364885 0.933448
-0.0865685 0.0864101 -0.0389521 0.21772 0.970419 0.104333
0.224178 -0.0702359 0.453452 0.534193 -0.650591 0.539786
0.0501616 0.0893827 0.17961 0.572413 0.777489 -0.260487
0.0112003 -0.107567 0.0368184 0.295982 -0.949744 0.101885
-0.284184 0.0272025 -0.362441 -0.591344 0.533344 -0.604861
0.0592171 -0.0775989 0.241201 -0.553126 -0.811539 0.188299
0.145966 -0.114591 0.304448 -0.582686 -0.792324 0.180832
-0.198877 -0.0652245 -0.454104 -0.793102 -0.607232 0.0475273
-0.0833496 0.071998 -0.0417176 0.532057 0.829102 -0.171774
0.0498109 -0.153477 -0.366328 0.716901 -0.240767 -0.654282
0.162301 -0.0141291 0.0322711 0.212922 0.891772 0.399258
0.0877962 -0.141542 0.000675716 -0.147624 -0.969859 0.193855
0.0545646 -0.1635 -0.338365 0.816641 -0.575602 -0.0421837
0.123234 -0.142232 0.117356 -0.313333 -0.940562 0.131018
0.0227214 0.0939462 0.120592 0.426758 0.874183 -0.231694
-0.0493483 -0.0539017 0.0578816 0.35728 -0.930326 -0.0827347
-0.000929955 -0.0483227 -0.323628 -0.649401 0.57816 0.493973
0.181608 -0.0882241 0.139298 0.81834 -0.550187 -0.166171
0.126652 -0.0545056 0.477265 0.41435 -0.658255 0.628502
0.0980603 0.0347095 0.00814274 0.378284 0.729429 -0.569942
0.0212829 -0.166841 -0.229778 -0.492176 -0.847866 0.197197
-0.0526275 0.010626 0.320566 -0.910327 -0.409524 -0.0599529
-0.198378 0.0155505 -0.0976082 -0.406577 -0.91316 0.0288838
-0.115415 0.102131 -0.0978093 -0.189054 0.811671 0.552675
-0.23678 0.00701566 -0.22566 -0.949351 -0.298748 -0.097379
0.117784 0.0388414 0.0879917 -0.303178 0.874477 0.378647
0.0986752 -0.109968 -0.0585038 0.940042 -0.129567 -0.315488
0.0478162 -0.0355442 0.357576 -0.436401 -0.878678 0.193596
0.0529491 -0.0662661 0.308916 -0.701864 -0.668804 0.24513
-0.00516282 -0.0857892 -0.440657 0.357984 0.37724 -0.85413
-0.0662564 0.057187 -0.138176 0.228304 0.970738 -0.0744671
-0.164707 -0.0132994 -0.096777 -0.136917 -0.974051 -0.180215
0.0733217 0.0810057 0.165752 0.350264 0.925456 -0.144381
-0.0886022 0.0474721 0.229083 -0.540984 0.795446 -0.273136
0.0372921 -0.0278944 0.461737 -0.778283 -0.578766 0.243529
-0.180208 0.0619361 -0.39956 0.858217 0.513143 0.0122087
-0.19398 -0.0624871 -0.357485 -0.462235 -0.870985 0.166503
-0.0274887 -0.0477484 -0.434412 0.640479 -0.196332 -0.742455
0.0945191 -0.149556 0.0478594 -0.106283 -0.989677 0.0961417
-0.265211 0.109026 -0.243178 -0.75307 0.503263 0.423806
0.042533 0.0926738 0.424141 0.0876121 0.915992 -0.391515
0.0407308 0.0787634 0.0808514 0.7046 0.69644 -0.136054
0.107838 -0.146368 0.0981767 -0.354221 -0.809434 0.468341
-0.137759 0.032373 -0.361496 0.466668 -0.228325 0.854452
-0.265249 0.042731 -0.214167 -0.580775 -0.796495 0.168216
0.18916 -0.136447 0.353336 -0.822915 -0.500244 0.269382
-0.136808 0.0527667 -0.184266 0.508654 -0.351671 -0.785874
-0.0907683 0.0990675 0.112113 -0.337407 0.253461 -0.906595
-0.186875 0.0429604 -0.0385647 -0.343185 0.894229 -0.287366
0.129498 -0.123506 0.273707 -0.334471 -0.94126 0.0464684
0.0608031 -0.162959 -0.264534 0.888036 -0.447748 -0.104467
0.0764442 -0.10436 -0.136132 0.850003 0.357755 -0.38666
-0.247765 0.0934488 -0.231838 -0.516249 0.496848 0.697588
-0.105503 -0.00865808 0.0645488 -0.470705 -0.874491 0.117058
0.0433723 -0.0191901 -0.141049 0.507474 0.838851 -0.196976
0.225114 -0.103687 0.367937 0.883818 -0.449892 -0.128307
-0.257943 0.0478152 -0.405703 -0.106592 0.433119 -0.895012
-0.257058 0.0851015 -0.197943 -0.558128 0.823258 0.103629
0.0365116 -0.0807313 0.188282 -0.697065 -0.673788 0.245175
0.0218021 -0.167913 -0.38232 -0.709118 -0.697958 0.100031
-0.136795 -0.0304217 -0.134386 -0.00432955 0.689498 -0.724274
0.00990003 0.0462658 -0.00182346 0.22242 0.703315 -0.675187
0.0443167 -0.165583 -0.207433 -0.342038 -0.894535 0.287779
0.204993 -0.119357 0.255082 0.908642 -0.205151 -0.363708
0.0124911 -0.12827 -0.420424 0.301746 0.118784 -0.94596
0.0290071 -0.0719254 -0.406737 0.695928 0.459244 -0.552068
-0.0369115 -0.0417193 -0.164862 -0.496278 0.139454 -0.85689
-0.0929544 0.0161696 -0.392849 0.368082 -0.236235 0.899282
0.101818 -0.1623 0.0436643 -0.660381 -0.717468 0.221666
-0.0638751 0.0925225 0.00276116 -0.00904211 0.965638 -0.259735
-0.142853 0.0943682 -0.173336 0.295946 0.952426 0.0728035
0.149266 -0.0576695 0.466874 0.363998 -0.0147384 0.931283
-0.145783 0.0732131 -0.0411132 -0.308058 0.946137 0.0996253
-0.135124 0.0804135 0.023653 -0.414968 0.903032 -0.111062
0.0488781 -0.126543 0.0552363 -0.842706 -0.516693 0.151247
0.0408568 0.0902284 0.204162 -0.352448 0.93504 -0.038484
-0.0610981 -0.137699 -0.386469 -0.363115 -0.915523 0.173104
-0.0940529 0.0570937 0.208029 -0.479298 0.876961 0.0348295
0.225071 -0.134665 0.403503 0.841705 0.1542 -0.517451
0.128148 0.0348937 0.12482 0.503547 0.85128 -0.147521
0.0667626 -0.022235 0.471232 -0.51118 -0.844731 0.158508
0.0785381 -0.137065 0.088184 -0.573504 -0.80123 0.170654
0.114743 -0.0376117 -0.0308197 0.151542 0.819117 -0.553247
-0.0443161 0.0455842 -0.106839 0.640007 0.749199 -0.170561
0.140322 -0.00403994 0.0466464 -0.271102 -0.00110448 -0.96255
0.0100796 -0.174804 -0.359419 0.221612 -0.975133 -0.00196441
-0.154735 0.0474667 -0.177284 -0.856986 -0.398552 0.326698
-0.0753495 -0.0262536 -0.130868 -0.351719 -0.932523 0.0818231
-0.0251101 -0.123101 -0.331784 -0.677245 0.527108 0.513318
-0.045754 0.0965701 0.23899 -0.386903 0.854012 0.347808
-0.0901611 0.102868 -0.0240611 0.428449 0.894254 -0.129387
-0.120002 0.0908878 -0.0347761 -0.45998 0.712089 0.530423
-0.158372 0.0730879 0.121941 -0.734784 0.632975 0.243794
0.051672 0.016754 -0.0392735 0.347957 0.775468 -0.526854
-0.169788 0.0102226 -0.363287 0.725653 -0.257517 0.638054
-0.197298 0.0545167 -0.414862 -0.035074 0.279296 -0.959564
0.0862964 -0.0337646 -0.0499522 0.502461 0.85385 -0.135915
0.0467027 -0.175769 -0.268948 0.918176 -0.319917 -0.233678
-0.148668 -0.00433096 -0.465349 -0.207167 0.318087 -0.92515
-0.044497 -0.0842262 -0.166223 -0.813092 0.428934 -0.393569
0.221997 -0.0541208 0.452597 0.60955 -0.452863 0.650664
-0.169399 -0.00176481 -0.155274 0.405806 -0.33648 -0.849766
-0.109214 0.010982 0.173554 -0.734149 -0.659291 0.162356
0.0384075 -0.0726508 0.212819 -0.564835 -0.79324 0.227447
-0.103469 0.000799126 -0.439789 0.795007 0.523597 -0.306284
-0.131917 -0.0150799 -0.049385 -0.744181 -0.49047 0.453469
-0.151048 0.064031 0.127421 0.0327055 -0.238747 -0.970531
-0.0131244 0.0916331 0.0832482 0.157408 0.98504 -0.0701279
0.0694374 -0.0432911 -0.214893 0.428146 0.903645 -0.0107775
0.255173 -0.0923942 0.443061 0.169668 0.0015162 0.9855
0.0744011 -0.0920222 -0.31341 0.927046 0.274624 -0.255278
0.0650691 -0.0769308 0.298169 -0.443211 -0.894805 0.0537445
-0.243266 0.0156515 -0.176858 -0.724507 -0.463448 0.510202
0.0224932 0.0357581 0.0104191 0.4464 0.466558 -0.763578
0.0589773 -0.0524445 0.391183 -0.0352247 -0.996692 -0.0732383
0.0990472 -0.0796005 -0.269529 0.539262 0.825299 -0.167566
0.00747748 -0.000831428 0.476958 -0.266394 -0.7788 0.567895
-0.0804112 -0.0136807 -0.38956 0.0382469 0.131568 0.990569
-0.199165 0.0344254 -0.432467 0.036324 0.441024 -0.89676
0.0813802 -0.0933945 -0.226728 0.994471 -0.00345681 -0.104957
0.0980343 0.0854342 0.276289 0.497298 0.849025 -0.178467
-0.130432 0.0536713 0.0844283 -0.620416 0.775024 0.12009
0.0101729 -0.0462676 0.211111 0.0698162 -0.966593 -0.246625
-0.103005 -0.128154 -0.41914 -0.489287 -0.856962 0.161909
-0.0582649 -0.00304343 0.221118 -0.28069 -0.874414 -0.395745
-0.0855566 0.0585234 0.179855 -0.447586 0.893166 0.0438233
-0.0686476 0.0160214 0.304411 -0.63844 -0.749334 0.175763
-0.167867 -0.0837202 -0.438612 -0.223735 -0.974001 0.0355746
0.198192 0.0541417 0.455516 -0.262905 0.0750754 0.961896
-0.0550455 -0.0654512 -0.0100313 -0.686781 -0.477585 0.547946
0.0906597 0.0437589 0.026943 0.109246 0.819947 -0.561918
0.0743085 -0.0640095 -0.218429 0.615614 0.778875 -0.119887
0.13294 0.0157317 0.0953625 0.87194 0.413729 -0.261817
-0.249746 0.0258986 -0.246672 -0.327303 -0.929475 0.170146
0.247163 -0.110146 0.415027 0.771969 -0.166029 -0.613595
-0.0264798 -0.0267774 -0.371756 0.35967 0.906288 -0.221989
0.0691385 -0.124747 0.110618 -0.525016 -0.843902 0.110399
-0.206023 0.0270457 -0.219575 0.531974 -0.456004 -0.713488
-0.251948 0.110755 -0.323305 -0.257312 0.821014 -0.509634
-0.0738335 -0.139895 -0.449488 -0.483097 -0.873133 0.0652484
0.160036 -0.11986 0.120105 0.715944 -0.68172 0.150609
-0.0368689 0.00156928 0.354015 -0.157063 -0.909065 -0.385917
-0.129615 -0.106114 -0.403361 -0.548732 -0.814813 0.187012
0.163403 -0.11144 0.440658 -0.526023 -0.832237 0.175163
0.209462 -0.144519 0.305317 0.803711 -0.572561 -0.161935
-0.253136 0.00026911 -0.341616 -0.596382 -0.792125 0.129872
0.0936651 0.0475842 0.0895427 0.541606 0.814833 -0.206665
