ply
format ascii 1.0
comment Created by Open3D
element vertex 828
property double x
property double y
property double z
property double nx
property double ny
property double nz
end_header
0.584812 -0.0823183 0.214782 0.848633 0.336416 0.408223
0.0888828 0.397804 0.213601 -0.438862 -0.0575971 0.896707
-0.191187 -0.56318 -0.0946649 -0.48688 0.866988 -0.106202
-0.436123 -0.194839 -0.169818 -0.733489 -0.410197 -0.541971
-0.125647 -0.601078 -0.0380944 0.525457 0.0158084 -0.850673
-0.0468552 0.153162 -0.145218 0.426511 -0.879672 0.210393
0.262665 0.440062 0.0191147 0.402726 0.0488162 -0.914018
-0.254379 0.168576 -0.216976 -0.415631 -0.109906 0.902868
0.506809 -0.128257 0.250587 0.411545 -0.900349 0.141433
0.303721 0.456195 0.0942023 0.784231 0.568309 0.249009
-0.332867 -0.122973 -0.381727 0.276437 0.33869 -0.899373
0.273681 0.215544 0.14318 0.331818 0.247611 -0.910267
0.366757 0.300581 0.162748 0.304165 -0.928991 0.210854
-0.166611 0.405036 -0.106406 -0.402617 -0.121415 0.907281
0.21882 0.417875 0.00352876 0.249848 0.312678 -0.916411
0.394615 -0.194937 0.112928 -0.553509 0.831402 -0.0489754
0.0130839 0.451939 0.183112 -0.175746 -0.234967 0.955983
-0.127887 0.399483 -0.0561611 -0.496254 0.860422 -0.115785
0.0773393 -0.428766 -0.206849 -0.547685 0.81453 0.191263
-0.0205266 0.0555306 0.0781594 0.511729 -0.858367 -0.0366099
0.441156 0.301454 0.0367168 0.586827 0.4513 0.672282
0.0562992 0.369958 0.187025 -0.566198 -0.0321378 0.823642
-0.208144 -0.0447245 0.117511 -0.482696 0.184326 0.856171
0.281356 0.255346 0.0700881 -0.530411 0.847283 -0.0278547
-0.0733843 0.0160723 -0.241351 0.506855 -0.110207 -0.854957
0.598136 -0.0865664 0.112877 -0.43384 0.887455 -0.155583
0.331383 0.288809 0.260409 0.386049 -0.876082 0.28887
0.233267 -0.312702 -0.00780501 0.29285 -0.920593 0.258353
0.227035 -0.322928 -0.0578448 -0.465971 0.872656 -0.146094
-0.0196426 -0.465668 -0.00843444 0.539144 -0.841301 0.0391978
-0.0893261 0.300328 0.120561 -0.131863 -0.436554 0.889962
-0.262329 0.263794 0.0416562 0.444124 -0.878363 0.176727
0.102112 0.117064 0.162871 0.424702 0.102036 -0.899565
0.207654 0.287009 0.345147 -0.334036 -0.297193 0.894481
0.506172 -0.134533 0.324873 -0.329097 -0.268564 0.9053
-0.0891401 0.399904 -0.0724462 0.0336099 -0.5761 0.816688
-0.44064 0.000496154 -0.337129 0.608257 0.0930138 -0.788271
-0.153883 0.100156 -0.192 -0.455127 -0.0806696 0.886765
-0.132523 0.243264 -0.166028 0.360722 0.200384 -0.910893
0.283486 0.322689 -0.0355099 -0.329402 -0.169207 0.928905
-0.139905 -0.0310778 -0.097176 0.420449 -0.883251 0.207583
-0.186505 0.189438 0.0485505 -0.0466289 0.593648 -0.803373
-0.338206 0.107519 -0.272417 -0.338853 -0.228098 0.912771
-0.243313 -0.0235682 0.0108029 -0.558041 -0.0120955 0.829725
-0.201537 -0.045132 -0.0436593 -0.497538 0.858737 -0.122586
0.0494967 -0.434001 -0.11809 -0.543816 0.838063 -0.0437442
0.0184115 0.497725 0.0684406 -0.52586 0.850418 0.0161343
0.221442 0.424055 0.184962 -0.448851 0.885447 -0.120482
-0.0190039 0.0804214 0.181834 -0.432467 0.883844 -0.178306
-0.407705 0.0786761 -0.0632201 0.347047 0.361762 -0.865267
-0.126171 -0.0329108 0.155329 -0.238184 -0.378309 0.894511
-0.0629669 0.253312 0.0870401 -0.54841 0.832337 -0.0803768
0.473726 -0.188588 -0.0043644 0.616704 -0.776472 -0.129488
-0.391148 0.255677 -0.0194541 -0.440961 -0.071608 0.894665
-0.0931819 0.213969 -0.0342199 0.652653 -0.734747 -0.184905
0.0814845 0.356497 -0.060678 0.287264 0.222552 -0.931638
0.237523 -0.408142 -0.146181 -0.448514 -0.0987535 0.888303
0.128799 0.554823 0.0619854 0.464111 -0.873301 0.148144
-0.078933 0.365349 -0.0767267 -0.372657 -0.142711 0.91693
-0.33373 -0.133945 -0.366387 -0.331332 -0.461781 0.822786
0.447085 -0.159211 0.262224 -0.298065 0.791263 -0.53391
-0.0174259 0.471781 0.050886 -0.508836 0.860077 -0.036801
0.0587914 0.107197 -0.040644 -0.432696 0.891962 -0.131068
-0.0683984 0.504274 0.144236 0.535184 0.0204054 -0.844489
-0.0598488 0.123069 0.0955776 0.365735 0.179791 -0.913188
-0.303726 -0.00901476 -0.2648 -0.300836 -0.166096 0.9391
-0.202298 0.115676 0.0472791 -0.377744 -0.141649 0.915011
-0.420656 0.205288 -0.045306 0.444687 0.123633 -0.887112
0.162982 -0.455792 -0.194128 -0.378706 -0.173316 0.909144
0.074243 -0.325506 0.1003 0.39968 0.096208 -0.911592
-0.207016 -0.00842463 0.129324 -0.318633 -0.239336 0.917165
-0.310905 0.332365 0.00762706 0.202703 0.267911 -0.941878
0.119182 0.202362 0.186868 -0.430794 -0.118437 0.894645
-0.0063571 0.223429 -0.108223 -0.581759 0.0356905 0.812578
0.293631 0.158286 -0.0511387 -0.540055 -0.041472 0.840607
0.103954 0.59575 0.0279357 -0.517179 0.85246 -0.0764054
0.187337 0.238266 -0.100343 0.380188 0.184016 -0.906419
0.0668509 0.535654 0.178638 0.556794 -0.827028 -0.0774942
-0.0571811 -0.499046 -0.302451 0.397301 0.121887 -0.909558
-0.283519 0.312752 -1.50915e-05 -0.535481 0.842428 -0.0597954
0.0723262 -0.403646 -0.0672183 -0.493695 0.863353 -0.104343
-0.177354 -0.595098 -0.0447456 -0.0972913 -0.337348 0.936339
0.293912 0.277534 0.319041 0.586595 -0.809305 0.03052
-0.242102 0.32553 -0.12632 -0.292841 0.850629 -0.436663
0.164348 0.590576 0.159886 0.369719 -0.86872 0.329595
-0.464402 0.201089 -0.265796 -0.499068 0.00465914 0.86655
0.235359 0.433323 0.257713 0.714341 0.665983 0.214906
-0.126933 -0.525912 -0.118971 -0.146715 0.968302 -0.202153
-0.39626 0.238563 -0.0723432 -0.48541 0.846507 -0.218639
0.0560761 0.473441 0.189272 0.415179 0.112799 -0.902719
0.0490456 0.534361 -0.00635132 0.196584 0.271606 -0.942117
0.311992 -0.322994 0.210661 -0.221354 -0.350486 0.910034
-0.488741 -0.0265561 -0.240945 -0.389793 0.873603 -0.291339
-0.281532 -0.145027 0.069517 0.411347 -0.84415 0.343809
-0.032272 0.246163 -0.0161394 0.555753 -0.8307 0.0328063
0.0435714 -0.429666 -9.77941e-05 0.448344 -0.869315 0.208035
0.261178 -0.30085 0.0284192 0.494368 -0.86251 0.108061
0.153534 0.24278 0.311281 -0.400277 -0.0525145 0.914888
0.303296 -0.284333 -0.0822895 0.636976 -0.770066 -0.0354937
0.385176 -0.147215 -0.0685084 0.376569 0.15388 -0.913519
-0.591547 0.0535552 -0.134796 -0.400936 -0.118533 0.908405
-0.100452 0.0585178 -0.0385566 -0.384363 -0.24138 0.891067
0.123291 -0.377831 -0.0133175 -0.590403 0.806399 -0.0338279
0.293318 0.234204 -0.0204521 0.537727 -0.836843 -0.102681
0.157749 0.35578 -0.0117295 0.595454 -0.778305 0.199187
0.144102 0.415224 0.225249 0.335888 0.176599 -0.925198
0.220158 0.268493 -0.0849409 0.403583 0.11554 -0.907619
0.0775888 0.467756 -0.00257481 -0.464873 -0.0527941 0.883802
0.407802 0.287133 -0.00191484 0.458757 -0.100491 -0.882861
0.214784 0.332986 -0.00215366 -0.410348 -0.10584 0.905766
0.375442 -0.217307 0.208325 0.64635 -0.761293 -0.0516281
0.170312 0.172525 0.312333 -0.33569 -0.308972 0.889859
0.364333 -0.232246 -0.0780673 0.400748 0.116962 -0.908692
-0.0186732 0.264469 0.134583 0.333207 0.097013 -0.937849
0.274577 -0.284672 -0.0138938 -0.618844 0.782331 0.0706428
-0.0551851 0.272954 0.132454 -0.541864 -0.0709014 0.83747
0.139552 0.521642 0.0367263 -0.422175 -0.0718287 0.903664
0.345908 0.343299 -0.00802814 0.374154 0.186744 -0.908369
-0.51891 -0.0475532 -0.191843 -0.761903 -0.557806 -0.329174
-0.227146 0.357158 0.0509606 -0.31303 0.889624 -0.332538
0.0757771 0.511202 0.228047 -0.565062 -0.0564536 0.823115
0.469246 -0.16541 0.0278191 -0.437779 0.848415 -0.297557
-0.135871 0.18959 -0.00209579 -0.42666 0.833793 -0.350357
0.160205 0.251337 0.30282 0.26089 0.264732 -0.928361
-0.0643853 0.00781591 -0.205649 0.520028 -0.853269 0.038767
-0.0253228 0.0417798 -0.168755 0.796425 -0.603992 -0.0300176
-0.108551 0.198417 -0.101061 -0.383883 0.836347 -0.391353
-0.295032 -0.0465295 0.0739993 0.535886 -0.0105432 -0.844225
0.382658 0.340179 -0.00326888 0.549875 -0.186439 -0.814173
0.534266 -0.121232 0.151387 0.191056 -0.840343 0.507268
-0.091078 -0.00276071 0.174728 -0.399518 -0.122309 0.908529
0.155209 -0.348725 0.00458064 -0.472541 0.87222 -0.126246
-0.257072 0.259764 -0.17826 -0.221157 -0.238243 0.94569
0.169214 0.194606 0.267818 0.518973 -0.854784 -0.00325804
-0.364013 0.0652325 -0.0558434 0.200307 0.563108 -0.801739
0.186937 -0.340695 -0.0626092 -0.446496 0.888479 -0.106053
0.0292156 0.570459 0.184673 0.455171 -0.053905 -0.888771
-0.402287 0.227454 -0.181343 -0.417706 0.891311 -0.176313
0.337577 -0.230721 -0.0951148 -0.398732 -0.110972 0.910328
-0.270213 0.0943973 -0.0725761 0.509798 -0.856421 0.0815352
0.0550404 0.302497 0.0445265 0.564876 -0.824974 0.0182523
-0.346459 -0.15216 -0.178653 0.482236 -0.869022 0.110675
0.161224 0.626681 0.0677579 -0.545659 0.83654 0.0495667
0.0961906 0.558997 0.180214 -0.421416 0.882253 -0.209854
-0.122834 -0.555836 -0.0224358 0.211261 0.191595 -0.958468
0.0930683 0.345602 0.193509 -0.403855 -0.10767 0.908465
-0.560285 0.0864383 -0.116267 -0.388892 -0.137391 0.910981
-0.315265 0.281355 -0.118534 -0.512634 0.858482 -0.0146469
0.305487 -0.209472 0.209213 0.485084 0.0620819 -0.872261
0.0905092 0.536793 0.0380441 -0.559652 0.825821 -0.0693533
0.0414616 0.476966 0.198334 -0.433464 -0.0381704 0.900362
-0.0798018 0.0291402 0.127121 0.43664 -0.797939 0.415499
-0.114002 0.0348532 0.166961 -0.258396 -0.24116 0.935454
-0.0523306 0.055299 0.0428122 -0.558181 0.828449 -0.0458916
-0.173269 0.128553 -0.196522 -0.329064 -0.294396 0.897244
0.283984 0.51193 0.0499565 -0.500797 0.859831 -0.0994675
0.0791244 -0.414553 -0.059498 0.563386 -0.823721 0.0638823
-0.144757 0.380803 0.0955431 0.266685 0.577766 -0.771405
0.267826 -0.251959 -0.118979 -0.39768 -0.121356 0.909463
0.40231 -0.207042 0.0787735 -0.489654 0.852797 -0.181591
0.0728971 -0.410386 -0.147067 -0.754931 0.652624 -0.0645009
-0.166936 0.396464 0.0900172 -0.417654 0.227904 0.87956
-0.427763 0.174191 -0.0439367 0.431318 -0.807584 0.402211
0.223498 -0.417522 -0.172219 0.345057 -0.911077 0.225552
0.0540465 0.0722527 0.132025 0.0148249 0.23143 -0.972739
-0.122224 0.0412748 0.0476583 0.406821 0.0742899 -0.910482
-0.173454 0.171753 -0.0311992 0.573886 -0.818711 -0.0191868
-0.564261 0.147857 -0.332905 0.44955 0.0609615 -0.891173
0.385837 0.256254 0.199992 0.479651 -0.866443 0.138602
-0.472573 0.0298708 -0.335283 -0.266262 0.932823 -0.242788
-0.19627 -0.0235314 -0.0964109 0.358351 0.191334 -0.91377
-0.551581 0.173364 -0.107476 0.423478 0.103297 -0.899998
0.182754 0.393371 0.11527 -0.522458 0.84527 0.112053
-0.365562 0.253842 -0.0459908 0.50449 -0.862536 0.0390015
-0.051114 -0.383381 0.0331367 0.557435 -0.0397827 -0.829267
0.0378152 0.0795458 0.0305051 -0.349751 -0.155374 0.923868
0.347413 0.238053 0.182285 -0.45776 0.0197366 0.888857
-0.292738 0.287148 -0.143374 -0.497292 0.861502 -0.102542
0.104787 -0.379875 0.0654239 0.456106 -0.879253 0.137411
-0.183895 0.0255356 -0.272396 -0.369897 -0.166883 0.913962
-0.180062 -0.00815587 0.0355712 -0.247516 -0.210674 0.945702
0.373921 -0.219075 0.143232 0.513942 -0.854242 0.0783256
0.00818579 0.492097 0.161686 0.471273 -0.864306 0.175721
0.443214 -0.0729134 0.277106 0.347407 0.155642 -0.924707
-0.0960154 -0.0482945 0.0563122 -0.333621 -0.255157 0.907519
-0.416082 0.212484 -0.222782 -0.620098 0.783712 -0.0356984
-0.279553 -0.0430272 -0.335552 0.413917 0.090046 -0.90585
0.0203835 0.0462231 0.0299419 -0.52863 0.0206598 0.848601
0.469748 -0.223756 0.276103 0.49926 -0.860293 0.103124
0.155229 0.593417 0.193137 -0.520481 0.850392 -0.0770302
0.199483 0.559792 0.0691522 -0.456666 -0.0440147 0.888549
0.233737 0.385128 0.0162326 0.367321 0.154999 -0.917088
0.0172091 0.370201 0.157651 -0.424448 0.883658 -0.197468
0.389125 0.385461 0.00363091 0.223022 0.343808 -0.912172
-0.0753942 0.0442909 0.0860193 -0.607499 0.79128 0.069437
-0.225893 0.290174 0.0551921 0.482805 -0.866079 0.129642
-0.0388443 0.212891 0.134099 -0.484634 -0.110902 0.867658
-0.0519179 0.447436 0.0838915 0.397902 -0.898551 0.18515
-0.319231 0.113625 -0.00838446 -0.285828 -0.401214 0.870247
-0.0618225 0.441581 0.0375944 0.633759 -0.771836 -0.0511675
-0.562088 0.137863 -0.157674 0.577108 -0.816336 -0.0232753
-0.132748 0.182399 -0.0312693 0.59791 -0.78582 -0.158085
0.0551849 0.0752777 0.238662 0.524484 -0.846441 -0.091949
0.104426 0.339599 0.0248414 0.540681 -0.837191 -0.0823106
-0.0717102 -0.487219 -0.0434879 -0.451233 0.882103 -0.135213
0.102506 0.108128 0.266711 0.35442 -0.918187 0.176975
-0.0735247 -0.489421 -0.128755 -0.697453 0.712852 0.0734972
-0.0555965 0.423004 0.149318 -0.378834 -0.133813 0.915739
-0.0959991 0.12621 -0.160501 0.390998 -0.908709 0.146179
0.267524 -0.234847 0.201408 -0.273846 -0.266558 0.924097
0.245088 0.422095 0.0745632 -0.460702 0.872451 -0.163042
-0.392284 0.207164 -0.0203263 -0.364971 -0.228625 0.902511
0.160945 0.217613 0.207924 0.197737 0.162097 -0.96676
0.0524103 0.385051 0.188838 0.458918 0.0597725 -0.886466
-0.284288 0.103601 -0.0672518 -0.351011 0.909412 -0.223071
-0.13011 -0.550032 -0.197927 0.500724 -0.863261 0.0636949
0.05372 0.512685 0.0973925 0.561883 -0.82719 -0.00665621
-0.165755 0.0749294 -0.215636 0.578856 -0.814568 0.0374784
0.18371 -0.24689 0.166695 -0.472359 -0.0322935 0.880814
0.154992 0.602593 0.210435 -0.69399 0.717939 0.0542374
-0.123372 0.422725 -0.0861221 -0.305413 -0.242656 0.920783
0.519006 -0.189316 0.000195255 -0.344003 -0.178991 0.921751
0.11431 -0.37856 0.114186 -0.571681 0.14098 0.808273
-0.407422 -0.076245 -0.337094 0.434141 0.00122828 -0.900844
-0.25173 0.317532 -0.123 -0.499693 0.859726 -0.105722
0.229763 0.467709 0.030856 -0.406124 -0.105788 0.907674
0.426508 0.327769 0.0123526 0.317123 0.35019 -0.881363
0.0379962 0.492333 -0.0185801 0.332919 0.250408 -0.909099
-0.0310223 0.0492903 -0.030372 -0.472409 0.867027 -0.158409
-0.114513 0.383522 -0.0992283 0.312125 0.324357 -0.892956
0.2457 0.430922 0.224768 0.468993 -0.868996 0.157771
0.440958 -0.139641 -0.0355428 -0.325509 -0.215672 0.920614
-0.204262 0.134986 -0.158103 -0.477712 0.822079 -0.309802
-0.382283 -0.179218 -0.265723 -0.633295 0.773108 -0.0352255
0.64974 -0.0434628 0.0651797 0.556649 0.0695607 -0.827831
0.052041 0.107951 0.104651 0.51238 -0.854343 0.086972
-0.02788 -0.015287 0.0896555 0.42942 0.0622928 -0.900954
-0.0619055 0.0237573 -0.121144 0.417485 -0.889659 0.184969
0.0477709 0.440975 -0.0228507 0.513889 -0.855422 0.0645894
0.0141192 0.0498916 0.128472 -0.409336 -0.115769 0.905009
0.275266 -0.276447 0.0701784 -0.513014 0.856595 -0.0553211
0.119368 0.5583 0.0244499 0.595106 -0.0197373 -0.803404
-0.52298 -0.046603 -0.152446 -0.452084 0.876797 -0.163852
0.334071 -0.276179 0.211808 0.35963 0.150326 -0.920906
-0.248953 -0.10204 -0.3249 -0.567053 0.0170628 0.823505
0.199786 0.17609 0.319797 0.280097 0.230406 -0.931911
-0.433458 -0.136921 0.00160508 0.551155 -0.125451 -0.824919
0.0586306 0.307141 -0.00586306 -0.521168 0.85183 -0.0526341
-0.363927 0.12703 -0.0211784 -0.457024 0.875202 -0.158588
-0.0325677 0.0520151 -0.0804172 0.492635 -0.862098 0.118731
0.321721 -0.243229 0.114468 0.492685 -0.863501 0.107833
-0.0425595 0.00613082 0.196161 0.480442 -0.868127 0.124623
0.0408473 0.15887 0.029301 -0.581419 0.807826 0.0967907
-0.411041 0.0172889 -0.0544488 -0.375238 -0.157242 0.913494
-0.162622 0.317881 -0.133362 0.0523906 0.520394 -0.852317
0.0128018 0.457196 0.173042 0.466246 0.0378902 -0.883844
-0.0415745 -0.47224 -0.00942398 -0.589402 0.799564 0.115341
-0.194701 -0.0783397 -0.26713 0.503418 -0.859011 0.0931161
0.34543 0.217623 0.295233 -0.417727 -0.0803253 0.905015
-0.0500383 0.0483911 -0.223905 0.282211 0.334438 -0.899171
0.0947631 0.0705394 0.162293 -0.389314 -0.128744 0.912063
-0.321943 -0.0326715 -0.041305 -0.446057 0.858806 -0.251963
0.126641 0.0942166 0.0598782 0.613654 -0.788442 0.0422891
0.0763713 0.133471 0.137845 -0.551843 0.833025 0.0392304
-0.591997 0.167778 -0.116908 -0.518294 0.0227521 0.8549
-0.452145 -0.116521 -0.108017 -0.530513 0.847454 -0.0194361
0.144533 -0.425809 0.127184 -0.28584 -0.198463 0.937501
-0.407534 0.212116 -0.213025 0.508753 -0.859455 0.0500803
0.250361 0.434867 0.13859 -0.562055 0.817278 0.127087
-0.167688 -0.629932 -0.0486528 -0.406172 -0.115131 0.906515
-0.178642 0.357766 -0.0579665 0.413026 -0.894143 0.172968
0.296324 0.405783 0.0462353 0.23673 0.355139 -0.904343
0.148535 0.199669 0.297622 -0.118276 0.718977 -0.684896
0.455681 -0.136558 0.294805 -0.401905 -0.00577606 0.915663
0.0844796 0.464331 0.00635182 0.379353 -0.905062 0.192235
-0.2288 -0.0645068 0.070478 0.676584 -0.695372 -0.242263
-0.210234 0.138916 -0.0931123 0.468821 -0.871438 0.14423
-0.104417 -0.0142091 -0.186257 0.49159 -0.863283 0.114376
0.17369 0.376384 0.107868 0.419159 -0.890988 0.174489
-0.0876991 -0.535179 -0.286017 0.455695 -0.868301 0.195948
-0.472188 -0.251217 -0.0319592 -0.871646 -0.105638 -0.478616
0.20456 0.391784 0.0623382 0.603995 -0.796823 0.0162071
0.271023 0.143959 -0.0689965 0.482219 -0.00203939 -0.876049
-0.0363307 0.236372 -0.0717735 0.639369 -0.76213 -0.101813
-0.0697049 0.228662 0.115475 -0.43899 0.0425877 0.897482
-0.300038 0.0736542 -0.183789 0.466285 -0.872274 0.147365
-0.282028 0.0829336 -0.23384 -0.600732 0.765617 0.230115
-0.110099 -0.424816 0.000215677 -0.560979 0.824059 0.0789182
0.145199 0.271059 0.213008 -0.525154 0.848558 -0.0645154
0.0606483 0.301241 0.0420651 0.715344 -0.69622 0.059674
-0.302248 -0.0738261 -0.039037 0.39997 0.0719348 -0.913701
-0.210495 0.354951 0.0169221 0.534478 -0.837653 -0.112563
0.34543 0.290653 -0.0226853 0.494586 -0.129883 -0.859369
-0.107514 -0.490651 -0.0140713 0.254943 0.353728 -0.899934
-0.349271 -0.18349 0.0349182 -0.370315 -0.189072 0.90946
-0.227692 0.117167 -0.128665 0.439805 -0.886201 0.145665
-0.269359 0.100224 0.00712249 0.170021 0.208906 -0.963043
-0.334394 -0.0824087 -0.366099 0.386527 0.137455 -0.911978
-0.285528 0.0218666 -0.255028 -0.493919 0.00512286 0.869493
-0.465598 0.253577 -0.0449143 -0.469311 -0.0548885 0.881325
0.499085 -0.09331 0.317393 0.405467 0.0628784 -0.911944
0.264384 0.442491 0.170565 0.497789 -0.860043 0.111948
0.193814 0.239168 0.23389 -0.392743 -0.177556 0.902345
0.540892 -0.129806 0.045121 0.487109 -0.847108 0.212447
-0.0280964 0.00146207 -0.0287656 0.455207 -0.106744 -0.883964
-0.12667 0.145941 -0.179621 0.378026 0.165635 -0.910857
-0.0402877 -0.420314 0.0390356 -0.515649 0.0836872 0.852703
0.266842 0.483157 0.0281639 0.400013 0.117971 -0.908885
0.0834071 0.245907 -0.0786632 0.317087 0.318676 -0.893253
0.583669 -0.0154238 0.0500115 -0.523025 0.00635593 0.852294
-0.203004 -0.106951 0.0110407 -0.345379 -0.21576 0.913324
0.185429 0.522141 0.0461732 0.288999 0.318192 -0.902903
0.155266 0.364089 0.0745247 0.474679 -0.871435 0.123618
0.262257 0.254327 0.294874 0.229144 -0.866443 0.443586
0.318239 -0.259594 -0.0570685 -0.326786 0.912506 -0.246057
-0.249985 0.132044 -0.240247 0.447636 0.0325806 -0.893622
-0.471931 -0.0165782 -0.183884 -0.558532 0.824207 0.0934058
-0.394127 0.0922238 -0.305186 -0.485601 0.85614 -0.176683
0.439512 -0.170364 0.145491 -0.255933 0.904224 -0.341872
-0.00416721 0.274583 -0.106642 -0.516502 0.198512 0.832958
0.448895 0.263056 0.0184184 0.37192 0.14205 -0.917331
-0.364681 0.0233413 -0.281812 0.422403 -0.865402 0.269546
-0.0967543 -0.525305 -0.153039 0.496616 -0.862023 0.101438
-0.00762825 0.0546975 -0.112968 0.22188 -0.904772 0.363535
-0.126043 -0.00773194 0.0420216 0.429036 -0.864791 0.260892
0.347099 -0.246887 0.0314757 0.568862 -0.813502 -0.120877
-0.270497 0.045773 -0.00378559 0.571873 -0.820339 0.00221838
-0.134159 -0.560333 -0.276975 0.426617 -0.864637 0.265332
0.417825 -0.285583 -0.0542369 -0.311432 -0.186977 0.931692
0.48164 -0.141985 0.231988 0.607763 -0.793907 -0.0183232
-0.429178 -0.180235 -0.0331052 -0.503075 0.859177 -0.0934362
0.258278 0.255104 -0.0476931 -0.40243 -0.0910978 0.910907
0.301471 0.171142 -0.058461 0.287994 0.232391 -0.929007
0.347378 0.361941 -0.0133052 0.315941 0.248534 -0.915649
0.233995 -0.365675 0.154172 0.335326 0.254347 -0.907119
-0.109096 -0.0888459 -0.257902 -0.418607 -0.0936599 0.903325
-0.260947 0.325117 -0.0446594 -0.483876 0.867676 -0.114032
0.335194 0.424764 0.0682889 -0.431327 -0.039884 0.901314
0.296024 0.47788 0.0562366 0.019378 -0.214105 0.976618
0.122489 0.298555 0.198543 0.587027 -0.80857 -0.0401718
-0.058705 0.504925 0.148661 0.413699 0.0896491 -0.905989
-0.157732 0.385562 0.00877295 0.526527 -0.850019 0.015399
0.20357 0.221989 0.188275 -0.334259 0.930607 -0.149139
0.0811217 0.29025 -0.0566763 -0.393563 -0.127222 0.910452
-0.131092 0.249048 -0.17269 -0.42297 0.888082 -0.180019
0.214945 -0.279932 0.163142 0.640231 -0.249442 -0.726555
-0.317562 0.261817 -0.20023 0.467878 0.0617042 -0.881637
-0.351497 0.0331889 -0.0369007 -0.275826 -0.173813 0.945362
0.135782 -0.322952 0.126129 -0.505098 0.220152 0.834511
0.295065 0.263008 0.198833 -0.454293 0.858205 -0.238962
0.269419 -0.254723 -0.130894 0.511536 0.0299429 -0.85874
-0.238634 0.335565 -0.159683 0.32808 0.240894 -0.913418
-0.173507 0.169518 -0.0321591 -0.548539 0.833688 -0.0637841
-0.0883853 0.433993 0.0796927 0.563514 -0.772853 -0.291806
-0.0170042 -0.476963 -0.239228 -0.594469 0.80339 -0.0342185
-0.314907 -0.0979296 -0.155385 0.264945 0.221374 -0.938508
-0.0012388 0.517338 -0.0261989 -0.498482 0.0230522 0.866594
-0.101385 0.00259701 -0.119102 -0.619724 0.784336 0.0275637
0.65855 -0.143191 0.0562352 0.487454 -0.85609 0.17175
-0.531108 0.188702 -0.307741 0.546866 0.0329785 -0.83657
-0.0795958 0.229682 0.0448632 0.658873 -0.742317 -0.121871
0.11848 0.143915 -0.137012 0.429418 0.0773086 -0.899791
0.248205 0.152438 0.238652 0.472443 -0.872828 0.122344
-0.4674 -0.210053 -0.0971703 -0.618645 0.783065 0.0639324
-0.0890201 0.227851 0.00759277 -0.706754 0.704854 0.0606616
0.357299 -0.241271 -0.0086362 -0.343982 0.920451 -0.185596
0.194668 0.401595 0.177371 -0.329801 0.914456 -0.234524
-0.476146 0.219736 -0.0644296 -0.400579 -0.0757438 0.913126
0.163471 -0.347806 0.105219 0.430456 -0.874409 0.223867
0.464579 -0.176497 0.284386 0.354437 0.203716 -0.912619
-0.403152 0.0229101 -0.319573 0.474677 -0.018753 -0.87996
0.0181541 0.138608 0.0170837 0.282724 0.241601 -0.928276
-0.0815697 0.0152718 -0.0832652 -0.528291 0.845608 -0.0765253
0.10005 -0.479804 -0.231659 0.505302 -0.0472236 -0.861649
-0.00571291 0.220982 -0.116673 -0.390941 -0.129293 0.91129
0.309081 -0.275369 -0.116841 0.404096 -0.0355376 -0.914026
-0.211399 -0.0860575 -0.244048 0.467125 -0.874326 0.131715
-0.262253 -0.114184 -0.289266 -0.56891 0.819215 -0.0722988
-0.149016 -0.0187624 0.00199074 0.309643 -0.899466 0.308355
-0.00531096 0.272894 0.0141395 -0.413213 0.896111 -0.161987
-0.394388 0.246495 -0.229015 -0.233793 -0.389423 0.890893
-0.110035 -0.0196533 -0.18233 0.430047 -0.797274 0.423573
0.0383846 0.2814 -0.0411195 0.497182 -0.861258 0.105093
0.269625 0.43947 0.0958148 -0.439304 0.812861 -0.38245
0.342836 -0.218009 0.195486 -0.386679 0.899516 -0.203348
-0.434005 0.280899 -0.0354027 -0.492924 0.0129698 0.869976
0.0590214 0.319871 -0.0635862 -0.365451 -0.193172 0.910566
0.176351 0.152014 0.217502 -0.266747 -0.178776 0.94704
-0.551108 0.175086 -0.111281 0.267977 0.251064 -0.930137
-0.0836174 -0.551529 -0.0123116 0.372268 0.210996 -0.903824
-0.0968756 0.0887807 0.0768813 0.389105 0.138308 -0.910751
0.132514 -0.432728 -0.21421 0.645112 -0.139809 -0.751189
0.0247652 0.0231679 -0.202059 0.301933 0.206502 -0.930695
-0.0178459 -0.47714 -0.1942 -0.396193 0.898363 -0.189671
-0.432697 -0.237027 -0.112038 -0.44136 -0.0561254 0.895573
0.388941 0.221163 -0.0169051 0.376384 0.285218 -0.881468
0.234478 0.226834 -0.0677352 -0.220676 -0.339947 0.914187
0.276151 0.369213 0.0262109 0.646013 -0.76177 -0.0487298
0.34804 -0.335238 -0.107612 0.422042 -0.856765 0.296371
0.30864 0.340111 -0.0319495 0.173662 0.23289 -0.956872
0.20195 0.363288 0.249879 0.53064 -0.0233975 -0.847274
0.336885 -0.216795 -0.0960839 0.365552 0.31734 -0.875024
-0.175356 0.0241554 -0.280336 -0.351278 -0.203635 0.913858
0.134506 -0.391946 -0.155737 -0.646441 0.762234 0.0333667
0.254513 0.290885 0.148795 -0.403068 -0.12012 0.907253
0.0952206 -0.356449 -0.202025 -0.318334 -0.321361 0.891847
0.0890418 0.270013 0.178055 0.582672 -0.0420609 -0.811618
-0.0495065 0.270897 0.126088 -0.150925 -0.289192 0.945299
0.21881 0.163473 -0.0870676 -0.627227 0.013398 0.778721
0.574124 -0.0926839 0.240409 0.482813 -0.857625 0.177119
0.260465 -0.184487 0.203467 -0.361424 0.883326 -0.298509
0.20998 -0.319205 0.047971 -0.870883 0.424615 0.247516
0.190573 0.453471 -0.00128549 0.385908 0.158398 -0.908837
0.0545769 -0.36039 -0.239699 0.1058 0.223558 -0.968932
0.0258811 0.0721921 -0.12028 0.726635 -0.66693 -0.164941
0.17095 -0.274991 0.135091 0.259361 0.16541 -0.95151
-0.462034 -0.207433 -0.0949779 -0.226527 0.94469 -0.237161
-0.393602 0.00620677 -0.290367 0.435701 -0.87383 0.215836
0.164155 0.165518 -0.00257551 -0.481498 0.861658 -0.160332
0.0396532 0.521424 0.205508 -0.47182 -0.0228919 0.881398
0.208768 0.406648 0.131819 -0.328873 0.906276 -0.26553
-0.0526894 0.0781325 0.099931 0.478803 0.0286214 -0.877456
0.045773 -0.429207 -0.0307673 0.598275 -0.799903 -0.0471405
0.0613258 0.106023 0.0584531 0.493665 -0.862465 0.111576
0.272465 0.189639 0.254677 -0.4292 -0.109451 0.896553
0.141629 0.56874 0.11136 0.559343 -0.82891 0.00669314
-0.0339794 0.232973 0.113645 0.404934 0.0986878 -0.909005
-0.0151315 0.461456 -0.0299043 0.306724 -0.850878 0.42653
0.168109 -0.338493 0.0299226 -0.604022 0.788347 0.116902
-0.466611 0.0162815 -0.353227 0.190806 0.160249 -0.968459
-0.354948 0.129319 -0.0252824 -0.557699 0.83002 -0.00621255
0.0284384 0.317956 -0.0865056 0.13314 0.34441 -0.92933
-0.572083 0.125772 -0.1917 -0.582997 0.812007 -0.0275519
-0.345773 0.049683 -0.277585 -0.521293 0.114389 0.845677
-0.167676 -0.0569334 -0.180257 0.39811 -0.877734 0.266629
-0.0431708 -0.00585979 -0.23118 0.442578 0.0648867 -0.894379
-0.376496 -0.0876755 0.0280559 -0.642889 0.751617 0.147531
0.175555 0.310561 -0.0175053 -0.262076 -0.232747 0.93656
-0.559331 -0.0275143 -0.148436 0.368658 0.142496 -0.918578
-0.0209643 0.511803 -0.036628 0.450532 0.0190513 -0.892557
-0.47428 -0.241273 -0.038117 0.440698 0.10592 -0.891385
0.23337 0.128587 -0.0963733 0.574108 -0.123965 -0.809341
-0.288401 0.174263 0.00635686 -0.427893 0.864494 -0.263738
-0.0886584 0.0928892 0.195413 -0.423914 -0.10533 0.899557
-0.392188 0.305037 -0.0192614 -0.889599 0.45621 0.0220662
0.17712 0.165727 -0.0933388 -0.619962 0.767824 0.161535
-0.535351 0.0729092 -0.317632 -0.713415 -0.655095 -0.248778
0.451924 -0.234897 -0.0479035 0.448713 -0.0370109 -0.892909
0.11914 0.137501 0.179704 -0.444886 -0.0676153 0.893031
-0.404862 -0.186843 -0.137461 0.448689 -0.870167 0.203686
0.114168 0.205297 0.0750211 -0.51189 0.85903 -0.00602673
0.519559 -0.0658052 0.0193752 -0.374597 -0.156629 0.913863
-0.332093 -0.0997774 -0.0478472 0.438342 0.0967157 -0.89359
-0.286526 -0.124417 -0.205323 0.487061 -0.86625 0.111278
0.238308 0.385015 7.17505e-05 0.412095 0.0621841 -0.909016
-0.00852276 0.274248 0.0568436 -0.655228 0.75541 0.00559361
-0.4596 0.180877 -0.0593963 -0.386002 -0.143285 0.911302
0.50137 -0.0456059 0.325216 0.663524 0.699337 0.265824
0.415123 -0.162218 0.27445 -0.441506 0.0344351 0.896598
-0.401805 0.0128771 -0.173719 0.609947 -0.79197 -0.0273618
-0.0844943 0.0269889 0.0493292 0.516589 -0.852805 0.0765503
0.138633 0.0940278 -0.145092 0.260047 0.230929 -0.937575
0.139238 0.168 0.0449378 -0.52325 0.850782 -0.0487807
-0.513015 0.0923381 -0.312486 0.396565 0.120537 -0.910059
-0.445781 0.0708415 -0.0774888 0.502967 -0.089239 -0.859686
-0.219077 -0.499989 -0.0613395 0.524387 -0.0798657 -0.847726
-0.246543 -0.0913767 -0.221385 -0.717655 0.694281 0.0542625
-0.00550872 -0.00483386 0.102712 0.171907 0.215115 -0.96134
-0.053154 0.0514896 0.123487 0.443546 -0.857781 0.259767
-0.00195059 -0.366599 0.0519311 0.30888 0.221298 -0.924998
0.190302 0.253314 0.327395 0.467311 -0.0446143 -0.882966
0.103664 0.179989 0.275028 0.539801 -0.131068 -0.831526
-0.0451028 -0.50287 -0.260109 -0.524066 0.84973 -0.0575648
-0.441316 0.239646 -0.0546782 0.418147 0.107009 -0.902054
-0.00201773 -0.471536 0.0590344 -0.196016 -0.355993 0.9137
-0.33708 0.258604 -0.129358 0.482949 -0.863539 0.145121
0.310069 0.266416 0.144575 0.55143 -0.83359 0.032454
-0.37386 0.232318 -0.206651 0.479364 -0.869658 0.117918
-0.104354 0.384087 0.120606 -0.084737 -0.244893 0.96584
-0.374232 0.0494809 -0.0998441 -0.642625 0.761812 0.0817013
-0.213915 -0.561323 -0.0491432 -0.396329 -0.121479 0.910037
0.0208929 0.32565 0.16731 -0.0494162 -0.153024 0.986986
0.166139 0.187376 0.182252 0.442774 -0.85715 0.263145
-0.311655 -0.0609801 -0.347409 -0.343932 0.86754 -0.359283
0.0470539 0.185248 0.151068 0.382143 0.134394 -0.914278
-0.289783 -0.103985 -0.0178691 0.444939 -0.879739 0.167598
0.301116 0.19503 0.271394 0.410748 -0.876413 0.25137
-0.107805 -0.000517866 -0.066386 0.423891 -0.890937 0.162935
-0.214216 -0.17806 -0.34285 0.200819 0.413265 -0.888191
-0.494861 0.15936 -0.204064 0.390237 -0.905223 0.168183
0.0451942 0.187879 0.157756 0.279764 0.186965 -0.941688
-0.0249314 -0.473846 -0.126153 -0.727078 0.68632 0.0179669
0.316483 0.237461 0.27784 0.428638 -0.0688122 -0.900852
0.154383 -0.384681 0.13295 -0.321159 -0.172018 0.931272
0.0336645 -0.338465 0.0849374 -0.235547 -0.224151 0.945661
-0.227831 0.126854 -0.052376 0.551419 -0.833616 0.0319714
0.267688 0.234463 0.0163773 -0.233887 0.877816 -0.418015
-0.217899 -0.134073 -0.32714 0.273102 0.220629 -0.936343
0.414387 -0.165031 0.276525 -0.442982 -0.0989995 0.891048
0.134643 0.620577 0.0548255 -0.508379 -0.0419922 0.860109
0.633705 -0.156409 0.0528073 0.455172 -0.856985 0.241653
-0.0992525 0.0039455 -0.123355 0.543962 -0.827231 -0.140692
0.311998 0.195382 0.273413 -0.659171 -0.0563213 0.749881
0.55935 -0.0346192 0.0212359 -0.508956 0.849514 0.138891
0.334575 0.187899 -0.0472637 0.581606 -0.0995861 -0.807352
0.3888 -0.266475 -0.0821782 0.336034 0.203184 -0.919673
-0.28584 0.03302 -0.253135 -0.506715 -0.0421121 0.861084
0.245423 0.198028 -0.0616785 0.311724 -0.842609 0.439133
0.129342 0.140847 -0.0809672 -0.303767 0.905974 -0.294852
0.139588 0.323435 -0.0403074 0.417438 0.0669193 -0.906238
-0.0855724 -0.509356 -0.0942118 0.588646 -0.808296 0.0124061
-0.14817 -0.486169 -0.341419 -0.635484 0.770813 -0.0448034
-0.264863 0.373355 -0.174748 -0.673483 0.687165 0.272443
0.0362717 0.293303 0.158094 0.657199 -0.447876 -0.606215
-0.143941 0.381704 -0.0842428 -0.627926 0.771024 0.105976
0.193095 0.140728 0.104109 0.39383 0.126876 -0.910385
-0.229979 0.130633 -0.0581725 -0.502185 0.859317 -0.0968703
-0.496838 0.159275 -0.253568 -0.499813 0.860325 -0.100142
-0.282898 0.301483 0.00421689 0.364627 -0.880314 0.303471
0.114598 -0.42861 0.108696 -0.528717 0.217621 0.820427
0.257067 0.302072 -0.0516363 -0.475632 0.862325 -0.173694
-0.379771 -0.110077 -0.380591 -0.858579 -0.182518 -0.479093
-0.398438 -0.169584 -0.0707737 0.635217 -0.769436 0.0668379
0.14105 0.0870617 -0.13848 0.264085 0.186242 -0.946347
-0.285448 -0.00911111 -0.0167726 -0.507574 0.858778 -0.0697776
0.0788919 0.148506 0.26688 -0.388087 -0.138747 0.911119
-0.101375 -0.516917 -0.192181 -0.46149 0.843737 -0.274108
0.0683109 -0.398455 0.0382814 0.448276 -0.881115 0.150614
-0.0499461 -0.47119 0.0322012 -0.285337 -0.247437 0.925936
0.325252 0.266857 0.17263 0.320856 0.143275 -0.936229
-0.014155 0.352096 0.158436 -0.538456 0.840755 -0.056531
-0.304113 -0.0525473 -0.135853 -0.45045 -0.0453082 0.891652
-0.0129135 0.278801 0.0565742 -0.503388 0.861009 -0.072546
0.317822 0.278353 0.141077 -0.550125 0.832135 0.0700967
0.380201 -0.168255 0.264694 -0.128068 -0.259428 0.957234
-0.269103 -0.145829 -0.151214 0.574804 -0.160021 -0.802492
0.0225751 -0.548295 -0.274287 0.382346 0.148977 -0.911931
0.156978 0.270109 0.214418 0.605251 0.00279437 -0.79603
-0.072421 0.0268203 0.0102428 0.606972 -0.794582 0.0150016
0.320541 -0.254141 0.0800985 0.515299 -0.813441 -0.269778
0.531373 -0.108224 0.0182184 -0.422662 -0.066307 0.903859
0.476076 -0.0502547 0.320366 -0.449211 -0.0530369 0.89185
0.165381 0.0655984 -0.120836 0.495118 -0.860329 0.12121
0.0141079 -0.465427 -0.207031 -0.628444 0.771922 0.0958882
-0.355252 -0.134331 -0.0644568 -0.643818 0.764216 0.0383699
-0.560442 -0.0290135 -0.13607 -0.491478 -0.1118 0.863684
-0.0477218 -0.492697 -0.0928879 0.305152 -0.915607 0.261812
-0.264156 0.0576704 -0.249657 0.433288 0.0131279 -0.90116
0.0792982 0.0388724 0.152833 0.543114 -0.839569 0.0123125
0.0678779 0.198528 0.265812 -0.40331 -0.108067 0.90866
-0.0672841 0.0607548 0.202498 -0.321191 -0.151245 0.934859
0.615543 -0.0726666 0.0441112 0.396546 0.124175 -0.909578
-0.241924 0.13818 0.0326756 -0.429622 -0.0632778 0.900789
-0.376082 -0.240847 -0.0876923 0.258768 0.288727 -0.921778
-0.120182 -0.498238 -0.0115296 0.12589 0.490775 -0.862144
0.0851624 0.526166 0.025499 -0.691045 0.695785 0.195807
0.201106 -0.431908 -0.185398 0.604678 -0.796469 0.000740045
0.0979091 0.500443 0.0200058 -0.435064 0.177428 0.882745
-0.173216 0.435718 0.0879764 0.318259 0.330742 -0.888438
-0.4217 -0.160832 -0.101473 0.457271 0.0072038 -0.889298
-0.438275 -0.00876553 -0.24758 0.436391 -0.855136 0.279829
0.0224313 0.238595 0.146858 0.350162 0.167826 -0.921532
0.61143 -0.0666028 0.037105 0.453126 0.117805 -0.883628
0.20817 -0.312312 0.0866568 0.410719 -0.853677 0.320227
-0.341292 -0.0890936 0.0448003 0.387688 0.13725 -0.911515
-0.363706 0.207574 -0.22948 0.439478 -0.122368 -0.889879
-0.13602 -0.0684301 -0.0659869 0.930568 -0.364276 -0.0366936
0.129071 0.124201 0.18479 -0.349079 -0.172989 0.920988
0.110195 0.128988 0.0623168 -0.399986 -0.283013 0.871731
-0.0500185 -0.0344769 0.071713 0.527743 -0.846586 0.0691305
0.0100047 0.525391 0.184556 0.351607 0.258017 -0.899889
0.0330709 -0.454809 0.05766 0.415161 0.0229604 -0.909458
0.375478 0.294095 0.0680646 0.403539 -0.889507 0.21432
-0.328086 0.0473812 -0.234471 0.443459 -0.884769 0.143277
-0.464177 -0.117942 -0.0958172 -0.407728 -0.0639759 0.91086
-0.24831 -0.149421 -0.00847026 -0.508285 0.02237 0.860898
-0.278394 0.229757 -0.189475 -0.391235 -0.132055 0.910767
-0.587825 0.176576 -0.119973 -0.458889 0.0285133 0.888036
-0.294591 -0.0200113 -0.0157747 -0.399405 -0.110041 0.910146
0.140059 0.515031 0.0251919 0.407922 0.11212 -0.906107
-0.0155988 -0.479586 -0.161364 0.392153 -0.894956 0.212769
-0.453581 -0.0352552 -0.315924 0.389371 -0.901442 0.189191
-0.540084 0.134354 -0.253301 -0.733524 0.676071 -0.0697857
-0.134045 0.178896 0.0794507 -0.588672 0.334274 0.73602
-0.258678 -0.147995 -0.3268 -0.488426 -0.0137028 0.872498
-0.301929 -0.116345 -0.122956 -0.504861 0.857807 -0.0963414
-0.248106 0.171443 -0.227613 0.512395 -0.00736029 -0.858718
0.00219928 0.149556 0.229829 -0.371993 -0.22211 0.901271
-0.353403 0.0470321 -0.16462 -0.601937 0.798543 -0.00133906
0.657925 -0.0938435 0.0774749 -0.410545 -0.112653 0.904855
0.107812 0.194303 -0.146337 0.423534 -0.0141945 -0.905769
-0.362168 0.257763 -0.0498412 -0.151628 0.963593 -0.22022
0.00789385 0.491057 0.0357401 -0.402898 0.898241 -0.1756
0.0894137 -0.442642 0.0797947 0.393407 0.125538 -0.910753
-0.181495 0.127057 -0.197904 -0.361543 -0.228059 0.904033
-0.529561 0.134517 -0.252304 0.479513 -0.869093 0.121427
-0.0951105 -0.050724 -0.256191 -0.370638 -0.199334 0.907135
-0.0653294 -0.502278 -0.137963 0.597302 -0.799698 0.0609368
0.297405 -0.175331 0.230099 -0.206962 -0.409161 0.888681
-0.163107 0.248507 0.0734135 -0.278724 -0.30722 0.909906
0.191387 0.196459 0.067995 -0.466047 0.858125 -0.215456
-0.312726 0.0774978 -0.0443333 0.405679 -0.874445 0.266026
-0.364026 -0.102141 -0.381937 -0.374607 -0.192178 0.907049
0.169583 0.382662 0.229077 0.646986 -0.252206 -0.719584
0.181341 0.239215 0.0986315 0.449864 0.0591764 -0.891135
-0.290571 -0.13448 0.0678285 -0.368018 -0.169573 0.914225
-0.465262 0.191182 -0.135469 0.336476 -0.924837 0.17737
0.104998 0.607288 0.239662 0.456904 -0.049818 -0.88812
-0.131732 -0.0860615 0.0371906 0.322575 0.145151 -0.935348
0.0693721 0.0508332 -0.174807 0.20087 0.306378 -0.930475
0.102433 -0.401093 -0.0385414 0.393386 -0.876084 0.278789
0.298269 0.317361 0.276454 0.244948 0.150494 -0.957785
0.424067 -0.253164 -0.0728878 0.412276 0.101273 -0.905413
-0.167037 0.218929 0.0665245 0.490334 0.0338341 -0.870878
0.134379 0.569138 0.159156 0.456511 -0.883012 0.109029
-0.268994 -0.0765112 -0.124522 -0.371005 -0.160895 0.914586
-0.473146 0.119439 -0.283037 -0.510735 -0.0173914 0.859562
0.297782 -0.242686 -0.107703 -0.403162 -0.111107 0.908359
0.168322 0.199991 -0.115908 0.429288 0.0598934 -0.90118
-0.136398 0.03347 -0.0632845 0.255072 0.287788 -0.923102
0.328746 -0.23029 0.198788 -0.468153 0.857913 -0.211701
0.585739 -0.100474 0.169759 0.504722 -0.858945 0.0864248
0.444227 -0.103875 -0.0200667 -0.395236 -0.124804 0.910062
0.176958 0.174206 -0.0348573 -0.493406 0.861102 -0.122698
0.0744132 0.531765 0.0763298 -0.224535 0.967553 -0.115867
-0.244083 -0.0324172 -0.310379 -0.384494 -0.130325 0.913882
-0.399557 -0.0293575 -0.0649058 -0.411511 -0.11585 0.904012
-0.137694 -0.00712185 -0.0522887 -0.601166 -0.0228453 0.798798
0.166918 -0.359447 -0.0881789 -0.422057 0.875489 -0.235345
0.516917 -0.145531 -0.0135238 0.326352 0.33613 -0.883466
0.282664 0.253496 0.23595 0.566315 -0.823218 -0.0400095
0.0173355 0.0619482 0.216757 0.405117 0.0961427 -0.909196
-0.447561 -0.210208 -0.00991231 -0.2754 -0.164078 0.947224
0.217078 0.415237 0.00632279 0.441889 0.0808965 -0.893415
-0.26639 0.309916 -0.10015 0.410428 -0.852512 0.323684
-0.494207 -0.0574571 -0.109518 -0.621954 0.0943999 0.777342
0.413016 -0.17097 -0.0566185 -0.432995 -0.0701949 0.898659
0.101322 0.207976 -0.138859 -0.615627 0.766075 0.184749
-0.149591 0.169051 -0.118695 0.658851 -0.749973 -0.0587833
0.168488 0.325644 0.241927 -0.175701 -0.314316 0.932917
0.278618 0.247145 0.121457 0.511805 -0.839242 -0.183653
0.482119 -0.2121 -0.0329684 0.287618 0.244578 -0.92599
0.415858 -0.123768 -0.0411728 -0.562988 0.812985 0.14866
-0.408355 -0.163773 -0.00873052 -0.461316 0.867333 -0.186871
-0.190316 0.0353514 0.124371 0.48038 0.0354823 -0.876342
0.0825806 0.122254 0.0964763 0.578767 -0.811375 -0.0818448
-0.0161992 -0.46713 -0.0366542 0.466908 -0.876728 0.115519
-0.118657 0.451876 -0.0895469 0.531766 0.0756546 -0.843506
-0.0737697 -0.46489 -0.303397 0.56876 0.0836513 -0.818239
-0.196533 0.162994 -0.211715 0.413737 0.0946428 -0.905464
-0.539816 0.213353 -0.0928317 -0.48122 0.853977 -0.197866
0.453167 -0.15485 0.215191 -0.462902 0.868394 -0.177804
0.09522 0.120556 -0.0139516 -0.462567 0.851914 -0.245507
-0.132733 0.00813396 0.0783335 0.527101 -0.849133 0.033735
-0.363243 -0.209742 -0.190525 0.16917 0.363001 -0.916304
0.182918 -0.36899 -0.171783 0.30426 -0.801549 0.514728
-0.0966608 -0.546022 -0.283486 -0.397573 0.819282 -0.413174
0.364569 -0.244814 0.232517 0.401462 0.119892 -0.907994
0.00721521 0.494362 0.116476 -0.400459 0.885692 -0.234909
-0.418109 0.0866642 -0.0490996 -0.321451 -0.285189 0.90296
-0.225956 0.126945 0.000896164 0.614207 -0.788393 -0.0344384
0.115669 -0.385175 0.0258851 0.475009 -0.87026 0.130439
-0.325342 0.309384 -0.19092 0.384286 0.13821 -0.91281
-0.344491 -0.148223 -0.218919 -0.460388 0.820945 -0.337774
-0.436559 0.248696 -0.259413 0.400259 0.11864 -0.90869
-0.2062 0.127653 -0.153577 0.361376 -0.921102 0.144839
0.341162 -0.226723 0.235395 -0.403616 -0.116111 0.907531
0.0215989 0.103506 0.118045 0.420357 -0.89455 0.151924
-0.414192 0.157486 -0.253821 -0.700493 0.207611 0.682794
-0.143866 0.179242 -0.0654818 -0.524008 0.848156 -0.0777672
0.0316232 0.509975 0.202871 -0.429066 -0.119413 0.895345
0.0816458 -0.395752 0.0414027 -0.404167 0.902754 -0.147255
0.162247 -0.450519 -0.184325 -0.420475 -0.0227984 0.907017
-0.368533 -0.0987078 -0.0568189 -0.44368 0.0370687 0.895418
0.107968 -0.380497 -0.083677 -0.40843 0.887184 -0.214683
-0.279504 -0.114424 -0.16925 0.466407 -0.873377 0.140276
-0.102725 0.471357 0.137144 -0.383742 -0.164765 0.908622
-0.0174589 0.0303964 0.202029 0.600723 0.00981763 -0.799397
0.212529 -0.299562 0.130632 -0.240416 0.951005 -0.194396
-0.0735233 0.100025 -0.219404 -0.635344 0.765244 0.103634
-0.300215 -0.0606243 -0.138901 -0.454733 0.856624 -0.243749
0.1482 0.16148 -0.107638 -0.49461 0.3404 0.79968
-0.091908 -0.0419637 -0.0384888 -0.364648 -0.152156 0.91863
0.218023 0.404651 0.0957639 0.444154 -0.863256 0.239826
-0.194536 0.1493 -0.0685917 -0.4318 0.875947 -0.215094
0.305449 0.450105 0.0888343 0.326294 -0.861049 0.390035
0.252063 0.250884 0.199168 -0.348119 0.917714 -0.191349
-0.175247 0.21811 -0.179896 -0.234094 -0.40732 0.882774
0.196534 0.481118 0.258177 -0.441279 0.836827 -0.324027
-0.223315 -0.0748256 -0.113537 -0.549601 0.834311 -0.0431625
-0.226063 0.117972 -0.167487 -0.861194 0.497686 0.103217
-0.344917 0.258577 -0.117843 0.529847 -0.846236 0.0560901
-0.293066 0.0710083 -0.000634845 -0.450683 -0.0945641 0.887661
0.328424 0.331811 0.18068 0.579794 0.0565822 -0.812796
0.0713053 0.143141 0.164586 -0.305866 -0.233379 0.923028
-0.0999777 0.421897 0.0797472 0.570333 -0.821037 -0.0248623
-0.0123679 -0.477507 -0.285595 0.319386 0.22321 -0.920961
0.0387435 0.164282 0.252237 -0.535275 0.259858 0.803713
0.253095 0.227495 0.0678068 -0.599634 0.792184 0.113501
0.00109191 0.189119 -0.114334 0.525352 -0.84801 0.0698904
-0.13977 -0.558613 -0.269267 -0.531164 0.844506 -0.0683658
-0.128072 -0.0855862 0.0410636 0.450307 -0.88152 0.141937
0.478293 -0.131302 -0.0215778 0.363197 0.127737 -0.922915
-0.187774 -0.0902957 0.109438 0.247669 0.249407 -0.936192
0.297517 -0.247773 0.16576 -0.490055 0.860993 -0.136153
0.109492 0.229553 0.286939 -0.472964 0.867823 -0.152276
0.518262 -0.120389 0.201556 -0.193497 0.851148 -0.487961
-0.348139 0.0343023 -0.243633 0.548962 -0.820048 -0.161745
-0.0968842 -0.568081 -0.316272 -0.393276 -0.184476 0.900723
-0.0133522 0.415392 -0.0451426 0.324022 0.182039 -0.92837
0.16212 0.182236 0.186144 0.641002 -0.764823 -0.0645196
-0.250038 -0.0682702 -0.0302855 -0.452661 0.882273 -0.129198
0.282921 -0.267728 0.202229 -0.3045 -0.296735 0.905112
-0.624944 0.144995 -0.134665 -0.289307 -0.224959 0.930427
-0.125852 -0.528684 -0.00484206 -0.427096 -0.0471003 0.902979
0.32624 0.289776 0.255935 -0.608674 0.793294 -0.0141787
0.327018 0.292475 -0.0206728 -0.428151 -0.0802882 0.900134
0.290603 0.462882 0.128183 0.774477 0.569382 0.275661
-0.437095 0.21772 -0.0914861 -0.536004 0.842272 -0.0572539
0.20901 -0.277871 0.169514 -0.468183 0.116912 0.875863
-0.242039 -0.582773 -0.0652657 -0.682666 -0.605131 -0.409614
-0.147254 -0.458869 -0.0114084 -0.48481 0.844645 -0.227012
-0.0226753 0.0708983 0.140323 0.392923 -0.907584 0.147997
0.205972 -0.331684 0.0166032 0.287944 -0.919107 0.268942
-0.443163 -0.209027 -0.116592 0.559408 -0.828379 -0.0291697
0.234931 0.128241 -0.0917411 0.192704 0.166153 -0.967087
-0.118533 0.21274 0.0429221 -0.513669 0.855569 -0.064394
-0.125168 0.0740734 0.0609675 0.436769 0.107952 -0.893073
-0.165769 -0.545571 -0.0668846 -0.629448 0.776637 0.0251113
-0.13501 -0.0174088 -0.271778 0.2758 0.266913 -0.923413
-0.226285 -0.115089 -0.119524 0.20304 0.310704 -0.928568
-0.176753 -0.514738 -0.0250018 -0.255601 -0.313302 0.914609
-0.101735 0.197644 -0.100279 0.409799 -0.894692 0.17774
0.0303513 -0.45942 -0.224907 0.454401 -0.879339 0.142417
0.0604336 0.172595 -0.168728 0.27042 0.188222 -0.944164
-0.0662846 -0.500034 0.0269712 -0.428933 -0.102132 0.897544
0.307713 -0.251729 0.126666 -0.772123 0.625975 0.109458
0.139195 0.280127 -0.0324431 -0.412782 -0.104292 0.904839
-0.38576 -0.223204 -0.0884382 -0.466191 -0.0355602 0.883969
0.102307 -0.303854 0.116997 -0.41334 -0.117623 0.902948
0.428463 -0.233885 0.252292 0.343044 0.394991 -0.852234
-0.325839 -0.193321 -0.381461 0.354004 0.349081 -0.867654
-0.254691 0.393159 0.0510671 -0.67425 0.7252 0.139541
-0.298393 0.0881279 -0.136243 -0.532913 0.845569 -0.031876
0.309589 0.259215 0.0977262 -0.186034 0.967372 -0.171996
0.137511 0.164861 0.0450391 -0.77785 0.627735 -0.0299524
-0.456585 0.195741 -0.124954 -0.497306 0.861577 -0.10184
-0.213258 -0.134103 -0.320027 0.368596 0.148626 -0.917631
-0.576388 0.124896 -0.117492 -0.592289 0.0107928 0.805653
-0.180965 -0.026281 -0.29061 0.416625 -0.00111022 -0.909078
-0.309871 -0.194208 -0.0669158 0.647331 -0.0484082 -0.760671
-0.400575 -0.195323 -0.0998249 0.392524 0.0931008 -0.915018
-0.145936 0.199403 0.0402594 -0.360188 0.899753 -0.246393
0.155563 -0.33993 0.073327 -0.478521 0.865021 -0.15085
-0.14871 -0.570371 -0.224361 0.557259 -0.830312 -0.00660001
-0.0887483 0.233184 0.0762595 -0.236008 0.913652 -0.330969
0.231287 0.219096 0.0350979 -0.394447 0.861801 -0.318921
0.229966 0.201712 0.348271 -0.456594 -0.0136861 0.88957
0.0882391 0.33814 0.0671389 -0.548843 0.835775 -0.0158411
-0.374243 -0.128068 0.0390304 -0.34798 -0.360241 0.865526
-0.409771 -0.209406 0.00597745 -0.427881 -0.102306 0.898027
0.144567 0.623599 0.0401539 -0.419693 0.886448 -0.19511
-0.150653 -0.545718 -0.155113 -0.590385 0.805033 -0.0580239
-0.0801538 0.361174 -0.0777328 0.46932 -0.863465 0.184843
-0.430413 0.0128388 -0.131228 -0.416988 0.889926 -0.184805
-0.244254 0.113316 -0.0923834 0.512236 -0.856188 0.0675028
-0.433089 -0.2443 -0.02103 0.414617 -0.892112 0.179525
0.525732 -0.130403 0.0981632 0.573288 -0.819195 0.0161617
-0.427706 0.281252 -0.0413361 -0.548469 0.834839 -0.0471703
-0.169984 0.00461783 0.125603 -0.199435 0.785384 -0.586001
0.216237 0.159225 0.219086 0.296773 0.144137 -0.944008
0.191282 0.373924 -0.00759561 0.548686 -0.231095 -0.803454
0.143686 0.151464 -0.0433112 0.533098 -0.842525 0.0771918
0.222802 0.256835 0.254377 -0.330236 -0.219336 0.918061
-0.0929864 0.163416 -0.170502 0.284729 0.256285 -0.923714
-0.0695401 0.455943 -0.0615273 -0.391824 -0.130578 0.910727
-0.415031 -0.117471 -0.0780026 -0.307776 -0.280326 0.909226
0.100998 0.158556 0.157367 -0.532341 0.844584 -0.0573605
-0.0225968 0.0492831 -0.072941 0.494865 -0.86188 0.110776
0.239316 -0.254581 0.186911 -0.333014 -0.182756 0.925041
-0.143146 -0.545203 -0.146783 -0.629467 0.748825 0.207442
-0.415905 0.16325 -0.0414843 -0.344407 -0.226436 0.911104
-0.372084 -0.080189 0.0350241 0.318861 0.264011 -0.910289
0.252098 0.179071 0.135754 -0.137287 -0.373603 0.917373
-0.130476 0.151654 -0.174293 0.389966 0.143307 -0.909609
0.115221 0.364694 -0.0485788 0.233536 0.261389 -0.936556
-0.100281 0.0649623 -0.237151 -0.539804 -0.0220104 0.841503
0.0255806 0.281357 -0.0799056 -0.834536 0.435215 0.337843
0.107174 0.20051 0.0680083 0.569857 -0.11136 -0.814163
0.0660705 0.554767 0.216407 -0.586879 0.15347 0.794997
0.093546 -0.469444 0.0926843 -0.387077 -0.191266 0.901991
0.165958 0.402266 0.16313 -0.568198 0.822721 -0.0167864
-0.00708524 -0.531229 0.0383538 0.47691 -0.865018 0.155887
0.201061 0.136429 -0.107432 0.383186 0.226472 -0.895477
0.180358 0.21794 0.298371 -0.379612 0.867123 -0.322477
0.22452 0.57778 0.073344 0.443868 0.0582493 -0.894197
0.298377 0.231976 0.372737 0.592339 -0.805199 -0.0280868
-0.347512 0.0269188 -0.0320629 -0.625051 0.0380904 0.779654
0.386901 0.221972 -0.00397769 -0.431123 -0.0838352 0.89839
0.168974 0.377899 0.0415752 -0.31382 0.939334 -0.13845
0.622142 -0.0770876 0.0966215 0.496894 -0.861517 0.104329
0.221831 0.409268 0.145076 0.546951 -0.837027 -0.0151762
-0.488574 -0.0202453 -0.0921779 -0.304058 -0.18428 0.93466
-0.351429 -0.22087 -0.0787461 0.353305 0.183323 -0.91737
-0.122254 0.393102 -0.0608109 -0.529062 0.844892 -0.0790654
0.42397 -0.201868 0.274527 -0.433059 -0.0856105 0.897291
-0.314243 -0.102894 0.0154045 -0.463807 0.874141 -0.144087
0.148386 -0.36021 -0.0546671 -0.521485 0.84905 -0.0846627
-0.471252 0.155248 -0.292352 0.405777 0.01808 -0.913793
0.133804 0.0958556 0.17504 0.292224 0.207989 -0.933459
-0.0875829 -0.591866 -0.00711768 0.439213 -0.883358 0.163614
0.613484 -0.00822638 0.059389 -0.463172 -0.0826653 0.882405
-0.000958562 0.0778186 0.028656 -0.519385 0.854288 0.0207725
0.519598 -0.120749 0.195817 0.382731 -0.869705 0.311656
0.289948 -0.343581 0.201322 -0.0647502 -0.329826 0.941819
0.122224 0.141858 -0.078932 -0.438473 0.878284 -0.19068
0.193509 0.193909 0.102481 0.375089 0.244909 -0.894052
0.192192 0.443644 0.000443336 0.512803 0.00526094 -0.85849
-0.145252 0.0216829 0.148043 0.351477 0.145082 -0.924887
-0.32173 -0.133517 -0.234269 -0.464817 0.876225 -0.127183
-0.609807 0.106018 -0.176606 -0.40125 0.88837 -0.223153
-0.160336 -0.0585043 -0.257727 0.441462 -0.837792 0.321272
0.360936 -0.281273 -0.0872369 -0.242158 -0.47143 0.848006
0.181877 0.134593 -0.112393 0.282618 0.228894 -0.931523
0.423395 -0.178568 0.19623 -0.548793 0.83595 0.0037252
-0.375717 -0.162251 -0.102804 -0.554975 0.830955 -0.0389479
-0.0155499 0.309914 -0.106912 -0.290754 -0.14757 0.945349
0.234408 -0.308683 -0.157975 0.454265 -0.0131389 -0.89077
