ply
format ascii 1.0
comment Created by Open3D
element vertex 832
property double x
property double y
property double z
property double nx
property double ny
property double nz
end_header
0.023932 -0.273922 0.418774 0.0674097 -0.557579 0.827383
0.333292 0.286646 -0.110944 0.830679 0.407428 -0.379441
-0.0598437 -0.128665 -0.442838 0.209953 -0.370535 -0.904778
0.325042 0.372255 -0.0388473 0.894011 0.361055 -0.2653
-0.148742 -0.245192 -0.179254 0.576348 0.689531 0.438599
0.259297 0.244726 0.351384 0.622667 0.474876 0.621915
-0.284391 0.151219 -0.357299 -0.828102 0.411256 -0.38094
0.00266138 -0.256578 0.432913 0.184673 -0.581925 0.791997
-0.0729325 0.310951 -0.157727 -0.0859458 -0.805713 0.586037
-0.00687945 -0.158573 -0.371593 0.817739 -0.426907 -0.386075
0.235663 0.0942489 0.227403 -0.544546 -0.368803 -0.753295
-0.0603588 0.190558 -0.270548 0.130128 -0.547536 0.826602
0.22718 -0.162049 0.240928 -0.238004 0.251972 -0.938011
-0.0118178 -0.342594 -0.198575 0.832573 -0.456224 -0.314138
-0.0230042 -0.206654 0.458707 -0.489438 -0.0640751 0.869681
0.160826 0.452488 -0.137432 0.349661 0.890316 -0.291675
-0.210892 -0.235362 0.32288 -0.824796 0.386078 0.413105
0.10397 0.391499 -0.29531 0.0978654 0.823515 -0.558789
0.16596 0.246934 -0.355439 0.611352 0.231597 -0.756711
-0.33462 -0.281204 0.113157 -0.874495 -0.355735 0.329715
0.0648921 -0.103473 0.278341 -0.841846 0.323451 0.432058
-0.112026 -0.173981 -0.435428 0.217162 -0.451563 -0.865409
0.261274 -0.173768 0.381461 0.797892 -0.477278 0.368204
0.0940504 0.209511 -0.262739 0.0264168 -0.760776 0.648476
-0.0469153 0.0754532 -0.328987 0.272773 -0.227525 0.934787
0.221808 0.219679 -0.214359 -0.253495 -0.863228 0.436553
-0.314573 -0.0451943 -0.394466 -0.435529 -0.0782129 -0.89677
0.102809 -0.152422 0.28411 -0.223331 0.435311 -0.87214
0.364356 0.321222 0.15812 0.60652 0.696463 0.383502
0.0360143 0.252132 0.289538 -0.570808 -0.539274 -0.619162
-0.307472 -0.115656 -0.379397 -0.526919 -0.275833 -0.803911
0.263413 0.16333 0.392843 0.519878 0.302879 0.798744
0.0222346 0.478317 -0.0926073 -0.393839 0.916842 0.0655063
0.138619 0.270302 -0.376284 0.597585 0.252923 -0.76087
0.00692687 0.331399 -0.10075 -0.220324 -0.88011 0.420551
-0.00239985 -0.210296 0.250367 -0.819665 0.419623 0.389956
0.326535 -0.0541103 0.212311 -0.536884 -0.0814506 -0.839715
0.0680825 0.404644 0.20242 -0.218032 0.869148 0.443896
0.0513056 0.0714243 0.460235 -0.288513 0.359498 0.887424
-0.361197 -0.0148471 -0.209558 -0.837549 0.342301 0.425842
0.172328 -0.123745 0.453772 0.298076 -0.2214 0.928511
0.168928 0.145249 0.23765 -0.841636 0.349526 0.411679
-0.106382 -0.203735 -0.261094 0.566226 0.480269 0.669873
-0.0427129 -0.23396 0.239463 0.0144616 0.755139 -0.655405
-0.202548 0.00087386 -0.272306 0.462143 0.0517689 0.885293
0.0451819 0.132683 0.339327 -0.525487 -0.226405 -0.820125
-0.084384 0.0945818 -0.263082 0.286063 -0.306116 0.907998
-0.0059114 -0.301826 0.156548 0.111174 0.836669 -0.536307
-0.30341 -0.281561 0.181459 -0.805737 -0.379 0.455135
0.0167743 -0.0524804 0.476001 -0.35152 0.0890822 0.931933
-0.358978 -0.00601598 -0.301364 -0.939442 0.138679 -0.313394
0.0708556 0.463668 0.0734123 -0.238574 0.930409 0.278246
0.392729 0.178991 0.169498 0.986356 0.114912 0.117886
-0.208342 0.197232 -0.234033 0.209262 -0.396282 0.893963
0.191896 0.351835 -0.29206 0.706649 0.314798 -0.63368
-0.344282 -0.342341 -0.00167588 -0.925455 -0.319942 0.202905
0.194868 0.127844 0.231149 0.825624 -0.436799 -0.357145
-0.0493366 -0.199897 -0.309765 0.546504 0.47496 0.689744
0.37722 0.181701 0.0733225 0.810797 -0.457226 -0.365447
0.308981 0.240431 0.314309 0.565128 0.521096 0.639601
0.298768 0.397339 -0.079024 0.894272 0.337809 -0.293533
-0.265317 -0.416835 0.129227 -0.362204 -0.921263 0.141712
0.284444 0.230271 -0.0761408 -0.42771 -0.903707 0.0194329
0.0571869 0.486634 -0.140136 0.290417 0.895296 -0.337793
0.011581 0.0839949 -0.342383 0.285579 -0.388238 0.876194
-0.119806 0.063913 -0.485808 -0.364847 0.172132 -0.915018
0.281641 0.230162 -0.117741 -0.362232 -0.926029 0.106107
-0.2578 -0.244426 0.0589577 0.456634 0.889195 -0.0285911
0.285962 0.115088 0.176896 -0.583643 -0.522053 -0.621949
-0.0575275 -0.272942 -0.357108 0.290007 -0.687371 -0.665896
-0.223237 -0.310299 -0.330922 -0.551014 -0.544934 -0.632005
0.14689 -0.0173532 0.28435 0.80976 -0.460118 -0.364114
0.0958961 0.071151 0.32209 -0.490764 -0.0833534 -0.867296
0.0301807 -0.455404 0.167862 0.456745 -0.887786 0.056753
-0.0439194 0.413501 -0.290662 0.0676946 0.765504 -0.639861
-0.232515 -0.254288 -0.011839 0.540006 0.837968 0.0787634
-0.248141 -0.0546464 -0.430514 -0.485938 -0.0583212 -0.872045
0.364215 0.32089 0.100399 0.974474 0.220968 -0.0396762
-0.391733 -0.0866816 -0.216919 -0.967292 0.0219709 -0.252713
-0.223544 0.165961 -0.422758 -0.282842 0.233732 -0.930252
0.180731 -0.169692 0.437512 0.30872 -0.343602 0.886921
-0.0331046 -0.35193 -0.000264396 0.395601 0.911306 -0.11411
-0.0573856 -0.422228 0.261343 -0.13412 -0.844854 0.517913
0.0446042 -0.435046 0.264305 0.522874 -0.841607 0.135281
-0.101146 -0.321264 0.00351788 0.390551 0.918278 -0.0650789
-9.5183e-05 -0.403133 -0.105835 0.810498 -0.454232 -0.36982
-0.036983 0.320758 -0.382687 -0.0908949 0.623754 -0.776318
0.0135524 0.478299 -0.126704 -0.406812 0.91333 0.0182285
0.082389 -0.0451601 0.499316 -0.339672 0.211969 0.916347
0.236266 0.208624 0.12836 -0.573985 -0.689637 -0.441523
0.111558 -0.0313824 0.49474 0.319559 -0.134337 0.937996
-0.205552 -0.406333 -0.218389 -0.557139 -0.747852 -0.360989
0.0306254 0.218769 -0.192875 -0.0834131 -0.753291 0.652376
-0.205054 0.154213 -0.252037 0.28494 -0.298348 0.910932
-0.117943 -0.299324 -0.116762 0.512956 0.822933 0.244249
-0.0589732 -0.0955893 0.448092 -0.411655 0.0073205 0.911311
-0.28412 0.0258343 -0.232485 0.495512 0.060201 0.866512
0.0988294 0.166762 -0.421178 0.473761 0.171097 -0.863873
0.0365077 -0.00686784 -0.38069 0.352335 -0.219174 0.909848
-0.00881537 -0.370474 0.334176 -0.0186295 -0.798932 0.601133
0.174262 0.389204 -0.278541 0.154519 0.872446 -0.46364
0.386618 0.0620044 0.213531 0.812991 -0.396886 -0.42606
-0.32987 -0.176947 -0.053646 0.55867 0.740919 0.37273
-0.0329956 -0.130609 0.324595 -0.197666 0.571855 -0.796185
-0.0939802 -0.0625876 -0.325446 0.374451 0.0981289 0.92204
-0.1403 -0.441294 -0.170273 0.210841 -0.863933 -0.457347
0.160895 0.201237 -0.262299 -0.155111 -0.779032 0.607494
0.37584 0.282885 0.166697 0.968581 0.244614 0.0448859
0.3758 0.213755 0.0363652 0.818485 -0.372319 -0.437563
-0.0946972 -0.0818143 -0.470973 0.270196 -0.353337 -0.895627
-0.345084 0.0400748 -0.23154 -0.818516 0.436999 0.372912
-0.0737859 -0.100657 -0.458319 0.243955 -0.377107 -0.893463
-0.0127698 -0.0919926 -0.364369 0.497135 0.0152178 0.86754
0.0359789 0.142602 -0.316074 0.124978 -0.544554 0.829362
-0.0706815 -0.163839 0.436214 -0.455144 -0.0824842 0.886589
0.206016 0.0516493 0.262475 -0.475151 -0.206208 -0.855401
0.198924 0.216264 0.145203 0.825133 -0.33896 -0.451954
0.0926994 0.272733 -0.0532152 -0.384571 -0.895135 0.225473
-0.348836 -0.349867 -0.119898 -0.401166 -0.850199 -0.340923
-0.333218 -0.177635 -0.333277 -0.555288 -0.429726 -0.712033
-0.160235 -0.359444 0.320296 -0.64665 -0.298411 0.701993
0.274169 -0.00261191 0.235279 -0.444541 -0.0507126 -0.894322
0.0528443 0.344555 0.0789241 -0.448627 -0.893621 -0.0132748
0.222625 0.110117 0.43465 0.509387 0.157942 0.845919
0.0699375 0.124444 0.325911 -0.481556 -0.242073 -0.842321
-0.0899064 -0.177023 0.293974 -0.0463269 0.69154 -0.720851
-0.31922 0.0018544 -0.206507 0.457018 0.186989 0.86958
-0.249753 -0.287508 -0.323188 -0.568646 -0.559675 -0.602831
0.305973 -0.104093 0.360267 0.824899 -0.378155 0.420167
0.33743 0.176241 0.332748 0.546768 0.418053 0.725449
0.270534 0.368669 -0.17239 0.775928 0.387408 -0.497846
-0.368936 -0.212569 -0.0213688 -0.811985 0.366311 0.45442
0.121865 -0.354427 0.110809 0.181398 0.787027 -0.589646
0.0144465 -0.105236 -0.378599 0.492556 0.0497014 0.86886
0.210026 0.423233 0.181944 0.552614 0.779992 0.293649
-0.00588885 0.00414317 0.458054 -0.3999 0.25566 0.880181
-0.0573791 -0.299412 0.405008 0.0610458 -0.752056 0.656266
-0.0814357 -0.446386 0.208961 -0.180718 -0.878261 0.442717
0.120505 -0.260314 0.211934 -0.0954523 0.636104 -0.765677
0.265552 0.105887 0.198415 -0.538223 -0.453016 -0.710699
0.131834 -0.017869 0.260375 -0.415764 0.0367835 -0.908728
-0.129234 0.0907505 -0.295075 0.273178 -0.193812 0.942237
0.248083 -0.139458 0.422483 0.322056 -0.216649 0.921598
-0.1571 -0.242938 -0.039067 0.513035 0.844545 0.153424
-0.0630085 0.015313 -0.335974 0.35078 -0.0914362 0.931983
0.00881004 -0.192261 0.275043 -0.0792415 0.639013 -0.765103
-0.142783 -0.455625 0.143586 -0.2867 -0.911508 0.294883
0.314178 0.332548 -0.112122 0.871136 0.32992 -0.363697
-0.20692 -0.453194 -0.0587753 -0.450823 -0.891215 -0.0499515
0.176141 0.0538459 0.26928 0.819732 -0.41351 -0.396294
0.0638876 -0.426309 0.246032 0.518011 -0.843196 0.143825
0.0106773 -0.0225148 -0.373872 0.411452 -0.114695 0.904186
0.2112 -0.0737443 0.448679 0.377702 -0.131367 0.916561
0.209273 -0.241197 0.394321 0.815121 -0.502033 0.289036
-0.0952445 0.290685 -0.181652 -0.0527605 -0.695403 0.71668
0.227207 0.377398 0.244362 0.567662 0.684843 0.456892
-0.190007 -0.08764 -0.457879 -0.476878 -0.147524 -0.866501
-0.0612905 -0.120445 0.336033 -0.198425 0.538147 -0.819161
0.290758 0.173264 0.367548 0.533421 0.37586 0.757754
0.190777 -0.194092 0.423454 0.290472 -0.362854 0.885417
0.34479 0.148807 0.0850656 -0.538149 -0.643671 -0.544136
-0.0670568 -0.00483626 0.390587 -0.82366 0.411406 0.390293
-0.00382877 -0.130169 -0.366303 0.48388 0.169448 0.858573
-0.000625383 -0.465471 0.0343334 0.349281 -0.9297 -0.116874
0.278979 0.12511 0.396648 0.561137 0.205458 0.801818
0.0444381 -0.45097 0.133435 0.421061 -0.904803 0.0635505
0.0591937 -0.292024 0.401941 0.087778 -0.571153 0.816137
0.0204871 -0.406346 0.298519 -0.0739104 -0.761451 0.643995
-0.0773562 -0.269874 -0.229522 0.531073 0.63222 0.564145
-0.342496 -0.298116 0.0733715 -0.887226 -0.38055 0.260791
-0.142986 -0.334597 -0.321502 0.151347 -0.65334 -0.741782
-0.0473339 0.449524 -0.135748 -0.458767 0.888211 -0.0248006
0.143639 0.171189 -0.300021 0.0206849 -0.732219 0.680755
0.083245 0.128504 0.449879 -0.235006 0.379444 0.894871
-0.254584 0.205639 -0.350886 -0.798871 0.509738 -0.319331
0.218163 -0.172005 0.423771 0.351246 -0.285037 0.891841
0.379776 0.243912 0.194604 0.983201 0.135044 0.122796
-0.213065 -0.0310724 -0.450959 -0.411987 -0.100943 -0.905581
-0.00864671 0.111603 0.38481 -0.808155 0.458971 0.369095
0.150697 0.239816 0.183304 -0.570887 -0.665087 -0.481402
-0.15537 -0.482283 -0.0552036 -0.411948 -0.907753 -0.0792645
0.24643 -0.230303 0.225195 0.816833 -0.435829 -0.377937
-0.29426 0.129253 -0.224418 -0.818459 0.425088 0.386554
-0.110144 -0.457117 0.171778 -0.215245 -0.915376 0.34023
-0.271434 -0.249039 -0.342679 -0.628277 -0.447598 -0.636336
-0.139604 0.126516 -0.46311 -0.313756 0.263828 -0.912114
0.138956 -0.35352 0.321062 0.648161 -0.724012 0.235993
0.294488 -0.162088 0.319357 0.798122 -0.427637 0.424415
-0.256663 0.138561 -0.2369 0.333738 -0.217172 0.917308
-0.222958 -0.441953 0.0804941 -0.351139 -0.934315 0.0612963
0.103993 0.465829 0.095376 -0.231244 0.934583 0.270335
0.0373255 0.00933307 0.47411 -0.362274 0.206598 0.908886
-0.202227 -0.423813 0.181052 -0.333523 -0.895073 0.295983
-0.0654596 -0.206011 -0.40721 0.199574 -0.524929 -0.827417
-0.18983 0.142522 -0.439986 -0.296559 0.257963 -0.919515
-0.175296 -0.385821 -0.270238 0.183044 -0.774401 -0.605638
0.0956438 -0.284813 0.401272 0.114742 -0.544853 0.830644
0.273619 -0.128384 0.409816 0.806146 -0.430869 0.405562
-0.0308203 0.179691 -0.28141 0.828643 -0.378013 -0.412863
-0.198562 -0.440141 0.135471 -0.334915 -0.908447 0.250111
-0.302921 -0.308406 0.161253 -0.836098 -0.35566 0.417667
-0.337113 -0.368804 -0.094161 -0.587352 -0.78136 -0.210936
-0.245285 -0.179308 -0.397142 -0.591572 -0.297853 -0.749217
-0.165445 0.172463 -0.439553 -0.245863 0.317164 -0.915947
-0.0128997 0.0654396 -0.343191 0.305747 -0.323208 0.895575
0.217437 0.407684 -0.215976 0.307314 0.886794 -0.345186
-0.0704226 -0.361128 -0.270861 0.189161 -0.835125 -0.516511
0.0803679 0.259696 0.371136 -0.186382 0.532013 0.825968
0.0889086 -0.421129 0.205949 0.551898 -0.827863 0.100257
-0.165105 0.102364 -0.279549 0.344818 -0.220379 0.912433
0.0381019 0.343726 -0.0377894 -0.342609 -0.917465 0.202182
-0.089833 0.345357 -0.115438 -0.175481 -0.813924 0.553836
0.0386955 0.416091 0.171882 -0.825154 0.384534 0.413829
-0.0504603 -0.300996 -0.217049 0.608127 0.692547 0.38802
0.0101499 0.115833 -0.470467 0.373097 0.0154496 -0.927664
0.0827769 0.487376 -0.11467 0.342343 0.862305 -0.373138
-0.383378 -0.0593009 -0.210793 -0.818576 0.351222 0.454506
-0.20067 0.221563 -0.410219 -0.317522 0.372549 -0.872002
-0.180331 -0.202501 0.354842 -0.818695 0.439846 0.369153
-0.143201 0.372994 -0.152704 -0.820753 0.420062 0.387185
-0.10492 0.162789 -0.460532 -0.230285 0.327313 -0.916425
-0.0470082 0.447302 -0.0460324 -0.350652 0.936469 -0.00831809
-0.317494 -0.216004 0.0742505 0.455078 0.890424 0.0070792
0.0645251 -0.391788 0.315869 -0.0273002 -0.703602 0.71007
-0.253492 -0.43035 0.0648139 -0.466604 -0.879341 0.0950802
-0.128209 -0.27177 0.380351 -0.522568 -0.322858 0.789104
0.0205837 0.361853 0.0279674 -0.343171 -0.936323 0.0743869
-0.199393 -0.287815 0.314112 -0.661972 -0.294469 0.689261
-0.148913 -0.279282 0.0192798 -0.819157 0.397569 0.413425
0.105346 0.0904015 0.469565 -0.142075 0.260767 0.95489
-0.176905 0.0385936 -0.284797 0.362789 -0.0347459 0.931223
0.210865 0.265512 -0.0523726 -0.439838 -0.894772 0.0769707
-0.0195433 -0.221401 0.223813 -0.820556 0.46568 0.331407
-0.27266 0.0979001 -0.419219 -0.396133 0.153264 -0.905311
-0.101742 -0.288168 -0.173594 0.546789 0.76859 0.332102
-0.378829 -0.244655 -0.200788 -0.986612 -0.155842 -0.0480733
0.178208 0.161676 -0.315946 0.822174 -0.381 -0.42293
-0.323084 -0.397052 0.0111897 -0.472374 -0.880951 -0.0280709
-0.101279 0.388428 -0.30126 -0.582957 0.788123 -0.197544
-0.124372 -0.347713 -0.298278 0.182719 -0.710945 -0.679095
-0.0708298 -0.300663 -0.19367 0.596942 0.695393 0.400111
-0.0721392 -0.218837 -0.282246 0.561364 0.535161 0.631248
-0.129924 0.121681 -0.286352 0.23967 -0.273014 0.931677
-0.0614304 -0.433965 -0.148885 0.200466 -0.915685 -0.34833
0.0386024 -0.385527 0.322155 0.00975556 -0.710804 0.703323
0.106901 0.108335 -0.414859 0.820285 -0.418667 -0.38968
0.040945 0.33068 0.262978 -0.83286 0.376441 0.405755
0.0179268 -0.282803 0.186383 0.0391772 0.808714 -0.586896
0.338994 -0.0554863 0.319144 0.897461 -0.251558 0.362329
-0.243059 -0.240867 -0.0450251 0.519522 0.82325 0.228816
-0.0852148 -0.314529 0.0762038 0.299581 0.920793 -0.249783
-0.13946 -0.14505 -0.453897 0.247621 -0.445449 -0.860383
0.158656 -0.193395 0.24857 -0.223205 0.453983 -0.8626
0.0979359 0.286714 0.180256 -0.564728 -0.722766 -0.398362
0.247949 -0.201796 0.22166 -0.181521 0.292231 -0.938963
0.0839013 0.255901 -0.41626 0.529367 0.226761 -0.817527
0.174355 0.200118 0.12443 -0.528433 -0.711869 -0.462602
0.375758 0.270933 0.0671347 0.964114 0.255184 -0.0732454
-0.378533 -0.162723 -0.25772 -0.982877 -0.0651472 -0.172363
-0.186223 0.303641 -0.172253 -0.821041 0.389014 0.417803
0.0727949 0.430858 -0.241263 0.210569 0.831635 -0.513852
0.133514 0.236933 0.397709 -0.193263 0.608655 0.769538
-0.260497 -0.298406 0.237959 -0.768175 -0.334676 0.545802
0.032868 0.010238 -0.451668 0.31405 -0.11663 -0.942216
0.040585 -0.244897 0.434023 0.125577 -0.48051 0.867952
0.135112 -0.249067 0.413281 0.210985 -0.479098 0.852027
-0.0428741 -0.0472609 0.366518 -0.189859 0.354717 -0.915494
0.101975 0.305195 0.341619 -0.164697 0.686913 0.707831
-0.262443 -0.109476 -0.199795 0.547305 0.466344 0.694969
-0.355969 -0.287589 0.0359586 -0.949958 -0.277203 0.144012
0.0698065 0.401261 -0.289976 0.0679016 0.814844 -0.57569
-0.0762295 0.276287 -0.196222 0.0244667 -0.738407 0.673911
-0.0140931 0.25071 -0.437673 -0.128703 0.54623 -0.827688
0.252209 0.149043 0.180363 -0.616659 -0.44813 -0.647234
-0.242457 -0.246046 0.120288 0.345811 0.927205 -0.143892
-0.0454364 0.0106707 0.412475 -0.824128 0.390103 0.41065
-0.167723 0.345586 -0.272359 -0.616169 0.734158 -0.285217
0.171283 0.220953 0.0902016 0.790241 -0.482976 -0.377165
-0.166559 -0.402475 -0.244523 0.158177 -0.759383 -0.631124
0.332607 0.247234 -0.0893291 0.821895 -0.401237 -0.404348
-0.194344 -0.0974267 -0.255414 0.526877 0.315517 0.789208
0.0651749 0.299954 0.334638 -0.176763 0.686054 0.705751
-0.223566 -0.419804 -0.158929 -0.533751 -0.794055 -0.290836
0.162309 0.365638 0.287849 -0.157024 0.740358 0.653616
-0.0170771 -0.232523 0.178394 0.11 0.780786 -0.615039
-0.038345 -0.337293 -0.250569 0.807466 -0.3603 -0.467101
0.0327996 0.435564 0.125937 -0.222231 0.911746 0.345445
0.391252 0.182025 0.103023 0.822013 -0.43053 -0.372744
0.0454657 -0.118074 0.494441 -0.36126 -0.00451861 0.932454
0.0735658 0.335002 0.031861 -0.435482 -0.899882 0.023843
0.0720688 0.0179194 0.484268 -0.3315 0.280137 0.900906
0.0992307 -0.40321 0.237661 0.544852 -0.823788 0.156551
-0.338065 -0.261951 0.0891462 -0.817858 0.381007 0.43121
-0.164797 -0.136166 -0.462984 -0.458717 -0.161415 -0.873799
-0.0202736 0.42687 0.0394166 -0.826142 0.367184 0.427395
0.053802 0.160637 0.326408 -0.555146 -0.259834 -0.790126
-0.286742 0.186623 -0.302093 -0.820219 0.452862 -0.349509
0.0412629 -0.183331 0.237724 0.80112 -0.468195 -0.372827
0.0957617 -0.183045 0.267298 -0.154539 0.414338 -0.896907
0.246989 -0.021955 0.434424 0.460366 -0.00410013 0.88772
-0.25821 0.0554367 -0.246881 0.444158 0.00026051 0.895948
-0.0586426 -0.243043 -0.274752 0.560756 0.525554 0.639801
-0.0454454 -0.490517 0.100554 0.374714 -0.923575 -0.0812335
0.0398126 0.105713 0.3489 -0.481334 -0.144761 -0.864501
-0.227938 0.177255 -0.238059 0.2921 -0.311627 0.904194
0.0852073 0.354884 -0.347756 0.0640198 0.766299 -0.639286
0.350212 0.307933 0.20056 0.561021 0.687143 0.461617
-0.383509 -0.103593 -0.16448 -0.821111 0.419157 0.387407
-0.191627 -0.274681 -0.048958 0.515944 0.842491 0.154956
0.0436743 -0.450506 0.0941569 0.430466 -0.901725 -0.0398923
-0.111726 -0.302334 0.384914 -0.605929 -0.195429 0.77114
0.194186 0.185878 -0.308425 0.821902 -0.405613 -0.399944
0.00273171 0.372938 0.137416 -0.834204 0.29225 0.467647
0.302167 0.128179 0.149602 -0.576262 -0.544028 -0.609882
0.0762514 -0.107276 0.30733 -0.280536 0.361626 -0.889115
0.14705 0.150854 -0.365952 0.824791 -0.373732 -0.424316
0.146968 0.463002 -0.11727 0.335892 0.90443 -0.263025
0.237368 0.239875 -0.152641 -0.350435 -0.898454 0.264529
0.0363304 0.348264 0.115573 -0.533905 -0.833358 -0.14304
-0.15603 -0.133577 -0.221114 0.826784 -0.438819 -0.351947
0.1709 0.214108 0.171204 -0.831668 0.370415 0.413667
0.0425014 0.0383266 0.46817 -0.299281 0.228288 0.926453
0.281225 -0.176212 0.33588 0.762562 -0.469769 0.444765
0.0372092 -0.217587 0.450907 0.172064 -0.421817 0.890204
0.022055 -0.0167019 0.473425 -0.273465 0.127671 0.953371
-0.0631755 -0.305129 0.126708 0.231411 0.878034 -0.418933
0.120743 0.423639 -0.237565 0.229933 0.837441 -0.495806
0.0955996 -0.306575 0.385241 0.1552 -0.60701 0.779392
0.203705 0.42347 -0.185911 0.277683 0.900722 -0.334055
-0.0396611 -0.410859 -0.181285 0.823583 -0.418153 -0.383223
0.0191771 0.338373 0.195214 -0.560423 -0.761918 -0.324664
-0.0232116 0.32712 -0.124087 -0.186556 -0.846076 0.499352
-0.10146 -0.0504137 -0.482718 0.249751 -0.257463 -0.933454
0.281418 0.362918 0.196211 0.568569 0.714733 0.40729
-0.0671769 -0.239373 0.428844 -0.488452 -0.16628 0.856601
0.0483357 0.0450363 -0.4509 0.380463 -0.0763157 -0.921642
-0.110385 0.400047 -0.237314 -0.623242 0.77254 -0.121453
0.330286 0.291795 0.241097 0.567324 0.62104 0.540789
-0.149347 -0.164562 0.307936 0.0375599 0.706486 -0.706729
-0.228153 -0.390266 0.225464 -0.799065 -0.258101 0.543027
-0.00372114 -0.0531396 0.351811 -0.265397 0.281727 -0.92206
0.272091 0.289273 -0.224515 0.741486 0.399409 -0.53914
-0.0871348 0.429767 -0.104361 -0.835669 0.419573 0.354424
-0.117745 -0.167805 -0.277753 0.558272 0.418406 0.716428
0.136579 0.0595557 0.257944 -0.820594 0.373771 0.432344
0.0130484 -0.377982 -0.0396583 0.389617 0.914661 -0.107672
0.181425 -0.291292 0.371692 0.679577 -0.657555 0.325264
-0.0440408 -0.246025 -0.354262 0.833106 -0.36123 -0.418865
0.209825 0.261481 0.0453249 -0.51163 -0.828222 -0.228655
0.18073 0.224289 -0.354035 0.600061 0.253864 -0.758604
0.0326971 0.406983 -0.29162 0.112532 0.778553 -0.617407
-0.0944396 -0.276233 0.170199 0.144093 0.886748 -0.439221
0.246304 0.263695 -0.273769 0.731544 0.318854 -0.602641
-0.291594 -0.230228 0.0618772 0.457015 0.88859 -0.039293
-0.18114 -0.347617 -0.317976 0.175301 -0.716296 -0.675418
0.0130324 -0.0878095 -0.40379 0.821425 -0.420423 -0.385365
0.190903 0.273167 0.0246171 -0.486104 -0.871902 -0.0590729
-0.350672 -0.23853 -0.27851 -0.616302 -0.547931 -0.565636
0.125996 0.292519 0.357732 -0.17154 0.700595 0.692633
0.0415198 0.320977 -0.104234 -0.249523 -0.896656 0.365714
-0.142177 -0.220522 0.384318 -0.599002 -0.152915 0.786011
0.106789 0.303292 0.12793 -0.555727 -0.781252 -0.284275
0.135954 0.440834 -0.192056 0.207201 0.905155 -0.371163
0.112774 -0.413028 0.139926 0.462573 -0.879201 0.114154
-0.380407 -0.197165 -0.246176 -0.990533 -0.122506 -0.0619415
-0.141786 -0.407291 -0.229424 0.193754 -0.811511 -0.55128
-0.0592525 -0.373048 -0.250988 0.209227 -0.770119 -0.602611
-0.0670071 0.113039 -0.290234 0.82966 -0.423481 -0.363771
0.0177838 -0.0740036 0.340353 -0.283227 0.353486 -0.891533
-0.168082 -0.430013 0.197485 -0.229699 -0.922237 0.310995
-0.245568 -0.196162 -0.133778 0.569974 0.65641 0.494223
-0.0127006 0.191721 -0.258863 0.831916 -0.356818 -0.424967
-0.359383 -0.180059 -0.309705 -0.550917 -0.442602 -0.707527
0.0535549 -0.192789 0.268936 0.8213 -0.415035 -0.391423
-0.258572 -0.41172 -0.116328 -0.472646 -0.837417 -0.274479
-0.248596 -0.384082 0.196914 -0.797488 -0.353558 0.488887
-0.205506 -0.408886 0.21635 -0.290741 -0.86659 0.405575
0.00539059 -0.375191 -0.0729206 0.364189 0.93098 -0.0253377
0.144405 0.425395 -0.221845 0.244116 0.867851 -0.432715
-0.284722 -0.229291 0.0279678 0.490041 0.85813 0.15321
0.204084 -0.102937 0.445095 0.36925 -0.20102 0.907329
0.374305 0.260603 0.0310498 0.968792 0.220102 -0.114005
0.152101 0.475753 -0.0476605 0.355267 0.930512 -0.089068
-0.297267 -0.152748 -0.133453 0.593167 0.631893 0.498862
-0.173938 -0.208793 -0.108729 0.579436 0.724037 0.374199
0.097793 0.437578 0.152985 -0.220885 0.872358 0.43612
0.0232366 -0.361029 0.348562 0.0349903 -0.711208 0.702111
-0.215039 -0.0698697 -0.446757 -0.445045 -0.0702451 -0.892749
0.224556 0.153106 0.199711 -0.620124 -0.496998 -0.606991
0.147458 0.277507 0.0573756 -0.814565 0.434603 0.384192
-0.0670058 -0.261838 0.164539 -0.820759 0.418856 0.388476
-0.0383175 -0.0782472 -0.353515 0.383573 0.0544371 0.921905
0.349556 0.230482 -0.0272702 0.829343 -0.373949 -0.415152
0.23418 -0.264812 0.234875 0.825218 -0.391294 -0.407313
-0.0949159 -0.25178 -0.379232 0.149623 -0.528714 -0.835508
-0.358787 -0.171215 -0.0457914 -0.814264 0.38641 0.433199
-0.159768 -0.106269 -0.472361 -0.477138 -0.00708637 -0.8788
-0.217521 -0.211934 0.289909 -0.808765 0.377416 0.451062
-0.293347 0.100868 -0.388627 -0.847785 0.364146 -0.385562
0.158589 0.134625 0.204291 -0.568184 -0.439082 -0.69597
-0.216301 -0.255083 -0.0546191 0.514301 0.833265 0.202891
-0.0337897 -0.175245 0.28876 -0.097752 0.631013 -0.769589
0.0742978 -0.167796 0.280774 -0.0547022 0.44972 -0.891493
-0.0633312 0.421658 -0.0400134 -0.792812 0.479521 0.376176
0.0923666 -0.395889 0.077127 0.819015 -0.416825 -0.394298
-0.337243 0.0354345 -0.333898 -0.914603 0.231457 -0.331555
0.0533852 -0.0337643 0.488852 -0.301515 0.0994568 0.94826
0.267865 0.191934 0.378941 0.566036 0.335011 0.75324
0.163814 -0.332214 0.313017 0.708851 -0.66481 0.235707
0.0956821 0.107221 0.315358 -0.499985 -0.27909 -0.819831
0.217535 0.227493 0.117767 -0.607964 -0.677687 -0.413667
0.0575759 0.112502 0.448264 -0.251059 0.334843 0.908212
-0.286729 -0.24662 0.180596 -0.827138 0.428084 0.364125
0.298587 -0.0506606 0.410454 0.419121 -0.0188752 0.907734
0.0652617 -0.0576068 0.326294 -0.347824 0.239553 -0.90644
-0.0617347 -0.341211 -0.0839649 0.516757 0.851671 0.0872798
0.11388 0.282453 -0.140509 -0.218109 -0.897924 0.382309
0.351799 0.347072 0.11975 0.520045 0.7653 0.3793
-0.215074 0.264439 -0.347799 -0.733102 0.59915 -0.32184
0.2523 0.362884 0.235488 0.555888 0.678961 0.479585
0.355383 0.000952126 0.214812 0.825377 -0.43023 -0.365589
-0.113187 -0.409136 -0.217302 0.163852 -0.850583 -0.49966
0.362372 0.022471 0.300328 0.957294 -0.115171 0.265187
-0.120056 0.379402 -0.276677 -0.577769 0.772713 -0.262867
-0.0626567 -0.472889 -0.0311909 0.306829 -0.902984 -0.300792
-0.0283842 0.264688 -0.21191 -0.037467 -0.740452 0.671064
0.0180794 -0.13761 0.30875 -0.220757 0.471351 -0.85387
-0.198466 -0.338587 0.290233 -0.709244 -0.308663 0.633798
0.154726 -0.0578998 0.47324 0.401118 -0.151163 0.903468
0.0178393 0.120505 0.434189 -0.829043 0.417674 0.371801
-0.254617 -0.204766 -0.378306 -0.525245 -0.402887 -0.749533
-0.145522 0.210783 -0.430863 -0.208171 0.37476 -0.903449
0.0430284 0.0567804 0.352366 -0.446358 0.0544404 -0.893197
-0.250804 -0.231785 0.164405 0.367247 0.867733 -0.334916
-0.00826142 0.0577657 0.441505 -0.822284 0.414523 0.389896
-0.195428 0.104759 -0.448913 -0.349738 0.173747 -0.920595
-0.310412 0.127523 -0.321961 -0.86409 0.38184 -0.327944
-0.0734468 -0.421824 -0.173074 0.217467 -0.887302 -0.406697
-0.10848 0.394413 -0.10629 -0.821592 0.393644 0.412348
-0.0260505 -0.280703 0.420254 0.0745342 -0.617958 0.78267
-0.139379 -0.222596 -0.413142 0.190468 -0.562065 -0.804863
-0.111546 -0.268126 0.045399 0.366374 0.917613 -0.154133
0.0907161 0.284218 -0.40543 0.556573 0.218855 -0.801454
-0.153011 -0.261315 -0.146469 0.579107 0.716019 0.389809
0.216357 0.270841 0.367466 0.570301 0.479095 0.667252
-0.0766652 0.354646 -0.352027 -0.0437707 0.649322 -0.759253
-0.207329 0.284658 -0.324862 -0.698222 0.623203 -0.352283
0.137697 0.258203 -0.013725 -0.48551 -0.87334 0.039467
-0.295166 -0.235875 -0.327394 -0.572656 -0.444615 -0.688754
0.0656284 0.0759699 0.339503 -0.461817 -0.156392 -0.873079
-0.0691327 0.312903 -0.384418 -0.0932897 0.57279 -0.814377
-0.0103661 -0.459881 0.218351 -0.157513 -0.853666 0.496431
0.076683 -0.397536 0.0473219 0.816422 -0.456481 -0.353667
-0.381546 -0.0677856 -0.247506 -0.943856 0.0799026 -0.320547
0.379125 0.151327 0.258625 0.969678 -0.00232729 0.244376
-0.0712353 0.42942 -0.066355 -0.821926 0.406886 0.3986
0.328725 0.329275 0.191563 0.577257 0.687749 0.440199
0.1902 -0.0277397 0.281133 -0.484221 0.0706211 -0.872091
0.197362 0.133846 0.446373 0.500306 0.229804 0.834796
0.08363 0.341921 0.29629 -0.185682 0.69568 0.693939
0.0227874 -0.161296 0.249379 -0.824598 0.361625 0.435047
0.136688 -0.221386 0.237299 -0.191884 0.539436 -0.819872
-0.35145 -0.27171 0.0708501 -0.820882 0.367986 0.436737
0.328474 0.0588478 0.382824 0.600569 0.177749 0.779566
0.387656 0.21589 0.147454 0.982356 0.173527 0.0697458
0.112856 0.110165 -0.348461 0.13291 -0.549662 0.824746
-0.0227375 0.0299275 0.443286 -0.822054 0.434275 0.368283
-0.0246871 -0.223493 -0.340599 0.818484 -0.423703 -0.38802
-0.250467 0.264352 -0.267163 -0.817707 0.374157 0.43745
0.229829 0.373035 -0.234081 0.820614 0.255728 -0.511074
-0.225865 -0.349328 -0.286618 -0.597565 -0.656821 -0.459893
-0.127178 0.27727 -0.399391 -0.165799 0.511035 -0.843418
0.064983 -0.217486 0.25059 -0.13195 0.613759 -0.778389
-0.272821 -0.216374 -0.0586863 0.51797 0.783795 0.342596
-0.0342143 -0.188766 -0.397858 0.830937 -0.446744 -0.331607
0.0667307 0.119974 -0.442689 0.455825 0.0408271 -0.889132
-0.215965 0.0780275 -0.445339 -0.415029 0.168809 -0.89401
0.00349913 0.174634 -0.472533 0.478561 0.0196503 -0.877835
-0.201011 -0.214434 0.232331 0.154731 0.866702 -0.474221
0.11706 0.262798 0.377185 -0.191416 0.578995 0.792543
0.372368 0.0673782 0.289709 0.939445 -0.0782678 0.333643
0.340873 0.294354 -0.0794278 0.898952 0.333844 -0.283608
0.025944 -0.431449 -0.0232338 0.81766 -0.450949 -0.357879
-0.0644538 0.0982745 -0.498095 -0.351846 0.286598 -0.891104
0.31214 -0.131751 0.261342 0.808133 -0.455858 -0.372979
0.046738 0.323468 0.177537 -0.52429 -0.781705 -0.337724
-0.284942 -0.162837 -0.377413 -0.539045 -0.350288 -0.765982
-0.0219963 -0.157448 -0.404857 0.817123 -0.387294 -0.426981
0.0999665 0.240046 0.239789 -0.545077 -0.617058 -0.567565
-0.257897 -0.246184 0.0287313 0.47885 0.875141 0.0695059
-0.0333079 0.0378916 0.41594 -0.820217 0.423983 0.384034
0.00241365 -0.38995 0.316067 -0.0281793 -0.741698 0.670142
-0.255931 -0.407078 0.171012 -0.831355 -0.305025 0.464552
0.00399543 0.0892318 0.43609 -0.80186 0.307564 0.512274
0.00192555 -0.424061 0.273128 -0.0688419 -0.798628 0.597875
-0.0969106 -0.195495 -0.418007 0.242759 -0.36788 -0.897626
0.103527 -0.245643 0.422712 0.204429 -0.48315 0.851337
-0.301528 -0.0699443 -0.191941 0.596711 0.337755 0.727913
-0.00194951 -0.429237 -0.0848944 0.814556 -0.400215 -0.419913
-0.251129 -0.427813 -0.0554422 -0.453159 -0.888619 -0.0707383
0.0214699 0.363345 0.089615 -0.459774 -0.885182 -0.0711434
0.308331 0.0829268 0.391798 0.568427 0.190949 0.800268
-0.0385122 -0.144913 -0.43014 0.267943 -0.41474 -0.869596
-0.0382404 0.0121722 -0.479492 0.316995 -0.136355 -0.938574
0.0271962 -0.451066 -0.00120771 0.81556 -0.444537 -0.370471
0.0141006 -0.464278 0.114373 0.44741 -0.884893 -0.129569
-0.321752 -0.31501 -0.223162 -0.568694 -0.681184 -0.461059
-0.0141424 -0.0522871 -0.364934 0.462498 -0.0668001 0.8841
0.039853 -0.313192 0.388285 0.0562628 -0.608637 0.791451
0.215576 -0.251059 0.363572 0.769237 -0.575454 0.277719
0.169046 -0.366209 0.202546 0.803757 -0.484845 -0.344818
-0.134233 -0.0106378 -0.302436 0.801627 -0.33419 -0.495693
-0.312409 0.0824759 -0.363911 -0.882977 0.307593 -0.354594
-0.382859 -0.235434 -0.03245 -0.975031 -0.220896 0.0227921
0.276257 0.398362 0.131702 0.521493 0.803453 0.287243
0.0880468 0.0727009 -0.414375 0.822606 -0.403058 -0.401079
0.0805915 0.453897 0.113737 -0.264694 0.881642 0.390697
0.0242025 0.338338 -0.0704699 -0.295929 -0.888724 0.350136
0.0681305 0.485056 -0.0128161 -0.338439 0.918542 0.204303
-0.221042 0.0278102 -0.449761 -0.425994 0.0444713 -0.903632
-0.119404 -0.00581825 -0.274793 0.823704 -0.386919 -0.414494
-0.277869 -0.28275 -0.305074 -0.53207 -0.569176 -0.62685
-0.21341 -0.0807096 -0.248514 0.535946 0.266363 0.801132
0.0242477 0.165979 0.345026 -0.549276 -0.260511 -0.793996
-0.241459 0.229912 -0.212754 -0.816615 0.427753 0.387514
0.125105 0.443631 0.160475 -0.219575 0.878787 0.423697
0.365673 0.122761 0.327878 0.96915 -0.00870427 0.246318
0.0424691 0.389731 -0.313631 0.0708256 0.794535 -0.603074
0.308664 -0.0203665 0.404331 0.480133 0.0395764 0.876303
0.137376 -0.370405 0.143547 0.822151 -0.41632 -0.388259
0.191251 0.144595 0.206921 0.822472 -0.40376 -0.400648
0.186757 -0.210304 0.234148 -0.157438 0.402591 -0.901739
-0.175881 -0.168122 -0.225527 0.80307 -0.455224 -0.384512
-0.144407 -0.0963394 -0.237839 0.820103 -0.4124 -0.396684
-0.271138 0.130545 -0.408177 -0.884112 0.369994 -0.285395
-0.388177 -0.124267 -0.224931 -0.981576 -0.0478743 -0.184977
0.354214 0.246034 0.264122 0.580783 0.551347 0.598922
-0.146869 0.202612 -0.245763 0.19168 -0.47721 0.85763
-0.0389077 0.314197 -0.151508 -0.0896658 -0.831078 0.548881
0.091262 -0.253655 0.219643 -0.0411855 0.645483 -0.762663
0.0821416 0.318116 0.320483 -0.136383 0.732899 0.666527
-0.317679 -0.0792912 -0.384726 -0.516809 -0.233242 -0.823715
0.126104 0.148168 -0.408681 0.524179 0.0871033 -0.847142
0.151699 -0.358331 0.163157 0.829963 -0.439304 -0.343762
0.0578737 0.304957 -0.130636 -0.229603 -0.879643 0.416546
-0.00468999 0.46335 -0.0260718 -0.374623 0.918743 0.124772
-0.182371 0.282221 -0.188154 0.0272553 -0.611496 0.790778
0.242762 0.437247 -0.0448491 0.420457 0.903056 -0.0877755
-0.182808 -0.465844 -0.00359314 -0.450343 -0.892039 0.0381745
0.368434 0.276424 0.00267014 0.93614 0.319722 -0.146355
-0.187383 0.341794 -0.235887 -0.612528 0.748123 -0.255188
-0.341407 -0.140586 -0.0987464 0.567873 0.656969 0.495896
0.379132 0.209392 0.236859 0.984999 0.0551914 0.163495
-0.135773 -0.300027 -0.0653914 0.512624 0.849769 0.122918
-0.248989 -0.14689 -0.408626 -0.510949 -0.261025 -0.819022
-0.0919082 -0.257863 0.10742 0.285861 0.896085 -0.339581
-0.227829 -0.269532 -0.35952 -0.513859 -0.573968 -0.637581
-0.237705 -0.120988 -0.425291 -0.521081 -0.223177 -0.823812
-0.323801 -0.394662 -0.0180481 -0.472266 -0.872996 -0.121833
-0.370881 -0.0552459 -0.285772 -0.981384 0.0906674 -0.169304
-0.125318 -0.411241 0.259194 -0.187905 -0.846125 0.498762
-0.0668406 -0.488158 0.0286452 0.288703 -0.95014 -0.117837
-0.151349 -0.185031 0.281689 0.0130437 0.768976 -0.639145
0.221545 0.021402 0.25972 -0.458894 -0.162175 -0.873565
0.254873 -0.148219 0.236797 -0.312768 0.205133 -0.927414
0.0281254 0.358779 0.0576845 -0.383002 -0.923337 -0.0275538
0.0596167 0.163792 -0.303478 0.0805076 -0.637004 0.766645
0.0636399 -0.156171 0.253313 0.821639 -0.404594 -0.401515
-0.176485 -0.455048 0.104259 -0.285995 -0.944452 0.161917
0.145385 0.236395 0.0976381 -0.821564 0.393736 0.412316
0.315358 0.215939 0.3233 0.560705 0.471292 0.680803
-0.364279 -0.0873871 -0.144665 -0.816798 0.396185 0.41938
-0.0526571 -0.268639 -0.255118 0.597267 0.533079 0.599249
-0.211583 -0.306107 0.290626 -0.731528 -0.267243 0.627255
-0.00778933 0.0759517 -0.477501 0.355454 -0.0130249 -0.934603
-0.148537 -0.46236 -0.128542 0.243409 -0.874713 -0.419081
0.307323 0.404697 -0.0489505 0.472679 0.880839 -0.0264041
-0.211876 -0.390937 -0.24475 -0.527795 -0.71968 -0.451102
-0.1315 -0.266531 -0.166883 0.549725 0.730423 0.40532
0.128504 0.309034 -0.00827814 -0.389176 -0.918477 0.0703036
0.293784 0.370713 0.168214 0.520799 0.745124 0.416604
-0.0619852 0.369254 -0.339185 -0.0312475 0.688243 -0.724807
-0.217362 -0.235938 -0.10408 0.566493 0.735268 0.372111
-0.141212 -0.112947 -0.284901 0.574035 0.21488 0.790133
-0.286901 0.012671 -0.413956 -0.463664 -0.0486962 -0.884672
-0.319207 -0.308092 0.123482 -0.848279 -0.375538 0.373355
0.0956387 -0.105962 0.485246 0.281256 -0.22723 0.932342
-0.221538 0.197712 -0.412994 -0.254902 0.25012 -0.934058
-0.282927 0.195368 -0.263565 -0.829338 0.359987 0.427326
-0.389281 -0.22059 -0.136497 -0.990545 -0.130768 -0.0414733
-0.187627 0.23672 -0.2165 0.13353 -0.513017 0.847929
0.362137 0.31619 0.0607936 0.954408 0.283455 -0.0935839
0.148289 -0.183602 0.440489 0.251972 -0.343762 0.90462
-0.370927 -0.238153 -0.00347142 -0.811685 0.371061 0.451089
0.0611143 0.440265 0.130911 -0.212192 0.903875 0.371463
0.073422 0.377522 -0.322571 0.0633529 0.792773 -0.606216
0.356817 0.294355 -0.0301544 0.938459 0.304073 -0.163811
-0.0863774 -0.059523 0.400977 -0.816785 0.403766 0.41211
-0.0891904 -0.329786 -0.0345104 0.418738 0.907309 0.0380642
0.151528 0.0740135 0.480106 0.42587 0.0612026 0.902712
0.0723773 -0.128631 0.482963 0.236082 -0.239798 0.941681
0.143863 -0.309511 0.163845 -0.00496097 0.72732 -0.686281
0.0825098 -0.0773885 0.315228 -0.286007 0.219645 -0.932714
0.0319589 -0.452008 0.0271619 0.349137 -0.930468 -0.111048
0.22584 -0.296524 0.251311 0.801873 -0.457658 -0.38412
-0.127185 -0.451052 -0.145594 0.225021 -0.865131 -0.448233
0.214867 -0.291906 0.223464 0.824006 -0.375486 -0.424294
-0.29031 -0.414388 0.0270547 -0.433138 -0.900829 -0.0299743
0.255928 0.366027 -0.200481 0.789065 0.365478 -0.493763
0.167403 0.188504 0.184585 -0.823857 0.435659 0.362576
-0.144866 0.329274 -0.1453 -0.0533796 -0.732971 0.678162
0.244406 0.424422 -0.134849 0.338369 0.929991 -0.143607
-0.256091 -0.238669 -0.0170823 0.441376 0.885085 0.147687
-0.0429021 0.353677 -0.354486 -0.055622 0.691212 -0.720508
0.0558371 0.324771 0.302014 -0.853103 0.414432 0.316955
0.0760889 0.335612 0.0594276 -0.468643 -0.878984 -0.0880962
0.307664 0.397698 0.0529302 0.480381 0.862896 0.156989
-0.291754 -0.224938 0.148759 -0.817732 0.443078 0.367418
-0.177174 0.0114768 -0.285246 0.38908 0.000676663 0.921204
0.256545 0.421485 0.0855861 0.504268 0.848299 0.161561
-0.00240772 -0.366644 -0.13862 0.482928 0.858189 0.174045
-0.238442 -0.161264 -0.180626 0.60291 0.53721 0.589835
0.0470838 0.491498 -0.108494 -0.397722 0.915282 0.0638408
0.0397516 -0.022946 -0.413488 0.822666 -0.40281 -0.401205
-0.34796 -0.0690733 -0.361387 -0.929817 0.118093 -0.348559
-0.0328528 0.0101584 0.380235 -0.331546 0.141693 -0.932738
0.205991 0.398836 -0.243338 0.217915 0.896007 -0.386891
0.0112121 -0.323488 0.382107 0.0627276 -0.66492 0.744276
0.285663 -0.198807 0.271128 0.825461 -0.360867 -0.434038
0.256954 0.429487 0.0401945 0.498847 0.866167 0.0301062
0.286725 0.408854 -0.103996 0.885037 0.324683 -0.333602
0.330914 -0.0427432 0.346642 0.939049 -0.195246 0.28296
-0.169317 -0.255154 -0.122868 0.818836 -0.433574 -0.376192
0.269 0.217507 0.360966 0.529733 0.38085 0.75785
-0.170395 -0.454353 -0.15797 0.21598 -0.858719 -0.464708
0.35548 0.188014 0.313543 0.590958 0.393331 0.704315
-0.110758 -0.317235 -0.0543887 0.404938 0.908422 0.103902
0.375106 0.0871381 0.168053 0.819659 -0.420224 -0.38932
0.0738258 0.214417 0.402048 -0.198387 0.447126 0.872193
0.189409 0.209904 -0.245915 -0.133058 -0.835072 0.533808
0.0712209 0.106953 -0.344652 0.0978251 -0.504899 0.857617
0.28139 -0.156718 0.224144 -0.279872 0.166172 -0.945547
0.201078 -0.00167042 0.458338 0.41705 -0.0396922 0.908016
0.0955481 0.132089 -0.428789 0.461275 0.0772197 -0.883891
0.274941 0.339665 -0.185995 0.830827 0.308917 -0.462923
0.026385 0.46618 0.0119061 -0.301527 0.939072 0.165003
-0.229702 -0.12611 -0.216716 0.501409 0.450526 0.738658
0.0480054 -0.0650918 0.488773 -0.365609 0.149393 0.918701
0.385805 0.149114 0.119378 0.815416 -0.402443 -0.416097
-0.189923 0.321712 -0.281556 -0.617431 0.712284 -0.333812
-0.164033 -0.47305 -0.105206 -0.492424 -0.863633 -0.107964
0.0664168 0.334126 0.10812 -0.498064 -0.852421 -0.159093
0.00536868 -0.469118 0.186703 0.428897 -0.901882 0.0515298
0.0966689 0.215513 0.264082 -0.564228 -0.510674 -0.648736
-0.0282391 -0.106578 -0.443693 0.249968 -0.304942 -0.918981
0.00192596 0.447095 0.0701464 -0.819176 0.402533 0.408557
-0.359086 0.0143466 -0.238882 -0.824334 0.397134 0.403432
-0.0913993 -0.453492 -0.120271 0.25795 -0.886587 -0.383959
0.227069 0.173316 0.179853 -0.546305 -0.572833 -0.611076
-0.345921 0.0114141 -0.328552 -0.917087 0.212819 -0.337134
-0.169856 -0.442743 0.160811 -0.263742 -0.924199 0.276219
0.212213 0.222192 -0.309359 0.821858 -0.41083 -0.394674
0.125972 0.294885 -0.0795106 0.83086 -0.412081 -0.37398
0.012896 0.202749 0.337388 -0.823781 0.394356 0.407269
0.156547 -0.146154 0.270936 -0.275452 0.350936 -0.894969
-0.237736 -0.289257 0.27144 -0.735805 -0.314786 0.599584
-0.311353 -0.388656 -0.0802723 -0.52389 -0.81666 -0.242087
0.0656981 -0.44259 0.113402 0.448157 -0.891739 -0.0629062
0.142702 0.0473342 0.301865 -0.493614 -0.0979703 -0.864145
0.0130943 -0.462295 0.0811096 0.386719 -0.920765 -0.0513793
-0.0361651 0.0261637 -0.346853 0.327684 -0.21827 0.919229
0.125208 0.31247 0.0204868 -0.440868 -0.89757 0.00172492
-0.336292 0.0802834 -0.305518 -0.906408 0.283819 -0.312844
-0.202678 -0.44491 -0.113155 -0.450296 -0.856287 -0.252992
0.218333 0.255708 -0.309425 0.656926 0.30213 -0.690772
-0.177646 -0.468953 -0.0359605 -0.455155 -0.890174 -0.0205866
-0.143465 0.388848 -0.184731 -0.531483 0.827675 -0.180221
0.208847 0.0462634 0.452729 0.450194 0.0482917 0.891624
-0.00372525 0.00415015 -0.4643 0.351027 -0.173205 -0.920207
0.160319 0.411776 -0.241494 0.223097 0.883038 -0.412883
-0.364988 -0.0802246 -0.312969 -0.962832 0.0350357 -0.267818
0.0575178 -0.376402 0.0345134 0.262422 0.903081 -0.33997
-0.218964 -0.441832 -0.0861685 -0.424163 -0.892898 -0.151057
-0.105481 0.345875 -0.355197 -0.0130862 0.598574 -0.800961
0.201536 0.45421 0.0618796 0.477434 0.864769 0.155665
0.00427611 0.252583 -0.209246 -0.822879 0.416577 0.386437
0.241534 0.277523 0.345225 0.57928 0.496852 0.646199
-0.142091 -0.14922 -0.269205 0.551682 0.401735 0.730928
-0.12093 0.365279 -0.329793 -0.65182 0.729569 -0.207027
-0.0620952 0.158677 -0.252891 -0.821077 0.448579 0.353001
0.325062 0.0250263 0.390975 0.476328 0.176113 0.86145
-0.0110953 0.203277 -0.464935 -0.217897 0.506215 -0.834426
-0.0634184 -0.0209465 -0.340962 0.402668 -0.0318899 0.914791
-0.00527857 -0.108448 0.327522 -0.207294 0.404572 -0.890702
0.0340626 -0.450043 0.200569 0.533811 -0.845573 -0.00717564
-0.147031 -0.46496 0.113265 -0.346714 -0.902516 0.25545
-0.174627 -0.120948 -0.200818 0.569747 0.447637 0.689209
0.0406871 0.287788 -0.163678 -0.0934687 -0.885109 0.4559
0.0449049 0.252768 0.354685 -0.82322 0.441742 0.356613
-0.00966815 0.454571 0.0132988 -0.313543 0.938265 0.146117
-0.36902 -0.266592 0.0199171 -0.931215 -0.317121 0.179647
-0.390914 -0.182833 -0.184969 -0.981708 -0.170941 -0.0838333
0.0968968 -0.158435 0.464126 0.187354 -0.33122 0.924766
-0.10049 -0.406845 0.275078 -0.173049 -0.825664 0.536967
0.115126 0.223822 -0.240994 -0.0793927 -0.801598 0.592568
-0.0807405 0.358034 -0.0871349 -0.230849 -0.860359 0.454412
-0.235662 0.0981997 -0.434565 -0.393589 0.154214 -0.906259
0.330035 0.182382 0.0479947 -0.473491 -0.795199 -0.378769
-0.0691523 0.205388 -0.451583 -0.251115 0.448184 -0.857947
0.0238968 0.478724 -0.062106 -0.343164 0.920811 0.185324
-0.00600266 -0.119411 -0.408887 0.812874 -0.386988 -0.435288
-0.000133456 0.470651 -0.166233 -0.41476 0.905571 -0.0889707
0.0613684 0.0179344 -0.38264 0.24771 -0.282372 0.926772
0.0610564 0.352581 0.275744 -0.180333 0.681744 0.709017
0.357754 0.0745709 0.145587 -0.564238 -0.475175 -0.675163
0.175445 0.459766 -0.0806918 0.341851 0.933568 -0.107649
0.348079 -0.0277425 0.316749 0.861946 -0.30858 0.402277
-0.0344791 -0.38011 -0.201766 0.812623 -0.456563 -0.362207
0.311099 -0.132354 0.315215 0.839163 -0.386938 0.38221
0.135337 0.305469 0.0513928 -0.506299 -0.86048 -0.0568823
0.319198 -0.109108 0.248232 0.816265 -0.430272 -0.385457
-0.293207 -0.362989 -0.179433 -0.561042 -0.749322 -0.351779
0.00887105 0.132214 0.405617 -0.840032 0.354912 0.410346
-0.355971 -0.32024 -0.020732 -0.928977 -0.320861 0.184526
-0.281208 -0.284866 0.21461 -0.766099 -0.352046 0.537732
0.278068 -0.0053457 0.420358 0.469976 0.0338306 0.882031
0.299443 0.372667 -0.11174 0.879172 0.279475 -0.385941
-0.276352 -0.388083 0.144155 -0.808574 -0.396628 0.434621
-0.0340256 -0.264613 -0.318529 0.803307 -0.456402 -0.382616
0.0412467 0.428404 -0.255068 0.213395 0.811807 -0.543537
-0.0494449 -0.233668 0.171906 -0.839521 0.35279 0.413211
0.0378207 -0.166995 0.287721 -0.1529 0.506058 -0.848838
-0.178201 -0.243807 0.348398 -0.620944 -0.275896 0.733696
-0.266573 -0.00774502 -0.42577 -0.456672 -0.0497931 -0.88824
-0.237562 -0.423725 0.148842 -0.331946 -0.909255 0.251133
-0.130915 -0.283118 -0.135743 0.559164 0.756794 0.338524
-0.0722271 0.263759 -0.420588 -0.197114 0.537423 -0.819953
-0.182102 -0.148977 -0.186576 -0.808738 0.461349 0.364829
0.184632 0.282177 -0.0277647 -0.383903 -0.923304 0.0113204
-0.159788 -0.216052 -0.147306 0.78769 -0.368651 -0.493601
0.26341 -0.225592 0.303084 0.771949 -0.531282 0.349049
-0.382512 -0.253025 -0.122943 -0.973867 -0.227017 -0.00675082
-0.376284 -0.205328 -0.049448 -0.826043 0.386354 0.410346
-0.0244755 0.449126 -0.237847 -0.52003 0.848478 -0.0982587
0.0340845 0.362201 0.217166 -0.838526 0.298628 0.455737
0.00179628 -0.0834946 -0.433943 0.821539 -0.405014 -0.401295
0.26768 -0.0395826 0.424525 0.440668 -0.0540461 0.896041
-0.347998 -0.14993 -0.337431 -0.58358 -0.26759 -0.766701
-0.0361743 -0.0383535 -0.351512 0.379023 -0.0541481 0.923801
-0.187415 0.070395 -0.275918 0.442531 -0.117199 0.889062
0.185462 0.461366 -0.0491232 0.399264 0.908904 -0.120339
0.042839 -0.117848 0.313875 -0.272521 0.397996 -0.875974
-0.106192 0.375306 -0.0803427 -0.819872 0.433638 0.373856
-0.34976 -0.262974 -0.254505 -0.584786 -0.547162 -0.598865
-0.00150101 0.286376 -0.178216 -0.113747 -0.81639 0.566188
0.126955 0.359763 -0.337483 0.118358 0.768011 -0.629405
0.16904 0.233258 -0.217245 -0.167729 -0.856585 0.487985
-0.245144 -0.236014 -0.369184 -0.605442 -0.484184 -0.631668
0.210293 0.106985 0.238703 -0.540682 -0.291569 -0.789082
0.338659 0.368127 0.0897308 0.542604 0.81429 0.206188
0.218948 0.263665 -0.0265217 -0.4046 -0.910522 -0.0851359
-0.121129 -0.0944819 -0.302317 0.406304 0.125657 0.905056
-0.153323 -0.230931 -0.117511 0.822909 -0.404319 -0.399182
-0.254676 0.0267694 -0.245107 0.440618 0.0595657 0.895716
0.138313 -0.365148 0.2842 0.60357 -0.743491 0.287966
-0.325632 0.0759457 -0.225938 -0.81554 0.426409 0.391242
-0.287572 -0.0395144 -0.412165 -0.472968 -0.154092 -0.8675
0.159021 0.293876 -0.0192885 -0.401545 -0.915568 -0.0222849
0.333979 0.0153042 0.193959 -0.52918 -0.289256 -0.797684
-0.294469 -0.0927392 -0.395656 -0.485737 -0.236898 -0.841391
-0.0881699 -0.321983 -0.098196 0.434947 0.886023 0.160575
0.199791 0.246474 -0.166152 -0.381886 -0.865597 0.323891
-0.08259 -0.0391292 0.38177 -0.304281 0.348105 -0.8867
-0.0288706 0.105681 -0.485958 0.374528 -0.0688587 -0.924655
0.0318085 -0.0434656 0.343061 -0.258025 0.256018 -0.9316
-0.170006 -0.0235659 -0.473945 -0.428272 0.00810288 -0.903613
-0.306923 0.165968 -0.287195 -0.812895 0.442605 -0.378555
-0.191542 -0.188442 -0.161929 -0.82562 0.348296 0.443894
-0.0752392 -0.159295 -0.311889 0.574835 0.291847 0.764454
-0.0239096 0.300227 -0.401313 -0.0513185 0.60472 -0.794783
-0.0824323 0.150283 -0.473953 -0.25588 0.338166 -0.905632
0.056315 -0.264844 0.41867 0.146168 -0.566195 0.811208
-0.151457 0.0547113 -0.475002 -0.404039 0.158811 -0.90085
-0.0973929 -0.306527 -0.134883 0.523275 0.805529 0.278039
-0.10973 -0.474482 -0.0750636 0.164609 -0.949515 -0.267069
-0.370676 -0.111245 -0.300351 -0.963615 0.040691 -0.264178
0.356839 0.148728 0.334059 0.516162 0.400123 0.757283
0.0399175 0.000596807 0.348335 -0.453412 0.150657 -0.878476
-0.233339 -0.410468 0.195912 -0.329403 -0.884531 0.3303
0.0493847 0.491198 -0.0812986 -0.29263 0.954924 0.0498871
-0.0559263 0.166456 -0.47563 -0.252125 0.396023 -0.882949
0.238786 0.20448 -0.235317 0.802515 -0.471859 -0.365128
-0.0920243 -0.321806 0.0368558 0.373337 0.913721 -0.160418
0.258995 0.242353 -0.0898674 -0.356165 -0.928232 0.107389
-0.275393 -0.257657 0.215167 -0.832949 0.374722 0.407159
0.159008 0.139718 -0.335151 0.830556 -0.424848 -0.360112
0.282274 -0.0330886 0.234862 -0.46331 -0.0746675 -0.883045
0.219123 0.316081 -0.278049 0.716589 0.303139 -0.628177
0.242133 0.398944 -0.196554 0.821138 0.330303 -0.465438
0.220056 -0.0841532 0.262619 -0.381107 0.132642 -0.914966
0.153481 -0.0554798 0.293837 -0.372177 0.128718 -0.919193
-0.182644 -0.110795 -0.226166 -0.821848 0.393213 0.412249
-0.0422226 0.436117 -0.0130949 -0.824446 0.416517 0.383149
0.0917374 0.0525292 -0.382402 0.800973 -0.369287 -0.471242
0.0866737 0.302877 -0.0899234 -0.799018 0.382713 0.463791
0.259836 0.0432828 0.232424 -0.453444 -0.308215 -0.836297
0.282908 -0.148151 0.35731 0.826553 -0.418399 0.3765
0.303006 0.284485 -0.175146 0.825038 0.347743 -0.445407
-0.35873 -0.121314 -0.341659 -0.970127 0.0356522 -0.239963
0.206032 -0.117505 0.261131 -0.282336 0.170047 -0.944124
0.210425 -0.230241 0.216943 -0.19785 0.481104 -0.854046
0.0806666 0.170302 0.303517 -0.561777 -0.377654 -0.736059
-0.243742 -0.360426 0.220136 -0.79609 -0.316613 0.515748
-0.213717 0.279141 -0.203872 -0.810085 0.376367 0.449567
-0.158625 -0.363658 -0.289919 0.148784 -0.78774 -0.59777
-0.0128337 0.0846741 0.378889 -0.358245 -0.0134245 -0.933531
-0.0338078 -0.35455 -0.225652 0.817938 -0.437064 -0.374102
0.100105 0.324597 0.0359885 -0.446755 -0.894344 -0.0236384
-0.0536597 -0.380992 0.319528 -0.0294226 -0.769067 0.638491
-0.103083 -0.428224 -0.179268 0.214556 -0.892949 -0.395737
-0.352336 -0.0433681 -0.339901 -0.967902 0.0850844 -0.236487
-0.333055 0.016151 -0.362089 -0.914102 0.221279 -0.339785
-0.0707439 -0.475123 0.153337 -0.33588 -0.869975 0.361009
0.0198275 0.379976 0.170308 -0.822097 0.403421 0.401756
-0.145794 -0.383017 -0.264519 0.165005 -0.795645 -0.582857
0.0909851 0.19277 0.418795 -0.191711 0.535531 0.822468
0.0710269 0.478731 0.023559 -0.281358 0.93766 0.204037
-0.234678 -0.440559 0.0263789 -0.388913 -0.919987 0.048685
0.00135413 -0.373238 -0.107535 0.500415 0.863265 0.0660171
0.175522 -0.35214 0.232381 0.605834 -0.739569 0.293263
0.384452 0.102166 0.236907 0.977497 0.0130043 0.210548
0.393167 0.207332 0.0830413 0.979528 0.199291 0.0284426
