ply
format ascii 1.0
comment Created by Open3D
element vertex 512
property double x
property double y
property double z
property double nx
property double ny
property double nz
end_header
0.0122769 -0.300941 0.154384 -0.694865 0.59944 0.397284
-0.0258345 0.431102 -0.117168 0.831467 0.183656 -0.52434
0.0961334 -0.295409 0.00268254 0.369238 0.393986 0.841688
0.0117043 -0.0536749 -0.134443 -0.852807 -0.138893 0.503417
-0.00692253 -0.380134 0.058747 -0.916377 -0.0456172 0.397708
-0.046263 0.257736 0.0842084 -0.836213 -0.182917 0.517001
0.116163 0.0714501 -0.0106628 0.815241 0.284823 -0.50424
0.145418 -0.0836565 -0.00419153 0.815548 0.276729 -0.508235
0.0946433 0.24511 0.151344 0.103268 0.652281 0.75091
0.135227 -0.304963 0.144473 0.543578 0.612645 -0.57375
0.0188252 -0.335271 -0.00245485 0.20156 -0.502904 -0.840513
-0.0638039 0.509944 0.113767 -0.694374 0.254375 0.673155
0.212216 -0.350367 0.11071 -0.0659432 0.551606 0.831494
0.114716 -0.156821 0.19953 -0.851652 -0.133962 0.506698
-0.0292364 0.524801 0.0663266 -0.106805 0.932969 0.343745
0.220876 -0.154708 0.203587 0.413514 0.0697321 0.907823
-0.106654 0.144332 0.0916403 -0.170389 0.443471 0.879944
-0.0562218 -0.200722 0.0817366 -0.936941 0.137874 0.321143
-0.07468 0.123921 -0.18161 -0.9266 -0.00553595 0.376007
-0.161088 0.377869 -0.135515 -0.639217 -0.159258 -0.752356
0.00255899 0.00887078 -0.122865 -0.878816 -0.47039 0.0801004
0.105045 0.0868291 0.204457 0.729691 0.168393 0.662718
0.218334 -0.295454 0.0101064 0.834248 -0.281939 -0.473858
0.235264 -0.429734 0.16351 0.294837 -0.954803 0.0377084
-0.153872 0.105855 0.000333064 -0.859136 -0.0247008 0.51115
0.0491136 0.388135 0.137467 0.677222 0.224688 0.700633
0.0229827 0.395143 -0.0598421 0.869674 0.0462296 -0.491458
0.306068 -0.420605 0.159641 0.695651 -0.298273 -0.653531
-0.0521934 0.286539 -0.250387 0.92733 0.0676633 -0.368076
0.23 -0.212192 0.115678 -0.0663206 -0.716425 0.694505
0.263872 -0.433992 0.0604584 0.878276 -0.315367 -0.35941
0.010078 0.453593 -0.0907892 0.589413 0.226062 -0.775557
0.285216 -0.390501 0.124549 0.896474 0.0817302 -0.435494
-0.0179119 0.155904 0.0989514 -0.995035 0.0906639 0.0410571
-0.133949 0.0392598 -0.0480347 -0.426509 -0.277981 -0.860707
0.243843 -0.37928 0.136826 -0.0129144 0.991849 -0.126766
-0.189801 0.447895 0.0151398 0.227634 0.906526 0.355519
-0.0519712 0.479163 -0.148553 -0.544846 0.782831 -0.300532
0.0691317 0.323569 0.151052 0.249365 0.641689 0.725294
0.0170257 -0.444947 0.0154994 -0.414362 -0.30502 -0.857477
0.085068 -0.0713289 0.186877 -0.782185 -0.313527 0.538411
0.109377 0.119562 0.188649 -0.281953 0.579496 0.764648
0.0350878 -0.0375094 0.121687 -0.896135 -0.0721841 0.437872
0.283677 -0.268459 0.198694 -0.301655 -0.0425297 -0.952468
0.200628 -0.119671 0.0550996 0.872534 -0.139436 -0.468233
-0.0674484 -0.172004 0.0695893 -0.839452 -0.193354 0.507872
0.0931783 0.186282 -0.00547255 0.634386 0.516217 -0.575391
-0.192247 0.152223 -0.0343399 -0.996798 -0.0793057 -0.010188
0.171483 -0.278079 -0.035205 0.840563 -0.225337 -0.492622
0.20191 -0.460779 0.0614651 0.136863 -0.96583 0.220094
0.0797697 0.172852 0.173223 0.219953 0.111323 0.969138
-0.0374482 0.379198 0.041334 0.827359 0.265308 -0.495065
0.112675 -0.0188527 -0.0499547 0.829375 -0.475706 -0.292988
-0.0208469 0.470975 0.0531905 0.00664312 -0.8098 0.586668
0.0500979 0.261114 -0.0888982 0.861431 -0.110762 -0.495649
-0.149198 0.381211 -0.216558 -0.61667 -0.53473 0.577738
0.107489 -0.352413 0.0337927 0.847681 0.491754 0.199037
0.151765 -0.337012 -0.0929177 0.682329 0.498351 -0.534858
0.107567 -0.505781 0.0741468 0.246227 -0.951615 0.183849
0.0619731 -0.119961 0.14644 -0.607209 -0.298837 0.736202
-0.131954 -0.0200657 0.0179416 -0.794613 -0.223696 0.564403
-0.00202887 -0.133952 0.112846 0.32049 0.550979 0.770525
0.220314 -0.27476 0.0528673 0.898932 -0.115027 -0.422718
-0.154149 0.293561 -0.0689054 0.392924 0.852407 -0.344981
-0.113023 0.465064 -0.115041 -0.0295736 0.930789 -0.364357
-0.0808182 -0.0438273 0.110739 -0.651271 0.0110099 0.758765
0.0588586 0.537744 0.0600886 0.313207 0.921451 -0.229848
0.0597923 0.101959 0.204523 -0.384976 -0.0875539 0.918764
0.151917 -0.279277 0.0992766 0.014676 -0.0466596 0.998803
-0.168629 0.324325 -0.0350957 0.492119 0.198899 0.847501
-0.00762215 -0.246854 0.123696 -0.947357 0.260449 0.18623
0.0202537 -0.210466 -0.153056 -0.861792 0.0392351 0.505743
0.0440628 0.200798 0.177039 0.660481 -0.0473965 0.749345
-0.0648389 0.0223346 -0.228325 -0.860908 0.00645845 0.508719
-0.209527 0.243054 -0.0499086 -0.90493 -0.394576 -0.159408
0.17019 -0.415453 0.227905 -0.83785 -0.178435 0.515916
0.190837 -0.126212 0.229 0.466985 0.264765 0.843697
0.196339 -0.437075 -0.0421874 0.83158 0.214336 -0.512381
0.0417162 -0.274649 -0.124756 -0.375618 -0.699925 0.607466
-0.0764465 0.344033 -0.0946611 -0.581981 -0.640466 0.501101
0.136099 -0.392945 0.0448775 -0.570969 0.113834 0.813042
0.0931069 -0.302789 0.111777 -0.581646 -0.248709 -0.774488
-0.00541844 0.49281 -0.122043 0.821116 0.272771 -0.501362
-0.227546 0.39769 -0.0435926 0.255533 0.420514 0.870557
0.0612758 0.294041 -0.0574425 0.946584 0.105792 -0.304609
-0.0488098 0.335809 0.0267714 0.805119 0.250722 0.537514
0.0237741 0.148786 -0.159359 0.847258 0.166609 -0.504376
0.131321 0.205212 0.150722 0.614356 0.215607 0.758999
0.114884 0.197379 0.0239946 0.713689 0.444133 -0.541658
-0.0423833 -0.22565 -0.00382726 -0.460032 -0.256426 -0.850068
0.0186488 0.543357 -0.00727413 -0.703113 0.367353 0.608838
0.100717 -0.238954 0.172266 -0.957183 -0.136744 0.255151
0.0623505 -0.299329 0.126612 0.5475 0.184484 0.816217
0.0313644 0.061555 -0.187723 0.977434 -0.195295 -0.0805114
-0.0234592 -0.395347 0.0211581 -0.570282 -0.245734 -0.783833
0.158505 0.03803 0.19323 0.253895 0.66603 0.701385
-0.0784397 -0.118175 0.0625614 -0.893276 -0.0887387 0.440663
0.201839 -0.242096 0.0948306 0.27341 -0.433326 0.858764
-0.0950441 0.323314 -0.173425 -0.892491 -0.0701954 0.445569
-0.256152 0.431274 -0.0283739 -0.898715 0.434907 0.0562818
-0.226364 0.305043 -0.0452546 -0.846767 -0.165929 0.505423
0.0578732 -0.499816 0.119364 -0.412677 -0.7011 0.581512
0.0914958 -0.0671504 0.221808 -0.737441 -0.0371188 0.674391
-0.0985769 0.256696 0.00648862 -0.101213 0.948778 -0.299292
-0.112613 0.457747 0.038874 -0.831272 -0.17735 0.526815
-0.0839789 0.450142 0.107803 -0.954267 -0.0158911 0.298533
0.24136 -0.160928 0.115141 0.968271 -0.0292881 -0.248181
-0.124029 0.281961 -0.229783 -0.721849 -0.264069 0.639689
-0.0180396 -0.349326 0.0828738 -0.854943 0.202674 0.477489
0.000136786 0.156955 0.144564 -0.900551 0.121797 0.417341
-0.0349408 -0.296988 0.063972 -0.968206 0.021782 0.249204
0.120526 -0.379833 0.16096 -0.848411 -0.159024 0.504887
-0.0517599 -0.0686099 -0.219567 -0.991924 -0.0682762 0.10689
0.127655 -0.38113 0.192815 -0.592321 -0.338277 0.731249
-0.0765636 0.119925 0.0814665 0.745831 0.333856 0.576435
0.0199224 -0.478549 0.0879653 -0.78753 -0.585781 0.191461
0.251394 -0.094976 0.167082 0.592236 0.442663 0.673281
0.026397 -0.357466 0.150775 -0.58206 -0.422978 0.694475
-0.0899466 0.494426 0.0190152 -0.620565 0.783816 -0.023046
0.0315885 0.0855002 0.156492 -0.955878 0.268641 0.118871
0.100449 -0.463927 0.137553 0.247141 0.0325921 0.968431
0.21583 0.0317415 0.106433 0.845445 -0.416477 -0.33432
0.020999 0.475894 -0.0409221 0.702806 -0.582595 -0.408224
0.191518 -0.422404 0.236805 -0.591809 -0.686984 0.421681
-0.0722414 0.192657 0.0571554 0.292226 0.233164 0.927491
0.0520224 -0.443209 -0.0116618 -0.498392 -0.219811 -0.838623
-0.00300751 -0.00197521 -0.265607 0.667722 0.312444 -0.675667
0.117943 -0.250449 -0.126521 0.795355 0.235398 -0.558568
0.0687177 -0.0946367 -0.162056 0.85538 0.155042 -0.494254
-0.112794 -0.0055494 0.0830159 -0.653931 -0.696428 0.295573
0.0302105 0.335893 -0.0538336 0.865058 0.145742 -0.480035
0.123902 -0.464329 0.00539965 -0.816331 -0.531322 -0.226496
0.0206946 -0.405532 0.0812259 0.200545 0.063242 0.977641
0.192737 -0.317964 0.25983 -0.0262147 0.0850612 0.996031
-0.114802 0.183209 -0.261402 -0.990872 0.056412 -0.122438
-0.0318325 -0.0453948 -0.179878 -0.791317 -0.246108 0.559686
0.227641 -0.175158 0.0666585 0.927543 -0.281782 -0.245483
-0.144838 0.31429 0.022777 -0.703088 0.19062 -0.685077
0.0177251 0.359469 -0.0921236 0.55848 0.679657 -0.47557
-0.0679469 -0.118306 -0.0337462 -0.454193 -0.261129 -0.851775
0.0552615 -0.0175566 -0.162469 0.875351 0.0448154 -0.481407
-0.0630637 0.225724 -0.156653 -0.87221 0.203229 0.444913
0.21498 0.0556944 0.149682 0.75993 0.315139 0.568501
0.111955 -0.466031 -0.106307 -0.722421 -0.669134 0.174264
-0.0167026 -0.0430053 0.0966639 0.437028 0.241816 0.866332
0.108619 -0.281163 -0.169713 0.851656 -0.303386 -0.427363
-0.0429834 0.316836 -0.0309524 -0.427561 -0.347145 -0.834675
-0.153105 0.43034 -0.131325 -0.182626 0.239084 -0.95367
0.169462 0.138475 0.155046 0.473808 0.246627 0.845388
-0.138437 0.143759 -0.0851496 -0.281268 -0.609758 -0.741002
0.100765 0.460057 0.052033 -0.0445747 -0.662729 -0.747532
0.203318 -0.303834 0.0926168 0.478629 0.376973 0.792973
-0.114898 0.194812 -0.100841 -0.525421 -0.284593 -0.801835
-0.0604407 -0.00581616 -0.244281 -0.595188 -0.378306 -0.708968
-0.00617848 0.450236 -0.00413726 0.0399561 -0.361537 0.931501
-0.197849 0.27661 -0.00673933 -0.118107 0.567982 0.814522
-0.115058 -0.101993 0.0377669 -0.598388 -0.57567 0.557257
-0.114697 0.0876369 -0.0711888 0.00807347 -0.406194 -0.913751
0.19888 -0.364388 0.265211 -0.734856 -0.20532 0.646398
0.242085 -0.328822 0.058346 0.753458 0.461268 -0.468544
0.177832 -0.477282 0.00222995 0.397353 -0.916005 -0.0551931
-0.208564 0.356451 -0.0188235 -0.932477 -0.0436045 0.358587
0.22321 -0.367211 0.173177 -0.106673 0.940063 -0.323887
-0.0961421 -0.18129 0.0276234 -0.8298 -0.188382 0.525305
-0.0308649 0.333244 0.14783 -0.794563 -0.261016 0.548215
0.0941007 -0.0389001 -0.0972219 0.957138 -0.146924 -0.2496
0.0942922 0.0553369 -0.0580568 0.554346 0.66615 -0.498944
0.146934 -0.00519999 -0.00817622 0.698081 0.325275 -0.637871
-0.0499222 0.529806 0.0718949 -0.476023 0.869153 0.134068
-0.124391 0.224486 0.0629116 -0.0298909 -0.364786 0.930611
0.0738774 -0.442141 -0.147104 -0.978157 -0.201936 -0.0492981
0.0815946 -0.0427851 0.179487 -0.902242 0.157546 0.401421
0.263307 -0.173341 0.182876 0.873092 0.474339 -0.11275
-0.0241508 0.495672 0.13823 0.158152 0.719269 0.676491
0.208644 -0.168914 0.0400021 0.888587 0.0945818 -0.448852
0.106675 -0.0919175 -0.0904314 0.91315 0.0456329 -0.40506
-0.017715 -0.130282 -0.212074 -0.900266 -0.0657851 0.430341
-0.105058 0.134419 -0.248034 -0.724103 -0.418632 0.548107
0.132971 -0.319141 0.070919 -0.435835 -0.160053 -0.885681
0.111366 -0.208517 -0.126517 0.867893 0.149477 -0.473727
-0.0385265 -0.259769 0.0989948 -0.693683 -0.459745 0.554472
-0.0398814 0.519011 0.028747 -0.253651 0.950636 -0.178752
-0.0210876 0.419677 0.153781 0.197457 -0.00174737 0.98031
0.0189266 0.333559 0.168031 0.741608 0.298198 0.600912
0.209607 -0.381999 -0.0318546 0.877565 -0.335007 -0.343
0.0496723 0.207606 -0.0649685 0.700543 0.363428 -0.614134
0.0234824 -0.17733 -0.22145 0.284396 0.302294 -0.909801
-0.0108457 0.240885 0.129599 -0.733895 -0.332866 0.592114
0.185417 -0.215926 0.0201995 0.628144 0.734677 -0.25629
-0.112907 0.369971 -0.274347 0.562041 0.393503 -0.727507
0.318811 -0.387974 0.190899 0.866121 -0.416248 0.276717
0.00859724 -0.0943263 0.0869034 -0.264772 0.548743 0.792955
0.142248 0.0964157 0.0282614 0.91601 -0.0204815 -0.400633
-0.0907258 0.139042 -0.107054 -0.302116 -0.319514 -0.89813
0.132363 -0.39365 -0.144441 0.803319 0.201215 -0.560528
0.197905 -0.302561 0.216058 -0.545283 0.0696305 -0.835355
-0.0699696 0.431936 0.0947215 0.2844 -0.861028 -0.421601
-0.153738 0.198337 0.0209958 -0.708841 -0.374746 0.597587
0.254841 -0.356682 0.0445948 0.800487 0.238405 -0.549894
0.0181938 -0.147521 -0.133469 -0.777958 -0.292007 0.556339
0.17202 -0.351666 -0.0531871 0.823812 0.272391 -0.497128
0.0131878 -0.198618 0.127484 0.476742 0.253752 0.841621
0.0036147 0.462225 0.1289 0.268327 0.27364 0.923646
0.152497 -0.253791 0.207494 0.107071 -0.98661 0.123027
-0.102516 0.460726 -0.14371 -0.242651 0.852288 -0.463385
-0.145063 0.394819 -0.0464707 0.586627 -0.299475 0.752452
0.0911883 -0.328032 -0.195973 0.886024 -0.276299 -0.372317
0.00604806 -0.227869 -0.211603 -0.135581 -0.587597 -0.797714
-0.106827 0.313467 -0.295013 -0.30183 0.0576719 -0.951616
0.223884 -0.33988 0.247193 0.917653 -0.024653 -0.396617
0.113513 0.280333 0.0521501 0.988566 -0.0684167 -0.134375
0.232936 -0.439608 0.0856103 0.278409 -0.95014 0.140436
-0.00280484 0.275024 0.156705 -0.714889 -0.352735 0.603748
0.0924782 -0.444667 -0.0274205 -0.282071 -0.362917 -0.888103
0.0447471 -0.0739292 0.152386 -0.880867 0.0387971 0.471771
0.176296 -0.0429673 0.0327577 0.245489 0.201328 -0.948263
-0.0301913 -0.163438 -0.0482364 -0.543032 -0.240316 -0.804589
0.177178 0.0606668 0.0951471 0.913954 0.0505057 -0.402663
0.149003 -0.122154 -0.0489016 0.943192 -0.0161562 -0.331855
-0.237274 0.375512 -0.101339 -0.466232 -0.409131 -0.784372
0.0695443 -0.374182 0.0121486 -0.706065 0.652445 0.275296
0.115181 -0.146027 -0.0914199 0.878264 0.0883483 -0.469943
-0.195081 0.198772 -0.0537018 -0.718231 -0.373954 -0.586774
-0.0189511 -0.197687 -0.205755 -0.802826 -0.587955 -0.0988966
-0.0455677 -0.130008 0.106493 -0.884705 -0.0368902 0.46469
-0.227142 0.422769 -0.0675463 -0.75475 0.495919 -0.429438
0.133883 0.0401511 0.00604229 0.721255 0.253623 -0.644566
0.0585282 -0.380454 -0.184039 -0.927969 -0.129053 -0.349599
-0.157949 0.256546 -0.0926639 -0.0905745 -0.180498 -0.979396
-0.086255 0.265179 -0.0581686 0.658707 0.273312 0.701003
-0.132109 0.030548 0.0289788 -0.230234 -0.573851 0.785931
0.109171 -0.395456 -0.0713817 -0.807438 -0.487647 0.332031
0.156644 -0.139423 0.243051 0.339815 -0.0512087 0.939097
0.0822921 0.250611 -0.0225081 0.768519 0.300124 -0.565069
0.0623144 -0.245407 -0.110635 -0.919433 -0.0451323 0.390648
0.104873 -0.253474 0.0777857 0.000566944 -0.559461 -0.828857
-0.0148955 0.252168 -0.156667 0.899969 -0.034662 -0.434574
0.114452 -0.187853 0.232225 -0.777296 -0.241078 0.581113
0.208226 -0.0125473 0.166134 0.722971 0.304334 0.620236
-0.0712128 0.0657482 -0.207079 -0.719571 -0.266396 0.641289
-0.108537 0.455709 -0.219328 -0.461926 0.84545 -0.268028
-0.0147842 -0.42915 0.0798038 -0.817117 -0.327635 0.474315
0.0971198 -0.164051 -0.153192 0.813588 0.266897 -0.516567
0.17771 -0.129038 0.00919939 0.569071 0.58955 -0.573226
0.122509 0.0136772 -0.0289727 0.930666 0.0528712 -0.362029
-0.0365822 0.11219 -0.282823 0.621221 -0.0958602 -0.77775
-0.0513231 -0.300782 0.00870286 -0.575242 -0.24021 -0.781918
-0.0244169 -0.00539065 -0.160261 -0.859738 -0.0700155 0.505914
-0.0373909 0.229629 -0.220345 0.746755 0.199753 -0.634394
-0.0347182 0.193644 0.0988994 -0.891117 -0.13337 0.433732
0.168523 -0.487494 -0.0909019 0.274433 -0.957374 -0.0901192
-0.027861 0.335326 0.0629045 0.555684 0.323607 -0.765829
0.158877 -0.480362 0.0395757 0.438042 -0.890755 -0.121137
-0.00303337 -0.136867 -0.0693353 -0.381728 -0.374829 -0.844859
0.00621559 0.0805888 -0.222326 0.893672 0.1016 -0.437068
0.27593 -0.420077 0.133463 -0.273163 -0.89694 0.347679
-0.200323 0.397593 -0.097817 -0.392681 0.0298756 -0.919189
0.0737094 -0.184254 0.155028 -0.844387 0.436291 0.310904
-0.140347 0.48392 0.00123751 -0.44824 0.877768 -0.169131
0.148398 -0.412475 -0.104165 0.864352 -0.433275 0.255283
0.0832479 0.13724 -0.0364776 0.930615 -0.0177399 -0.36557
0.0254828 -0.369301 0.0743389 0.54347 0.239686 0.804482
-0.0862989 0.406034 -0.0468035 0.212256 -0.974603 -0.0713948
-0.114887 0.438528 -0.178806 -0.955241 -0.133627 -0.263928
0.141256 -0.463588 -0.0533043 -0.831387 -0.287344 0.475636
-0.054615 0.444333 -0.196225 0.711606 0.402057 -0.576165
0.115468 -0.10157 0.223726 -0.764636 0.00972664 0.644389
0.158004 -0.156622 -0.0307635 0.920318 -0.306704 -0.242792
0.0102817 -0.175823 -0.052106 -0.650287 -0.220874 -0.726871
-0.0643401 -0.248724 0.0442687 -0.84229 -0.180962 0.507741
0.0459982 -0.411401 0.146732 -0.401997 -0.194704 -0.8947
0.016534 0.216322 0.17305 -0.665496 -0.550959 0.503546
0.0601359 -0.138147 -0.168863 0.557093 0.37252 -0.74221
-0.144519 0.299418 -0.270121 -0.703306 0.633298 0.322947
0.233331 -0.246997 0.225771 -0.0807574 -0.549296 -0.831716
0.047499 0.141439 0.186417 -0.67081 -0.28999 0.682583
-0.162752 0.479339 -0.0408995 -0.512072 0.857309 0.0529489
0.173225 -0.248232 -0.0342277 0.865638 -0.462939 -0.190679
0.0451849 0.119975 -0.0945828 0.886769 -0.0837853 -0.454555
-0.155058 0.240451 -0.00994824 -0.282776 0.950327 -0.130065
0.018463 -0.262111 -0.172576 -0.71209 -0.388645 0.584708
-0.0785749 0.321016 0.0592959 -0.865406 -0.00528131 0.501043
0.134632 -0.251215 0.148656 0.843253 0.17862 -0.50697
0.0134497 -0.0190082 -0.210646 0.756606 0.389676 -0.525072
-0.087457 0.352347 0.0602487 -0.730319 -0.444518 0.518689
0.0970296 -0.138978 -0.114333 0.974213 -0.204451 -0.0954447
0.102991 -0.411101 -0.198039 0.577606 -0.585226 -0.569107
-0.203775 0.413371 -0.00284258 -0.833378 -0.281849 0.475439
0.0989774 -0.389125 0.117016 -0.501963 0.362429 -0.785288
0.0424356 0.024196 0.140636 -0.963069 0.268608 0.0186511
0.300666 -0.233375 0.172116 0.334444 -0.690529 -0.64134
0.017421 -0.0998596 -0.23542 0.708463 0.150369 -0.689542
0.121236 -0.425376 0.154198 -0.778272 0.0548917 0.625523
-0.13627 -0.0115048 -0.017015 -0.672362 -0.321784 -0.666622
-0.00852152 0.200198 -0.166106 0.922968 0.139116 -0.358854
-0.122191 0.363597 -0.157194 -0.684501 -0.0801616 -0.724591
0.0761676 0.201653 -0.0412687 0.931911 -0.0586966 -0.357906
0.0226846 -0.317366 -0.174185 -0.76305 -0.594746 0.253047
-0.00819462 -0.15534 -0.231781 -0.140607 -0.567263 -0.811445
-0.122936 -0.0551569 -0.0356684 -0.476334 -0.240958 -0.845603
-0.0379871 0.0607299 -0.105644 -0.689573 -0.250985 -0.679334
0.0472061 -0.173453 0.112023 -0.663989 -0.284672 0.691433
0.0442534 0.335871 -0.00278274 0.159917 0.707846 0.688027
0.269426 -0.353578 0.0860204 0.977847 -0.0982722 -0.18482
0.127239 -0.289392 0.0426775 -0.593414 -0.623509 0.509015
0.272768 -0.197217 0.151707 0.909003 0.125544 -0.397431
-0.102923 0.274423 -0.202909 -0.942287 -0.131664 0.30783
-0.195493 0.225529 -0.0309879 -0.938486 0.259211 0.228154
0.0870713 -0.397644 -0.126955 -0.886127 0.417992 -0.200155
0.0204634 0.0226137 -0.205448 0.842412 0.177347 -0.508813
0.0384751 0.204168 -0.114438 0.77061 0.325455 -0.547941
0.0198623 0.301345 0.0705131 -0.178861 0.977718 -0.10989
0.148118 -0.335257 0.165175 -0.0432534 0.726039 0.686292
-0.047745 0.311768 0.10599 -0.882182 0.178486 0.435772
-0.15268 0.347882 -0.283606 0.160061 0.0036399 -0.9871
0.192682 -0.337439 -0.0124405 0.773232 0.270534 -0.573519
0.0427703 -0.141525 -0.227469 0.861089 0.0948921 -0.499521
-0.103205 0.23679 -0.224133 -0.914084 -0.00662129 0.40547
0.0984977 0.336081 0.0724094 0.882845 0.116487 -0.454989
-0.0094438 0.125148 0.0965391 -0.463147 -0.651385 0.600993
0.0587477 -0.474846 0.0202623 0.200095 -0.866977 -0.456413
-0.127151 0.0880507 0.0482061 -0.859998 -0.156525 0.4857
-0.130641 0.334243 -0.234392 -0.854733 -0.113308 0.50655
0.240089 -0.121856 0.140974 0.814484 -0.277571 -0.509481
-0.0792125 0.266861 -0.274933 0.522459 0.497793 -0.692271
0.021314 -0.437381 0.106441 -0.669807 -0.523598 0.526501
0.0881178 -0.0084813 -0.0762003 0.892707 0.152962 -0.423883
0.0860938 0.0986806 -0.0604952 0.795738 0.312912 -0.518543
0.160325 -0.263912 -0.0817484 0.940422 0.0602495 -0.334629
-0.0321231 0.0457318 0.08417 -0.402868 -0.0555308 0.913572
0.0827029 -0.219938 -0.173663 0.944666 -0.269433 -0.187115
0.0655905 -0.343668 0.132255 0.828405 0.291897 -0.478061
-0.0422513 -0.102062 -0.0566604 -0.189815 -0.376794 -0.90664
-0.107373 0.313068 -0.122844 -0.317693 -0.237349 -0.918007
0.0879706 -0.30532 -0.0806406 -0.881095 -0.217686 -0.419861
-0.0855204 0.168277 -0.284494 -0.529317 0.473484 -0.704015
-0.0113024 0.300598 -0.156821 0.892118 0.0608675 -0.447684
0.18978 0.0280269 0.0578873 0.532899 0.640468 -0.553009
-0.0712095 0.369347 0.00575656 -0.188127 -0.536402 -0.822728
-0.0208227 0.391671 0.000879825 -0.51574 -0.107096 0.850025
-0.13651 0.365883 0.0252766 0.790717 -0.571361 -0.2198
0.134672 -0.463167 0.156117 -0.121737 -0.909514 0.397448
0.0596116 0.42697 0.127266 -0.662693 0.311952 -0.680826
0.0917349 0.245769 0.00916448 0.810981 0.261688 -0.523287
0.0652792 0.325957 0.096599 -0.599695 0.781945 0.170083
-0.191017 0.452255 -0.0828963 -0.901227 0.43084 0.0465488
-0.179612 0.306168 0.0651899 -0.939669 0.322596 0.113817
-0.0914078 0.264014 -0.154248 -0.490451 -0.808538 0.325153
0.263987 -0.335044 0.201528 -0.372483 0.493565 -0.785907
-0.0657099 0.0503943 -0.0617215 -0.415003 -0.23208 -0.879722
0.297801 -0.347089 0.155656 -0.336478 0.821826 -0.459767
-0.105082 0.422151 -0.0292441 -0.39006 -0.255912 -0.884512
-0.108619 0.34528 0.0319242 -0.465643 -0.198432 -0.862439
-0.0444955 0.149038 0.0661785 -0.449232 -0.609942 0.65281
0.13174 -0.238707 0.215347 -0.688137 -0.335015 0.643609
0.286622 -0.376862 0.229364 0.515884 -0.240185 0.822299
0.214347 -0.454919 0.0236111 0.409889 -0.91211 -0.00678328
0.00593823 0.333785 0.0958993 0.70171 0.277189 -0.65633
-0.0789033 0.178345 -0.175731 -0.767516 -0.373856 0.520721
0.225986 -0.0619884 0.107997 0.791124 0.202603 -0.577126
0.0633028 -0.363365 -0.0274247 -0.922924 -0.132171 -0.361583
-0.0945378 -0.117239 -0.0139367 -0.649641 -0.264177 -0.712865
0.145418 -0.291097 0.229602 -0.79798 -0.228355 0.557747
0.0721865 -0.219233 0.125285 -0.799738 -0.0477336 0.598449
-0.0963472 0.405257 0.0673467 -0.946339 -0.0146459 0.322842
0.181383 0.105039 0.129505 0.971718 0.103505 -0.212253
-0.12067 0.408005 -0.0886336 0.808106 0.559576 0.183958
0.319654 -0.282768 0.19409 0.675308 0.213852 -0.705852
-0.0472845 0.298427 -0.199515 0.936583 -0.0966421 -0.336856
-0.00233652 0.127248 0.143001 -0.844186 -0.176884 0.506026
0.138191 0.279296 0.107877 0.569053 -0.646346 -0.508346
-0.0871264 0.413998 -0.225118 0.880303 0.125057 -0.457632
0.186114 -0.472884 -0.0384642 0.255225 -0.938405 0.232929
-0.209878 0.283326 -0.0722724 -0.586931 -0.172445 -0.791059
-0.0515694 0.205862 -0.285136 0.845798 0.167868 -0.506405
-0.0377246 0.0637955 -0.274042 0.195531 0.566057 -0.800842
-0.028591 0.0110457 0.0765096 -0.352308 0.296664 0.88762
0.00661299 0.398515 -0.117383 0.957 -0.207107 -0.203121
0.0626284 -0.303569 -0.222632 -0.0904525 -0.0856424 -0.992212
0.190819 -0.243217 0.0193633 0.830145 0.217226 -0.513491
0.246654 -0.406859 0.260367 0.138939 -0.613712 0.777209
0.136325 -0.393087 0.0923721 -0.413549 0.908951 -0.0527686
0.161742 -0.32753 0.105541 0.682837 0.461824 0.566085
-0.0932267 0.21137 -0.294465 -0.492142 -0.209857 -0.844841
-0.0682393 0.250422 0.0631501 -0.819027 0.198585 0.538293
-0.0398399 0.168667 -0.133144 -0.795615 -0.553776 -0.24562
0.0987278 -0.331213 0.164968 -0.87292 -0.0686082 0.483015
-0.0773587 -0.085277 -0.0449905 -0.424548 -0.287027 -0.858705
-0.149207 0.394688 -0.245936 -0.698198 0.592851 -0.401306
0.000527038 0.360554 -0.0355051 0.449853 0.283167 0.847023
1.11802e-05 0.112927 -0.193492 0.476301 0.550201 -0.685869
0.0678465 0.325495 0.00600366 -0.0918356 0.979888 0.177162
-0.124916 0.221365 -0.110955 -0.491637 -0.0125751 -0.87071
0.161133 -0.407102 -0.0852197 0.419247 0.66339 -0.619794
0.113 -0.432395 -0.169481 0.265752 -0.316758 -0.910516
0.0234495 -0.0972751 -0.126064 -0.943239 0.197998 0.266641
-0.0914222 -0.0302803 -0.0546616 -0.302672 0.0556017 -0.951471
-0.126391 0.354704 -0.0916424 0.596872 -0.57479 0.559786
-0.0549537 0.32981 -0.206494 0.939715 -0.112467 -0.322935
0.204441 -0.457941 -0.0287971 0.614626 -0.788682 0.0146948
0.106022 0.00220278 0.214487 0.680162 0.157788 0.715879
-0.0803309 0.514647 -0.0136669 0.0830702 0.977779 -0.192476
0.015826 0.284792 -0.116619 0.672202 0.430258 -0.602514
0.204097 -0.0261644 0.079149 0.8623 0.0832137 -0.499513
0.25137 -0.338765 0.248929 0.479449 0.224978 0.848242
0.00518147 -0.156328 -0.183813 -0.908998 0.0292503 0.415772
0.10063 0.333208 0.133238 0.528138 0.0599333 0.847041
-0.00945705 -0.469799 0.0511172 -0.754817 -0.472771 -0.454686
-0.0301905 0.399482 -0.159132 0.431088 0.876928 -0.212511
-0.0574831 -0.00033368 -0.0874083 -0.64865 -0.10335 -0.754037
0.143106 0.224606 0.0895056 0.711974 0.276973 -0.645274
-0.0836624 -0.209978 -0.0143103 0.198996 0.0470969 -0.978868
0.0418716 -0.449314 0.1527 -0.309699 -0.251862 0.916871
0.0838569 -0.145769 0.167592 -0.869021 -0.0526649 0.491965
-0.0225343 0.11765 -0.237092 0.955138 -0.0982914 -0.279375
0.0496494 -0.331128 -0.00589573 0.356396 -0.870757 0.338768
-0.0388462 0.0486107 -0.160421 -0.751052 -0.322375 0.57619
0.0660648 -0.24088 -0.22346 0.772227 0.204394 -0.601571
0.175272 -0.374877 0.161799 0.085354 0.842626 0.531691
0.0601562 -0.311358 -0.127099 -0.843361 -0.17577 0.507787
-0.112415 0.239525 -0.0292553 -0.365371 0.930093 0.0378281
0.164927 -0.221362 0.160691 0.471767 -0.868506 -0.152096
0.0506261 0.0433038 0.189399 -0.893613 -0.134742 0.428136
-0.00217231 -0.0779738 -0.156323 -0.944809 0.0874732 0.315728
-0.125608 0.268345 -0.290131 -0.682343 -0.109982 -0.722711
-0.0411967 0.35003 -0.0666902 -0.582976 -0.630919 0.511938
0.183883 -0.452058 0.171638 0.123295 -0.800018 0.587171
0.00664286 0.0847928 0.112205 -0.782061 -0.233071 0.577979
-0.00286895 0.32493 0.0374045 -0.0562257 0.908959 0.413076
-0.00854222 0.399613 0.111085 0.954459 -0.176868 -0.240262
-0.0312133 -0.0530626 -0.0738207 -0.345446 -0.512034 -0.78644
0.147838 0.170407 0.0518817 0.820521 0.202464 -0.534559
0.133999 -0.290219 -0.121964 0.54959 0.537994 -0.63915
0.0534381 -0.207338 -0.111703 -0.323921 -0.665048 0.672894
-0.222221 0.441449 -0.00440038 -0.638441 0.75393 0.154863
0.0485214 0.15785 -0.122137 0.988783 -0.0416041 -0.143451
0.170023 0.113992 0.073248 0.856245 0.162816 -0.49024
-0.0242857 -0.18521 0.128116 -0.757464 -0.148994 0.635649
-0.0909459 0.0995612 -0.210998 -0.784391 -0.294981 0.545635
0.0529692 0.0175615 -0.121481 0.526466 0.54118 -0.655712
0.0755511 -0.426334 0.0523316 0.336184 0.458879 0.822442
-0.0250827 0.510122 -0.0622521 0.185316 0.88351 -0.430196
-0.121628 0.493908 -0.0567862 -0.416596 0.897898 0.142223
-0.167169 0.405514 -0.00624145 -0.162512 -0.755344 0.634859
-0.211331 0.33579 -0.0723472 0.75631 -0.598144 -0.264989
-0.0732451 0.303634 -0.0972411 0.511451 -0.115166 0.85156
0.161618 -0.336501 0.222476 -0.590525 0.718981 0.366532
-0.142509 0.25889 -0.121763 -0.508222 -0.243157 -0.826187
-0.203197 0.472137 -0.0485389 -0.199774 0.940187 -0.275931
-0.0712928 0.379486 -0.227697 0.840899 0.180799 -0.510098
0.249573 -0.0394208 0.145742 0.759769 0.648671 0.0444758
-0.0743721 0.328593 -0.25482 0.81466 0.319427 -0.484042
0.0455523 0.0864414 -0.144946 0.927929 -0.197329 -0.316243
-0.135023 0.191833 -0.0879121 -0.638105 0.373498 -0.673291
0.174499 -0.171253 0.237476 0.564061 0.172218 0.807574
0.209983 -0.0620848 0.190723 0.484986 0.253446 0.836991
0.151111 -0.453641 0.0809248 0.515677 -0.856439 0.0242793
-0.0701332 0.0479765 -0.23444 -0.995004 0.0925517 -0.0374245
0.0158586 0.337552 -0.104469 0.89736 0.0869201 -0.432654
-0.117003 0.275931 0.0271389 -0.572455 -0.293035 -0.765785
0.0308083 -0.154552 -0.0965124 -0.929376 -0.319875 -0.184229
0.0321199 -0.327792 0.0578243 0.938657 0.233955 0.253355
0.254673 -0.214817 0.200371 0.501004 -0.223687 0.836038
0.0173121 -0.258744 0.116693 0.215686 -0.939011 0.267839
-0.0633965 0.0153476 0.10952 0.564262 0.161052 0.809735
-0.170799 0.252101 0.0539019 -0.696273 0.715531 0.0567434
0.130044 -0.00641344 0.197078 -0.0660838 0.451399 0.889872
0.272602 -0.41463 0.199125 0.626659 -0.778368 0.0379718
0.0546626 -0.356813 -0.152856 -0.962734 0.257103 -0.0839114
0.0416661 -0.278693 0.0491599 0.743513 -0.578509 -0.335433
0.246889 -0.407876 0.0190625 0.962806 0.067281 -0.261684
-0.0542662 0.177309 -0.241636 0.844381 -0.446081 -0.296703
-0.0386624 0.130821 -0.142654 -0.67502 -0.608534 0.417174
-0.141055 0.165876 0.0461419 -0.785405 0.542803 0.297496
-0.0186971 -0.210855 -0.016284 -0.545854 -0.237475 -0.803523
0.103808 0.396943 0.108023 0.430315 0.49178 0.756955
0.215299 -0.2057 0.163841 0.359699 -0.602843 -0.712177
0.108129 -0.366442 -0.170985 0.984815 -0.155409 -0.0773746
0.101909 0.22228 0.154554 0.438995 0.285745 0.851841
-0.0230992 0.350671 -0.121678 0.853166 0.12778 -0.505746
0.319348 -0.334468 0.193364 0.997605 -0.00263317 0.0691143
-0.060691 0.417465 0.0395202 0.830284 -0.381521 -0.406288
0.138685 -0.165618 -0.0633234 0.795534 0.251624 -0.55119
0.151677 -0.32955 0.0318237 -0.835968 0.130017 0.533154
0.00996992 0.376076 0.168165 0.344229 0.312397 0.885389
0.123143 -0.06121 0.218996 0.712955 0.215063 0.667416
-0.0536655 0.454379 0.146777 -0.417337 0.199716 0.886535
-0.0222684 -0.0553275 -0.241023 -0.462839 -0.23708 -0.854151
0.102069 -0.429785 -0.100346 -0.715737 -0.286514 0.636891
0.0575435 0.250424 0.174826 0.476649 0.444874 0.758217
-0.19844 0.37638 0.0375752 -0.157063 -0.289528 0.944195
-0.149805 0.0414694 -0.0109369 -0.970245 -0.15635 0.184876
-0.0253296 0.440945 0.086489 0.678538 0.563669 -0.471025
0.0503182 0.477882 0.0213373 0.95323 0.087604 -0.289273
-0.116255 0.342186 -0.0961584 -0.803374 -0.267712 0.531903
0.238381 -0.315083 0.24999 0.759931 -0.0340895 0.64911
0.166822 0.0776734 0.156035 0.773061 -0.313167 0.551636
0.139631 -0.08549 -0.0429239 0.84925 0.166677 -0.500993
0.0956506 -0.337326 -0.0914122 -0.928794 0.280971 0.241654
0.0366721 -0.202556 -0.058077 -0.112609 -0.771355 -0.626363
0.15697 0.174641 0.101294 0.876179 0.149693 -0.458151
0.0209736 -0.240082 -0.0330305 -0.423946 -0.306833 -0.852129
-0.133898 0.405199 0.023217 -0.590918 0.222937 0.775316
-0.116582 0.0357938 0.080033 -0.839207 -0.211687 0.50092
-0.0820864 0.0817295 0.0983688 0.534397 0.277569 0.798358
0.0327069 0.46681 0.0825228 0.0427909 -0.785297 -0.617638
0.0331783 0.524372 0.0958884 0.207316 0.55284 0.807086
0.196404 -0.254021 0.24268 0.372377 0.293853 0.880333
0.125669 -0.22416 -0.069734 0.609578 0.455302 -0.648934
-0.00135683 -0.291315 -0.0318709 -0.13834 -0.450412 -0.882038
-0.0475084 -0.106101 0.104776 -0.173231 0.258573 0.950332
0.0811763 -0.415051 0.113182 -0.241181 0.956276 -0.165429
