ply
format ascii 1.0
comment Created by Open3D
element vertex 512
property double x
property double y
property double z
property double nx
property double ny
property double nz
end_header
0.482901 0.190811 0.0475649 -0.700152 -0.529605 -0.478859
0.385571 0.460754 -0.0291864 0.700152 0.529606 0.478859
-0.25393 -0.230556 -0.417883 -0.700152 -0.529605 -0.478859
-0.162138 -0.331216 0.366374 -0.29197 -0.399668 0.868919
0.258412 0.129006 -0.00180188 0.700152 0.529605 0.478859
-0.0458299 -0.14513 -0.620539 -0.147462 -0.286815 0.946569
0.296123 0.107516 -0.0331729 0.700152 0.529605 0.478859
0.378029 0.40012 0.0489015 0.700152 0.529605 0.478859
-0.441873 -0.30943 0.282399 -0.29197 -0.399668 0.868918
-0.226159 -0.0819395 -0.441861 -0.29197 -0.399668 0.868919
-0.153859 0.0140091 -0.585297 -0.360237 -0.450417 0.816917
0.307178 -0.00771369 -0.0521807 0.651568 -0.748187 -0.125199
-0.0411428 -0.236213 -0.291615 -0.700152 -0.529605 -0.478859
0.578029 0.280549 -0.221017 0.641864 0.631714 -0.434682
-0.371158 -0.535805 0.116812 -0.758404 -0.646132 -0.0856551
0.00761055 -0.309422 0.191797 0.651568 -0.748187 -0.125199
0.36896 0.180664 0.225383 -0.700152 -0.529605 -0.478859
0.367229 0.540642 -0.126096 0.753105 0.657798 -0.0116342
0.144337 0.23461 0.573637 0.700152 0.529606 0.478859
0.0839527 -0.236928 0.155879 0.651568 -0.748187 -0.125199
0.0298693 -0.270838 0.0770608 0.651568 -0.748187 -0.125199
-0.520364 -0.171532 0.0138732 -0.651568 0.748187 0.1252
0.177035 -0.198318 0.409569 0.651568 -0.748187 -0.125199
0.0399344 -0.000585258 -0.560051 0.29197 0.399668 -0.868919
0.366761 0.507685 -0.133311 -0.756245 -0.653614 -0.0297126
-0.317666 -0.239035 0.356513 -0.29197 -0.399668 0.868919
0.187169 0.0992216 0.135306 0.700152 0.529606 0.478859
-0.175125 -0.300331 0.376216 -0.29197 -0.399668 0.868919
0.18213 0.334288 0.408138 0.700152 0.529605 0.478859
-0.452863 -0.288682 0.0789462 0.115947 -0.0648791 0.991134
-0.187023 0.184839 -0.381002 -0.651568 0.748187 0.125199
0.309663 0.432066 0.0340388 -0.700152 -0.529605 -0.478859
-0.100085 -0.277507 -0.326105 0.29197 0.399668 -0.868919
0.0107631 -0.00985119 -0.574115 0.29197 0.399668 -0.868919
-0.11869 0.190698 -0.0603889 -0.651568 0.748187 0.125199
-0.136877 -0.382689 -0.122311 0.651568 -0.748187 -0.125199
-0.0681001 -0.207605 -0.643669 -0.305755 -0.107975 -0.945968
-0.465279 -0.271081 0.248615 -0.0784375 0.0977098 -0.992119
0.297084 0.211267 0.29663 -0.700152 -0.529605 -0.478859
-0.22317 -0.00237233 -0.615914 -0.200581 -0.010752 -0.979618
0.18169 0.228586 0.000242942 0.700152 0.529605 0.478859
-0.219412 -0.508909 0.202442 0.651568 -0.748188 -0.125199
-0.338707 -0.350218 0.298303 -0.29197 -0.399668 0.868919
0.152114 -0.200942 0.531888 -0.29197 -0.399668 0.868918
-0.424939 -0.438369 0.0619895 -0.700152 -0.529606 -0.478859
-0.145606 -0.338674 -0.430775 0.651568 -0.748187 -0.125199
-0.334978 -0.454344 0.251662 -0.29197 -0.399668 0.868918
0.411979 0.35009 -0.0368884 -0.29197 -0.399668 0.868919
-0.00263316 -0.0338962 0.556725 -0.29197 -0.399668 0.868918
-0.253509 0.0348855 0.169109 -0.651568 0.748187 0.125199
0.266135 -0.0074704 0.270126 0.29197 0.399668 -0.868919
0.19347 -0.122904 0.0444265 0.651568 -0.748187 -0.125199
0.355637 -0.0671805 0.555382 0.651569 -0.748186 -0.1252
-0.260262 -0.291923 0.351476 -0.29197 -0.399668 0.868919
-0.336719 -0.0877557 -0.37393 0.700152 0.529606 0.478859
-0.138693 0.0848594 0.467997 -0.651568 0.748187 0.125199
0.198265 0.418806 0.211582 -0.700152 -0.529605 -0.478859
0.175892 -0.217672 0.532182 -0.29197 -0.399668 0.868918
-0.0330316 -0.333646 0.125044 0.651568 -0.748187 -0.125199
-0.184585 0.115444 0.0463891 -0.651568 0.748187 0.125199
-0.214067 -0.437218 0.155116 -0.740215 -0.590961 -0.320697
0.0464673 0.180559 0.460324 0.0784352 -0.0977119 0.992119
0.087102 -0.213964 0.0350359 0.651568 -0.748187 -0.125199
-0.0740248 0.20316 0.097589 -0.651568 0.748187 0.125199
0.051241 -0.0605959 0.562546 -0.29197 -0.399668 0.868918
0.285486 0.0178563 0.469482 -0.635645 -0.628558 0.448185
0.274169 0.453371 0.141864 0.700152 0.529605 0.478859
-0.333613 -0.486685 0.237022 -0.342682 -0.437543 0.83134
0.105398 -0.205893 0.0820236 0.651568 -0.748187 -0.125199
0.202827 0.147309 0.0592277 0.700152 0.529605 0.478859
0.189272 0.335073 0.396829 0.700152 0.529605 0.478859
0.601994 0.2695 -0.153028 0.758315 0.637957 0.134051
-0.088325 0.148148 -0.534737 0.29197 0.399668 -0.868919
-0.318602 -0.0134656 0.119294 -0.651568 0.748187 0.125199
0.31657 0.0137109 0.562238 0.639929 0.453481 0.62036
-0.442457 -0.317069 0.278689 -0.29197 -0.399668 0.868918
-0.203679 -0.267305 0.381812 -0.29197 -0.399668 0.868919
-0.404475 -0.377102 0.263839 -0.29197 -0.399668 0.868918
0.0143842 0.318627 -0.132338 -0.651568 0.748187 0.125199
-0.0181424 0.241818 0.157391 -0.651568 0.748187 0.125199
0.245122 0.531677 -0.205307 0.00291899 -0.162568 0.986693
0.222265 0.105125 0.52229 -0.752335 -0.658485 0.0197451
-0.464376 -0.412107 0.0916318 -0.719734 -0.557573 -0.413636
0.0797154 -0.277335 0.375295 0.651568 -0.748187 -0.125199
0.5749 0.267673 -0.241089 0.57559 0.595109 -0.56084
0.0217754 -0.0256866 -0.577698 0.29197 0.399668 -0.868919
-0.299297 -0.235511 -0.34607 -0.700152 -0.529605 -0.478859
-0.380596 -0.339707 0.0697815 -0.0726232 -0.225806 0.971461
0.199849 0.17008 0.563841 0.700152 0.529606 0.478859
-0.174637 -0.14578 -0.568176 0.707212 0.539403 0.457051
-0.360361 -0.441367 0.0642271 0.398048 0.196707 0.896027
0.45466 0.163404 -0.307239 0.651568 -0.748187 -0.125199
-0.40684 -0.255358 0.319042 -0.29197 -0.399668 0.868919
-0.156437 -0.391896 0.340379 -0.29197 -0.399668 0.868919
0.386382 0.11596 -0.15318 -0.291969 -0.399668 0.868919
0.00145842 -0.31213 0.17596 0.651568 -0.748187 -0.125199
-0.148687 -0.385528 -0.166808 0.651568 -0.748187 -0.125199
-0.271962 -0.474391 -0.121842 -0.700152 -0.529606 -0.478859
-0.384315 0.0314628 -0.491186 -0.651568 0.748187 0.125199
0.447994 0.154156 -0.286664 0.651568 -0.748187 -0.125199
0.106571 -0.0367628 0.5921 -0.291969 -0.399668 0.868919
0.110207 -0.097759 -0.539158 0.651568 -0.748187 -0.125199
-0.469398 -0.145074 0.121 -0.651569 0.748187 0.125199
0.333013 0.539142 -0.0390351 0.700152 0.529606 0.478859
0.2171 -0.0187713 0.616428 0.0910665 -0.0867025 0.992063
-0.0294196 -0.105996 -0.482698 -0.61763 -0.427395 -0.660202
-0.289248 -0.142579 -0.382707 0.700152 0.529606 0.478859
-0.0939998 -0.327304 -0.23015 0.651569 -0.748187 -0.125199
-0.119936 -0.314172 -0.443602 0.651571 -0.748185 -0.125197
-0.0138664 -0.113138 -0.493864 -0.676377 -0.49826 -0.542449
0.0110404 0.0159268 -0.562165 0.29197 0.399668 -0.868919
0.31908 -0.0762924 0.419588 0.651568 -0.748187 -0.125199
0.55855 0.295986 -0.226882 0.62125 0.620998 -0.477923
0.0650121 0.077989 0.468769 0.545082 0.346978 0.763211
0.594203 0.256652 -0.108571 0.707106 0.539254 0.457392
-0.467032 -0.222587 0.31389 -0.29197 -0.399668 0.868919
0.0660744 0.172392 -0.471705 0.29197 0.399668 -0.868919
-0.251693 0.00251295 0.372016 -0.651568 0.748187 0.125199
0.196833 -0.0886052 0.559477 0.513826 0.556699 -0.65274
-0.161918 -0.0981971 -0.625833 -0.305755 -0.107976 -0.945968
-0.27924 0.132677 -0.572527 -0.184356 -0.31627 0.930584
-0.576712 -0.288978 0.208801 -0.678404 -0.648557 0.345171
0.390642 0.212641 -0.344132 0.29197 0.399668 -0.868919
0.332043 0.0145142 -0.0556095 0.651568 -0.748187 -0.125199
0.338059 -0.0612436 0.428425 0.651569 -0.748187 -0.125198
-0.154547 0.0276252 -0.577291 -0.455707 -0.517992 0.723889
-0.351237 -0.0155877 -0.0378685 -0.651568 0.748187 0.125199
0.264155 0.453774 0.156059 0.700152 0.529605 0.478859
0.0645648 0.133324 0.643156 0.0168106 -0.150761 0.988427
-0.0749906 0.245617 -0.161162 -0.651568 0.748187 0.125199
0.400542 0.196983 0.240649 0.700152 0.529605 0.478859
0.0637594 0.0484455 0.491953 0.707214 0.539406 0.457044
-0.174141 0.100195 0.191872 -0.651568 0.748187 0.125199
0.0481428 0.331388 -0.404599 0.29197 0.399668 -0.868918
-0.231883 -0.217143 -0.342626 0.29197 0.399668 -0.868919
0.110561 0.21867 0.115209 0.700152 0.529605 0.478859
0.166064 0.341963 0.423141 0.700152 0.529605 0.478859
-0.289262 -0.0357433 -0.573842 -0.619166 -0.429166 -0.657609
0.17559 -0.165586 0.206446 0.651568 -0.748187 -0.125199
0.0268426 0.0478787 -0.542159 0.29197 0.399668 -0.868919
0.298758 -0.101867 0.579483 -0.115941 0.0648846 -0.991135
-0.47836 -0.191334 0.324458 -0.29197 -0.399668 0.868919
-0.1069 -0.132264 0.476445 -0.29197 -0.399668 0.868919
0.212257 -0.0942209 0.441991 0.570706 0.37474 0.730661
-0.257641 0.0288426 0.183715 -0.651568 0.748187 0.125199
-0.0408893 -0.369635 0.299222 0.651568 -0.748187 -0.125199
-0.381128 -0.0733454 0.151732 -0.651568 0.748187 0.125199
0.160038 0.0457679 0.258964 0.29197 0.399668 -0.868918
0.0532856 -0.18467 0.506164 -0.29197 -0.399668 0.868918
-0.0996392 -0.154239 0.468776 -0.29197 -0.399668 0.868919
0.187163 0.268801 0.473206 0.700152 0.529605 0.478859
-0.191754 0.159801 -0.255992 -0.651568 0.748187 0.125199
-0.149469 -0.2741 -0.341131 0.29197 0.399668 -0.868919
-0.13358 -0.279834 0.399603 -0.29197 -0.399668 0.868919
-0.329248 0.0182262 -0.494105 0.746552 0.661721 -0.0691794
0.225922 -0.0398132 -0.283229 0.651568 -0.748187 -0.125199
0.474517 0.298634 -0.242287 -0.184359 -0.316273 0.930582
0.286159 0.532225 0.00559155 -0.65157 0.748185 0.125203
-0.154084 0.0482546 -0.60278 0.274697 0.386548 -0.88041
0.156936 0.456439 -0.214018 -0.651568 0.748187 0.125199
0.117302 -0.158176 -0.141183 0.651568 -0.748187 -0.125199
-0.0912518 0.271759 -0.40201 -0.651568 0.748187 0.125199
0.298371 -0.0222402 0.592507 0.435321 0.233617 0.869436
0.1641 -0.117724 -0.13937 0.651568 -0.748187 -0.125199
0.0773732 0.150251 0.454935 0.04073 -0.1303 0.990638
0.336627 0.139217 -0.127456 0.700152 0.529605 0.478859
-0.0392204 -0.30813 -0.0596463 0.651568 -0.748187 -0.125199
0.495611 0.163829 -0.0966626 0.651568 -0.748187 -0.1252
0.483442 0.258851 -0.250963 0.00291899 -0.162568 0.986693
-0.0975041 -0.243763 -0.567988 0.747567 0.605262 0.273498
0.144709 -0.179989 0.131801 0.651568 -0.748187 -0.125199
0.206611 -0.10516 0.594184 -0.274702 -0.386552 0.880407
-0.0916295 0.172648 0.188305 -0.651568 0.748187 0.125199
0.355553 0.0568761 0.461383 0.700152 0.529605 0.478859
-0.0531321 -0.225517 -0.62574 0.651569 -0.748187 -0.125199
0.0857473 -0.120532 -0.530364 0.651568 -0.748187 -0.125199
0.253359 0.387064 0.245625 0.700152 0.529605 0.478859
0.15857 -0.190718 0.268057 0.651568 -0.748187 -0.125199
-0.0153118 0.320207 -0.296327 -0.651568 0.748187 0.125199
-0.124131 0.140306 0.212438 -0.651568 0.748187 0.125199
-0.402816 -0.374126 -0.0414076 -0.700152 -0.529606 -0.478859
0.469406 0.0803527 0.265814 0.651569 -0.748187 -0.125199
0.184747 0.235916 -0.0123342 0.700152 0.529605 0.478859
-0.250864 0.0353053 0.180365 -0.651568 0.748187 0.125199
-0.353497 -0.0413242 0.104171 -0.651568 0.748187 0.125199
-0.314292 -0.293992 0.332369 -0.29197 -0.399668 0.868919
-0.25543 0.0254472 0.215516 -0.651568 0.748187 0.125199
-0.252279 -0.471538 0.271542 -0.29197 -0.399668 0.868919
0.578238 0.282437 -0.217622 0.660927 0.640906 -0.390404
0.0441923 -0.314419 0.412036 0.651568 -0.748187 -0.125199
0.316385 -0.0109463 0.0150561 0.651568 -0.748187 -0.125199
-0.0465287 0.209775 0.201152 -0.651568 0.748187 0.125199
0.158913 0.242681 -0.40818 0.29197 0.399668 -0.868919
-0.405366 -0.27163 -0.151037 -0.700152 -0.529605 -0.478859
0.448953 0.189692 -0.224596 0.638816 0.452159 0.622468
0.446889 0.414419 -0.138159 -0.758421 -0.639011 -0.128305
0.135069 0.101588 0.446787 -0.07262 -0.225804 0.971462
0.397734 0.297915 0.0536348 -0.700152 -0.529605 -0.478859
-0.551647 -0.238285 0.249984 -0.651569 0.748186 0.125201
-0.263737 0.0670623 -0.0764095 -0.651568 0.748187 0.125199
0.321185 0.0307397 0.540539 0.700152 0.529606 0.478859
-0.37373 0.0444678 -0.513817 -0.651568 0.748187 0.125199
-0.340458 -0.030686 0.108457 -0.651568 0.748187 0.125199
-0.118627 0.137327 0.258879 -0.651568 0.748187 0.125199
0.162258 -0.019201 0.444454 0.460363 0.258816 0.849165
-0.133849 -0.0915517 -0.444927 -0.00291921 0.162568 -0.986693
0.445026 0.21985 0.150317 0.700152 0.529605 0.478859
0.157085 -0.199595 0.313373 0.651568 -0.748187 -0.125199
0.312879 0.554665 -0.203945 0.524386 0.563489 -0.638357
-0.502141 -0.321814 0.0459616 -0.700152 -0.529605 -0.478859
-0.141651 -0.324942 0.376143 -0.29197 -0.399668 0.868919
0.306603 0.28962 0.275546 0.700152 0.529605 0.478859
-0.0675794 -0.239716 -0.610583 0.570703 0.374737 0.730664
0.0192847 -0.237193 -0.179084 0.651568 -0.748187 -0.125199
-0.316078 -0.00748122 0.0966647 -0.651568 0.748187 0.125199
0.132012 -0.221688 0.314912 0.651568 -0.748187 -0.125199
-0.19986 0.0999699 -0.594356 0.274697 0.386548 -0.88041
0.369016 0.0738081 -0.217531 0.651568 -0.748187 -0.125199
-0.00188188 -0.238349 -0.282333 0.651568 -0.748187 -0.125199
-0.419151 -0.386319 -0.00403854 -0.700152 -0.529605 -0.478859
0.377984 0.181492 -0.12586 -0.29197 -0.399668 0.868919
0.294832 0.0890848 0.514543 0.700152 0.529606 0.478859
0.145493 -0.0826619 -0.445738 0.651568 -0.748187 -0.125199
0.40352 0.357945 -0.0212155 -0.700152 -0.529605 -0.478859
0.34285 0.534746 -0.136451 -0.746551 -0.661721 0.0691843
-0.448903 -0.299084 0.244232 -0.00291899 0.162568 -0.986693
0.244985 -0.111575 0.244828 0.651568 -0.748187 -0.125199
0.130945 -0.0423802 0.518336 0.752334 0.658486 -0.0197581
-0.316065 -0.56184 0.146086 0.70508 0.65819 -0.263908
-0.0591226 0.153885 0.469604 -0.651568 0.748187 0.125199
0.411418 0.334089 -0.28129 0.29197 0.399668 -0.868918
-0.0936423 0.129196 0.437497 -0.651568 0.748187 0.125199
0.0655151 0.0539009 0.483874 0.676376 0.498259 0.542452
0.196172 0.373951 -0.0984278 -0.29197 -0.399668 0.868919
0.252537 0.139887 0.520197 0.700152 0.529606 0.478859
-0.139641 -0.345651 -0.358036 0.651568 -0.748187 -0.125199
0.239594 0.0309628 0.134146 0.700152 0.529606 0.478859
0.0375663 -0.151696 -0.594874 0.651569 -0.748187 -0.125199
-0.0575964 -0.297275 -0.22015 0.651569 -0.748187 -0.125199
-0.14718 -0.0855342 -0.63056 -0.200581 -0.010752 -0.979618
0.332857 0.580067 -0.122 0.753105 0.657798 -0.0116342
0.284008 -0.0654394 0.172206 0.651568 -0.748187 -0.125199
-0.388091 -0.26278 0.215062 -0.617627 -0.427391 -0.660208
0.141362 0.180026 0.615166 0.521769 0.322211 0.789897
-0.0411104 -0.179352 -0.649898 -0.0910665 0.0867025 -0.992063
0.249809 -0.105871 0.235838 0.651568 -0.748187 -0.125199
0.440902 0.437912 -0.194812 0.641864 0.631714 -0.434682
0.269788 0.0826396 0.558078 0.692776 0.519638 0.500038
-0.373562 -0.498778 0.124858 0.758421 0.639012 0.128299
0.190309 0.486976 -0.222828 -0.651569 0.748187 0.125199
0.360433 0.0667414 0.443336 0.700152 0.529605 0.478859
-0.0976204 -0.0753602 -0.386937 -0.700152 -0.529605 -0.478859
-0.0404066 -0.0930165 -0.629249 0.23968 0.359631 -0.901787
0.317836 0.362034 -0.0773355 0.393062 0.474138 -0.787842
0.211392 0.111389 0.497764 -0.690254 -0.653201 0.311251
-0.166582 -0.128964 -0.590055 0.570698 0.374731 0.730671
0.278897 0.386984 -0.193315 0.617628 0.427392 0.660206
0.120885 -0.00118778 0.61307 -0.239674 -0.359626 0.90179
0.0647185 0.117875 0.615181 0.184356 0.31627 -0.930584
0.258844 -0.0538045 0.199751 0.700152 0.529606 0.478859
-0.214695 0.106936 -0.0594665 -0.651568 0.748187 0.125199
-0.207 -0.253337 -0.461306 -0.700152 -0.529605 -0.478859
0.01424 -0.00638174 0.57505 -0.29197 -0.399668 0.868918
0.412515 0.370196 -0.230249 -0.184359 -0.316273 0.930582
-0.547661 -0.20788 0.0890249 -0.651564 0.74819 0.125201
-0.197957 0.119416 -0.0469314 -0.651568 0.748187 0.125199
-0.466866 -0.262774 -0.0709118 -0.700152 -0.529606 -0.478859
-0.331732 -0.425478 0.266031 -0.29197 -0.399668 0.868918
-0.200582 -0.37196 -0.339495 -0.700152 -0.529605 -0.478859
-0.47784 -0.14547 0.0794315 -0.651568 0.748187 0.1252
-0.304469 -0.368682 -0.191225 -0.700152 -0.529606 -0.478859
0.437533 0.133394 -0.217039 0.651568 -0.748187 -0.125199
-0.352021 0.0516536 -0.57018 -0.548158 -0.350279 -0.759492
-0.220473 0.0138061 -0.305927 -0.700152 -0.529605 -0.478859
-0.142165 -0.0370763 -0.393003 -0.29197 -0.399668 0.868918
0.231296 0.378834 0.207496 -0.700152 -0.529605 -0.478859
-0.107623 -0.39705 0.115756 0.651568 -0.748187 -0.125199
0.445466 0.160996 0.135275 -0.700152 -0.529605 -0.478859
0.414726 0.092624 0.335328 0.700152 0.529605 0.478859
-0.13302 0.213343 -0.270292 -0.651568 0.748187 0.125199
-0.472463 -0.153576 -0.183497 -0.700152 -0.529605 -0.478859
0.400836 0.301111 -0.235843 0.331762 0.132627 0.933994
-0.501933 -0.145189 -0.0476322 -0.651568 0.748187 0.125199
-0.179231 -0.183017 -0.579005 -0.676776 -0.498769 -0.541483
0.383665 0.106942 -0.339299 0.651568 -0.748187 -0.125199
-0.222996 0.116591 -0.160368 -0.651568 0.748187 0.125199
-0.142383 -0.272518 -0.338022 0.29197 0.399668 -0.868919
-0.140646 -0.121649 -0.431393 -0.29197 -0.399668 0.868918
0.179476 -0.133697 0.0361004 0.651568 -0.748187 -0.125199
0.416477 0.120961 -0.252315 0.651568 -0.748187 -0.125199
0.0646963 -0.268042 0.241601 0.651568 -0.748187 -0.125199
-0.0747988 -0.221846 -0.292006 0.29197 0.399668 -0.868919
0.0988318 -0.168728 -0.174248 0.651568 -0.748187 -0.125199
-0.524759 -0.317112 0.196869 0.673713 0.646588 -0.35782
-0.0948013 -0.236607 -0.622841 -0.521769 -0.322211 -0.789897
-0.29384 -0.0971456 -0.507078 -0.700152 -0.529606 -0.478859
0.163242 0.00152484 0.620848 -0.0576037 -0.213364 0.975273
-0.100109 -0.405844 0.207414 0.651568 -0.748187 -0.125199
-0.239371 -0.0750103 -0.551137 0.720015 0.557996 0.412576
0.493864 0.116398 0.177694 0.651569 -0.748187 -0.125199
0.0167245 -0.252879 -0.0986742 0.651568 -0.748187 -0.125199
-0.188367 0.129388 -0.0566212 -0.651568 0.748187 0.125199
0.193847 0.400032 0.315162 -0.651568 0.748187 0.125199
-0.18058 -0.42308 -0.108375 0.651568 -0.748187 -0.125199
0.251776 0.27957 -0.123155 -0.291969 -0.399668 0.868919
-0.123257 -0.335075 0.377663 -0.29197 -0.399668 0.868919
-0.269585 0.0601374 -0.285359 -0.700152 -0.529605 -0.478859
0.400957 0.462801 -0.166195 -0.690253 -0.6532 0.311255
0.132477 0.290316 0.362185 0.29197 0.399668 -0.868918
0.330183 0.233057 0.224134 -0.700152 -0.529605 -0.478859
-0.359249 -0.0329206 0.0240187 -0.651568 0.748187 0.125199
-0.0738013 0.0790629 0.584768 -0.29197 -0.399668 0.868918
0.171937 -0.0950335 -0.234186 0.651568 -0.748187 -0.125199
0.462151 0.296655 -0.0391567 -0.700152 -0.529605 -0.478859
0.213816 -0.0940421 -0.0221647 0.651568 -0.748187 -0.125199
-0.182661 0.0676208 -0.451739 -0.594905 -0.401564 -0.6963
-0.128425 0.22561 -0.319686 -0.651568 0.748187 0.125199
-0.345314 -0.523106 0.162499 0.673713 0.646588 -0.35782
0.305362 0.416102 -0.0579371 0.147449 0.286804 -0.946574
0.155411 0.173268 0.608347 0.548154 0.350276 0.759496
-0.523688 -0.218107 0.0921764 0.190016 0.00118973 0.98178
-0.300231 -0.00369343 0.156504 -0.651568 0.748187 0.125199
0.0300885 0.231808 -0.456468 0.29197 0.399668 -0.868919
0.185351 0.400954 0.265429 -0.651568 0.748187 0.125199
-0.401644 -0.321006 -0.101871 -0.700152 -0.529606 -0.478859
-0.406928 -0.115287 0.268105 -0.651568 0.748187 0.125199
0.333114 -0.053436 0.356035 0.651568 -0.748187 -0.125199
-0.0296987 -0.133818 -0.611919 -0.326506 -0.425569 0.84397
0.241191 -0.121312 0.283267 0.651568 -0.748187 -0.125199
-0.0981169 -0.278704 -0.489341 -0.29197 -0.399668 0.868918
-0.209096 0.0472522 -0.612863 0.0204279 0.182288 -0.983033
0.108601 0.434586 -0.334973 -0.651568 0.748187 0.125199
0.387416 0.161414 0.299178 0.700152 0.529605 0.478859
-0.376901 0.0148957 -0.428709 0.700152 0.529606 0.478859
-0.167805 -0.380331 -0.297361 0.651568 -0.748187 -0.125199
0.0943084 0.371797 -0.0341348 -0.651568 0.748187 0.125199
-0.545382 -0.19362 0.0156718 -0.651569 0.748187 0.125199
0.22801 -0.0104588 -0.447786 0.651568 -0.748187 -0.125199
-0.178636 -0.423423 -0.0962122 0.651568 -0.748187 -0.125199
-0.288345 -0.0193043 0.311649 -0.651568 0.748187 0.125199
-0.395766 -0.179303 0.357745 -0.29197 -0.399668 0.868919
0.413634 0.292104 -0.0630034 -0.29197 -0.399668 0.868919
-0.332974 -0.314768 0.195794 -0.676377 -0.49826 -0.542449
-0.111007 0.0931427 0.562583 -0.651569 0.748187 0.1252
-0.270992 -0.0127792 -0.45061 0.485373 0.538016 -0.689167
-0.204896 -0.480665 0.283266 -0.29197 -0.399668 0.868919
-0.472662 -0.202568 0.246668 -0.429739 -0.228045 -0.873682
0.00823765 -0.344497 0.404668 0.651568 -0.748187 -0.125199
0.058364 0.221758 -0.45159 0.29197 0.399668 -0.868919
-0.311939 -0.25932 -0.301255 -0.700152 -0.529605 -0.478859
0.411162 0.00456662 0.415594 0.651568 -0.748187 -0.1252
-0.0170008 0.192819 0.456152 -0.651569 0.748186 0.125199
-0.154465 0.0693767 0.478442 -0.651568 0.748187 0.125199
-0.0192328 0.201108 0.394998 -0.651568 0.748187 0.125199
0.0296013 0.0836916 -0.524759 0.29197 0.399668 -0.868919
-0.0007228 -0.331131 0.278159 0.651568 -0.748187 -0.125199
-0.337774 -0.020165 -0.527979 -0.700152 -0.529605 -0.478859
-0.163732 -0.020389 -0.60068 -0.0726261 -0.225809 0.971461
-0.358366 -0.496812 0.0292875 -0.700152 -0.529606 -0.478859
0.241985 0.0242022 0.5832 -0.460363 -0.258816 -0.849164
-0.110003 -0.193649 -0.478607 0.455707 0.517992 -0.72389
-0.035599 -0.214451 -0.43878 -0.29197 -0.399668 0.868918
0.352507 0.29544 -0.0820088 -0.29197 -0.399668 0.868919
0.277226 0.437872 -0.278644 0.29197 0.399668 -0.868918
-0.0991876 -0.213938 -0.459911 -0.29197 -0.399668 0.868918
0.454863 0.254513 0.097598 0.700152 0.529605 0.478859
0.165355 -0.136187 0.566122 -0.291969 -0.399668 0.868919
-0.0896582 -0.383541 0.36666 -0.29197 -0.399668 0.868919
0.135805 0.316904 0.495097 0.700152 0.529606 0.478859
0.456004 0.181546 -0.336473 0.29197 0.399668 -0.868919
0.472776 0.200017 -0.0988816 0.29197 0.399668 -0.868918
-0.355093 -0.0438512 -0.395623 0.700152 0.529606 0.478859
0.201768 0.475302 -0.178334 0.617628 0.427392 0.660206
-0.124257 0.0602656 0.559168 -0.29197 -0.399668 0.868919
-0.0355392 0.00832357 0.565087 -0.29197 -0.399668 0.868918
-0.129722 -0.391767 -0.0308264 0.651568 -0.748187 -0.125199
-0.263861 -0.152373 -0.323579 0.29197 0.399668 -0.868919
-0.464285 -0.352334 0.0243665 -0.700152 -0.529605 -0.478859
-0.35467 -0.392794 0.273356 -0.29197 -0.399668 0.868918
-0.102003 -0.37366 0.00522347 0.651568 -0.748187 -0.125199
-0.0428415 -0.0965736 0.514385 -0.29197 -0.399668 0.868918
0.273341 0.303326 0.229529 -0.700152 -0.529605 -0.478859
-0.0658879 0.183072 0.259976 -0.651568 0.748187 0.125199
0.419347 0.148208 0.267097 0.700152 0.529605 0.478859
-0.224227 -0.235396 -0.348449 0.29197 0.399668 -0.868919
-0.155833 0.140934 0.0436957 -0.651568 0.748187 0.125199
-0.0585489 0.293739 -0.363171 -0.651568 0.748187 0.125199
0.346401 -0.0522751 0.418245 0.651568 -0.748187 -0.125201
0.517949 0.287714 -0.031362 0.700152 0.529606 0.478858
0.021037 0.124117 0.601825 0.455713 0.517996 -0.723882
-0.183361 -0.484685 0.245297 0.651568 -0.748187 -0.125199
0.148766 -0.136653 -0.10606 0.651568 -0.748187 -0.125199
0.421908 0.316984 -0.00280022 -0.700152 -0.529605 -0.478859
0.0625003 -0.294204 0.386512 0.651568 -0.748187 -0.125199
0.17862 -0.114881 0.580379 -0.291969 -0.399668 0.868919
0.381897 0.428732 0.0116018 0.700152 0.529605 0.478859
-0.14796 0.169822 -0.0879642 -0.651568 0.748187 0.125199
-0.164993 -0.16227 -0.606504 -0.548158 -0.350279 -0.759492
-0.209306 0.145048 -0.259174 -0.651568 0.748187 0.125199
-0.382976 -0.500445 0.189442 -0.62125 -0.620998 0.477923
0.305292 -0.0158611 0.554199 -0.658412 -0.475797 -0.583191
0.216129 -0.10367 0.0474081 0.651568 -0.748187 -0.125199
0.318332 0.0224381 0.301422 0.29197 0.399668 -0.868919
0.0703033 0.35616 -0.0656152 -0.651568 0.748187 0.125199
-0.418654 -0.395911 0.081674 0.518108 0.318359 0.793858
0.29474 0.389196 0.103272 -0.700152 -0.529605 -0.478859
0.212433 -0.0502352 0.612379 -0.0204279 -0.182288 0.983033
0.125119 0.178622 0.138216 0.700152 0.529606 0.478859
-0.143738 0.178544 -0.118112 -0.651568 0.748187 0.125199
-0.22273 0.126801 -0.219994 -0.651568 0.748187 0.125199
0.344031 0.105503 -0.100994 0.700152 0.529605 0.478859
0.22141 0.437031 -0.1684 0.707214 0.539406 0.457044
-0.349526 -0.466142 -0.0175574 -0.700152 -0.529606 -0.478859
0.288341 0.103387 0.508215 0.700152 0.529606 0.478859
-0.0735995 -0.0920538 0.506129 -0.29197 -0.399668 0.868919
-0.325918 0.00073214 -0.437356 -0.29197 -0.399668 0.868919
-0.434354 -0.0921871 -0.0126734 -0.651568 0.748187 0.125199
0.160816 0.0694824 0.206727 0.700152 0.529606 0.478859
-0.230606 -0.0666499 -0.602114 -0.49412 -0.293361 -0.818404
0.113268 -0.259143 0.441198 0.651568 -0.748187 -0.125199
0.206365 0.375457 -0.331164 0.29197 0.399668 -0.868918
0.228219 -0.171521 0.5158 0.651568 -0.748187 -0.125202
-0.339307 -0.238243 -0.28455 -0.700152 -0.529605 -0.478859
0.335377 -0.0533319 0.550573 -0.638815 -0.452158 -0.62247
-0.141759 0.218942 -0.349232 -0.651568 0.748187 0.125199
-0.346422 -0.287542 -0.219623 -0.700152 -0.529605 -0.478859
0.27934 0.291144 0.313721 0.700152 0.529605 0.478859
-0.0679185 -0.340964 -0.0127837 0.651568 -0.748187 -0.125199
0.364705 -0.0342214 0.405616 0.651568 -0.748187 -0.125199
-0.18562 0.101573 -0.525501 -0.71815 -0.661542 0.215922
-0.34605 -0.147302 0.389169 -0.29197 -0.399668 0.868919
-0.176913 0.093507 0.217413 -0.651568 0.748187 0.125199
-0.0331313 0.280122 -0.149517 -0.651568 0.748187 0.125199
-0.525313 -0.348866 0.197196 -0.694241 -0.654643 0.299119
-0.200908 -0.201784 -0.52723 -0.700152 -0.529606 -0.478859
-0.191785 0.109861 -0.487776 -0.756681 -0.629316 -0.177186
-0.511761 -0.209347 0.284629 -0.651569 0.748186 0.125201
-0.197227 -0.133785 -0.59599 -0.573226 -0.377505 -0.727256
0.320103 0.211522 -0.368349 0.29197 0.399668 -0.868919
0.213846 0.383119 0.30776 0.700152 0.529605 0.478859
-0.380929 -0.456532 0.0177293 -0.700152 -0.529606 -0.478859
0.309146 0.00473495 0.497076 -0.738916 -0.66331 0.118419
-0.153754 0.165587 -0.0928098 -0.651568 0.748187 0.125199
-0.407503 -0.0503487 -0.12296 -0.651568 0.748187 0.125199
0.178091 -0.0569508 -0.42974 0.651568 -0.748187 -0.125199
0.129306 -0.149149 -0.132658 0.651568 -0.748187 -0.125199
-0.0580133 -0.112377 -0.611557 -0.256703 -0.372769 0.89171
0.109374 -0.137582 -0.305514 0.651568 -0.748187 -0.125199
-0.273653 -0.516221 0.207372 0.0726281 0.22581 -0.97146
-0.308778 -0.0978935 -0.403572 0.700152 0.529606 0.478859
-0.251823 -0.113153 -0.550808 -0.700152 -0.529605 -0.478859
-0.367493 -0.0693711 -0.349269 0.700152 0.529606 0.478859
-0.341966 -0.369963 -0.134982 -0.700152 -0.529606 -0.478859
0.33021 0.0805681 -0.425187 0.29197 0.399668 -0.868919
-0.241338 -0.0172067 -0.417187 -0.29197 -0.399668 0.868919
-0.460043 -0.286685 0.0800335 0.15317 -0.031886 0.987685
-0.300097 -0.120775 -0.471795 -0.700152 -0.529605 -0.478859
-0.334941 -0.0388897 0.186196 -0.651568 0.748187 0.125199
0.470682 0.1595 -0.127565 0.566844 0.589878 -0.575093
0.215318 -0.163558 0.401079 0.651568 -0.748187 -0.125199
0.142171 -0.204968 0.267866 0.651568 -0.748187 -0.125199
-0.234637 -0.219931 -0.377005 0.700152 0.529606 0.478859
0.455435 0.332823 0.0101522 0.700152 0.529605 0.478859
-0.115192 -0.0986944 -0.412281 -0.29197 -0.399668 0.868918
-0.270074 0.0396326 -0.584365 0.297354 0.100067 0.949509
-0.442831 -0.108043 -0.277182 -0.700152 -0.529605 -0.478859
0.257485 0.0169511 -0.458192 0.651568 -0.748187 -0.125199
0.232109 0.215173 -0.0586421 0.700152 0.529605 0.478859
-0.094448 0.232554 -0.184359 -0.651568 0.748187 0.125199
0.432084 0.195361 -0.129887 0.61422 0.617188 -0.491744
-0.00812492 0.141562 0.495386 0.658414 0.4758 0.583185
-0.254324 -0.00363846 -0.436871 0.291969 0.399667 -0.868919
0.478175 0.223133 -0.251793 0.262196 0.0672467 0.962669
-0.0369376 0.28196 -0.180308 -0.651568 0.748187 0.125199
-0.0960126 -0.136904 -0.618691 0.153172 -0.0318843 0.987685
-0.345048 0.0607893 -0.5787 -0.494119 -0.293361 -0.818404
-0.357688 -0.365294 0.0655466 -0.0726232 -0.225806 0.971461
0.0779461 0.22214 -0.444834 0.29197 0.399668 -0.868919
-0.253727 -0.0788321 -0.286348 0.29197 0.399668 -0.868919
0.140281 0.425034 -0.113027 -0.651568 0.748187 0.125199
-0.12143 -0.359714 -0.179222 0.651568 -0.748187 -0.125199
-0.170338 -0.141429 -0.611697 -0.494119 -0.293361 -0.818404
-0.22796 -0.0258042 -0.253299 0.291968 0.399667 -0.868919
0.32033 0.583886 -0.125296 -0.651572 0.748185 0.125195
0.350088 -0.00415411 0.299861 0.29197 0.399668 -0.868919
-0.236058 0.0246077 -0.425486 -0.00291921 0.162568 -0.986693
0.217857 0.51122 -0.264857 0.29197 0.399668 -0.868919
0.540561 0.30311 -0.145008 -0.747567 -0.605262 -0.273499
0.347212 -0.0309504 0.295029 0.651569 -0.748187 -0.125199
0.0423979 0.081507 -0.521464 0.29197 0.399668 -0.868919
0.232331 0.367083 0.218977 -0.700152 -0.529605 -0.478859
-0.435807 -0.0921296 -0.0205771 -0.651568 0.748187 0.125199
-0.350767 -0.469487 -0.012044 -0.700152 -0.529606 -0.478859
-0.147063 -0.233878 -0.570462 -0.700152 -0.529605 -0.478859
0.0330086 -0.288579 0.199415 0.651568 -0.748187 -0.125199
0.213174 -0.0303326 0.240567 0.700152 0.529606 0.478859
-0.145583 -0.0897518 -0.630841 -0.200581 -0.010752 -0.979618
-0.227609 -0.48851 0.0378774 0.651568 -0.748188 -0.125199
0.141575 0.311222 0.374858 0.29197 0.399668 -0.868918
-0.26643 -0.45232 0.275627 -0.29197 -0.399668 0.868919
-0.118467 -0.162673 -0.44281 -0.29197 -0.399668 0.868918
-0.0196644 0.0816081 -0.542272 0.29197 0.399668 -0.868919
-0.56223 -0.251592 0.119662 0.617627 0.427392 0.660206
-0.296591 -0.330407 0.321567 -0.29197 -0.399668 0.868919
0.277534 -0.00109419 -0.24601 0.651568 -0.748187 -0.125199
0.354807 0.0254101 0.497274 0.700152 0.529605 0.478859
0.150763 -0.1916 0.232699 0.651568 -0.748187 -0.125199
-0.307143 -0.563769 0.16024 0.635645 0.628558 -0.448185
-0.257222 -0.360212 -0.269673 -0.700152 -0.529605 -0.478859
0.385176 -0.0247966 0.455829 0.651568 -0.748187 -0.1252
-0.232884 -0.240967 -0.35392 0.29197 0.399668 -0.868919
-0.242018 -0.470095 -0.147159 0.651568 -0.748187 -0.125199
