ply
format ascii 1.0
comment Created by Open3D
element vertex 512
property double x
property double y
property double z
property double nx
property double ny
property double nz
end_header
-0.0674857 0.190066 0.0680369 0.327877 -0.944708 -0.00477117
0.0078388 -0.162568 -0.113849 -0.443989 -0.0444463 -0.894929
0.183481 0.217793 -0.157131 0.566812 -0.0125698 0.823751
-0.254969 0.111906 0.102618 0.317322 -0.939901 0.126064
0.340298 -0.000187362 -0.181508 -0.561679 0.537117 0.629302
-0.245189 0.171934 0.00736205 -0.342775 0.907139 0.244138
-0.277152 -0.0122002 0.0256474 -0.504317 -0.0558243 -0.861712
0.206265 0.289295 -0.245803 -0.460413 -0.0728455 -0.884711
0.132276 -0.0179288 -0.122602 0.443299 0.0354278 0.895674
-0.320126 -0.29055 0.302591 -0.789313 -0.429382 0.438879
0.222249 0.345741 -0.0238814 -0.328942 0.938514 0.104822
-0.149702 -0.0528451 -0.0388472 -0.472709 -0.0547247 -0.879518
0.413407 0.175661 -0.223765 0.789734 0.409969 -0.456338
0.264443 -0.159485 -0.0718338 0.321363 -0.942085 -0.0959246
-0.487678 0.0638533 0.184306 -0.326689 0.939151 0.10616
0.376217 0.31592 -0.183314 0.807096 0.366082 -0.463227
-0.146285 -0.0484506 0.0161803 0.426283 0.0646581 0.902276
-0.495133 0.0694632 0.141084 -0.310412 0.947185 0.0805272
-0.243074 -0.186642 0.0225519 -0.438045 -0.0467084 -0.897739
0.346695 0.22004 -0.311826 -0.562623 0.0149147 -0.826579
-0.31617 -0.111554 0.100343 0.472343 0.030655 0.880882
0.442062 0.14715 -0.194798 0.799539 0.406103 -0.442514
-0.40536 -0.140462 0.104112 -0.462817 -0.0439796 -0.885362
0.200753 -0.105864 -0.217619 -0.454813 -0.052293 -0.88905
0.0671405 0.0840275 -0.0970453 0.503014 0.0657637 0.861773
0.0428161 0.237479 -0.0330806 0.369418 -0.929054 0.0197192
0.283887 0.360759 -0.284686 -0.519736 0.0640145 -0.851925
0.221965 -0.16744 -0.112992 0.330257 -0.943036 -0.0401798
0.122872 -0.125484 -0.0679449 -0.296423 0.93114 0.212395
0.147775 0.277534 0.0171215 0.471691 -0.621309 0.625685
0.353712 0.26732 -0.25467 0.800631 0.35266 -0.484377
-0.348548 -0.164506 0.267225 0.810913 0.421463 -0.405943
-0.0106587 0.243936 0.1071 0.433196 0.0586166 0.899392
0.00834876 -0.214661 0.125568 0.315823 0.464301 0.827454
-0.0938387 -0.078391 -0.0077895 0.305524 0.111614 0.94562
0.163762 0.00686763 -0.140306 0.543013 -0.0253923 0.83934
-0.518094 0.030038 0.185487 -0.856398 -0.301743 0.418968
0.25477 -0.0715293 -0.144293 -0.309524 0.919625 0.241836
-0.266556 -0.385578 0.217653 0.37867 -0.906387 -0.187275
-0.300282 -0.121246 0.0462321 -0.36401 -0.163321 -0.916964
-0.241239 -0.232665 0.0235998 -0.2652 -0.2178 -0.939272
-0.340493 -0.0681153 0.110029 0.435991 -0.0156741 0.899814
-0.401708 -0.0594185 0.132583 0.394256 0.0529792 0.917472
-0.026837 0.172251 -0.0557109 0.517354 0.0812444 0.851906
-0.24565 0.163627 0.118514 -0.449196 0.853543 0.263983
-0.178183 -0.266751 0.149591 -0.285412 0.93427 0.21373
-0.229994 -0.281707 0.212038 0.095985 0.994721 0.0362888
0.188512 -0.181003 0.0240147 0.597311 -0.1636 0.785146
0.0614239 -0.0701871 -0.14359 -0.346229 -0.0257821 -0.937796
-0.440483 -0.220534 0.128901 -0.456187 -0.0531585 -0.888295
0.208677 0.0815317 -0.167037 0.485894 0.0576129 0.872117
-0.283949 0.149826 0.0933609 -0.345541 0.938324 0.0122651
0.0767099 0.00903066 -0.158911 -0.465308 -0.0552624 -0.883422
0.0386814 -0.0276556 -0.140138 -0.414435 -0.0923745 -0.905379
0.344618 0.165692 -0.16753 -0.514221 -0.239555 0.823523
0.454658 0.0191212 -0.124036 0.478592 0.0420974 0.877028
0.183674 0.128801 -0.150645 0.386527 0.0242893 0.921958
-0.445998 0.0606328 0.341902 -0.38395 0.912467 0.141376
-0.189814 -0.280665 -0.00112635 -0.402679 -0.0882043 -0.911082
-0.3718 -0.284948 0.0971314 -0.467481 -0.0510506 -0.882528
0.00193851 -0.0616888 -0.116631 -0.423891 -0.122918 -0.897334
-0.343748 -0.362356 0.201336 -0.88956 -0.237019 0.39052
0.10067 -0.234332 0.0571408 0.347252 -0.925361 -0.152061
-0.458815 -0.0830128 0.208598 -0.79615 -0.41993 0.435665
0.0214583 0.225082 0.01777 0.370559 -0.928782 -0.00698976
0.458583 -0.0253599 -0.300999 0.868643 0.244419 -0.430951
-0.14569 -0.31421 0.00462568 0.336044 -0.941846 0.000806258
0.19885 -0.0603371 -0.217299 -0.522072 -0.0242358 -0.852557
0.128968 -0.135724 -0.177507 -0.489572 -0.0355269 -0.871239
-0.290776 -0.263251 0.221252 0.650172 0.758931 -0.0360494
-0.184535 0.0821537 -0.0247438 -0.652761 -0.152658 -0.742024
-0.414737 -0.00381217 0.102078 -0.356296 -0.0901993 -0.930009
-0.263158 0.144051 0.177378 -0.390035 0.911251 0.132267
-9.42721e-05 0.0239843 -0.0559993 0.421167 0.0483796 0.905692
0.242377 -0.0666141 -0.238337 -0.338526 -0.061378 -0.938953
0.0941064 -0.203166 -0.154753 -0.45315 -0.0601205 -0.889405
0.383344 0.188583 -0.26272 0.762718 0.418535 -0.493041
-0.0655506 0.0634915 -0.0871585 -0.399634 -0.0338783 -0.916049
0.233166 -0.16207 -0.172269 0.372387 -0.919028 -0.129288
0.0902153 -0.0974048 -0.102836 0.483449 0.00233376 0.87537
0.0575388 0.28658 -0.0234072 -0.337013 0.929656 0.148866
0.135036 0.27447 -0.0739168 0.366855 -0.929539 -0.0370913
0.297381 0.0197444 -0.206332 0.507452 0.011524 0.861603
0.174585 0.344567 -0.149369 -0.339541 0.93091 0.134605
0.310624 0.0677057 -0.210087 0.244404 -0.0344812 0.96906
-0.116758 -0.083218 -0.0521129 -0.520087 -0.0620137 -0.851859
-0.353467 -0.233681 0.16201 0.829546 0.489126 -0.269461
-0.0026107 -0.26974 0.132916 0.455056 -0.551951 0.698766
-0.27818 -0.3733 0.0826267 0.351075 -0.928032 -0.124511
-0.294802 -0.188714 0.0471485 -0.473959 -0.0471057 -0.879286
0.453342 0.0784338 -0.233979 0.789273 0.391935 -0.472689
-0.318876 -0.254269 0.177542 0.526964 0.826867 -0.196468
0.392567 0.146448 -0.283046 0.700314 0.456074 -0.549142
-0.171874 -0.164177 -0.0167133 -0.473155 -0.116967 -0.87318
-0.108596 -0.288349 -0.0418895 -0.491946 0.0993078 -0.864943
-0.164752 -0.335755 0.117093 0.345941 -0.921389 -0.177108
0.148483 0.0674363 -0.196921 -0.354497 -0.0957129 -0.930146
0.304972 0.315538 -0.0856638 -0.0201952 -0.869636 0.493281
-0.0154619 -0.121136 -0.0472001 0.450365 0.0459623 0.891661
-0.127158 -0.310007 0.202665 0.562462 0.013083 0.82672
-0.0678873 -0.122916 -0.0714691 -0.448803 -0.058974 -0.891683
-0.105812 0.055853 -0.01412 0.439811 -0.0403145 0.897185
-0.335796 0.125624 0.126368 -0.388073 0.904151 0.178634
-0.158889 0.198837 0.0691565 -0.302479 0.950789 0.0671337
-0.148962 -0.215443 0.0236412 0.341022 0.41275 0.844595
0.524339 -0.0529744 -0.182436 0.342865 -0.930368 -0.129847
-0.448594 0.0825621 0.162362 -0.291936 0.956238 0.0195722
0.241797 0.113737 -0.250682 -0.474495 -0.049406 -0.87887
0.0494652 0.159745 -0.154897 -0.473969 -0.0452226 -0.879379
0.23674 0.378489 -0.245863 -0.426045 0.860818 0.27835
0.0273196 -0.254609 0.00796503 0.308129 -0.948848 -0.0688807
-0.36069 0.0517626 0.22948 0.719446 -0.637205 -0.276348
-0.0143125 -0.192469 0.0262705 -0.26424 0.948785 0.173159
-0.101187 -0.268253 0.188137 0.454977 0.0526465 0.888946
0.0278096 -0.249595 -0.0372663 0.383138 -0.904143 -0.189023
0.133687 0.334683 -0.182799 -0.320144 0.946652 0.0368517
0.253341 0.138223 -0.189039 0.461566 -0.00619839 0.887084
-0.198128 -0.0551936 0.0429508 0.42513 0.0465843 0.903933
0.33721 0.0965233 -0.300225 -0.312885 -0.0849501 -0.945984
-0.248319 0.0892451 0.0117295 -0.405896 -0.0581638 -0.912067
-0.180849 0.00590982 0.0281243 0.388918 0.107781 0.914946
-0.176106 -0.0187483 -0.0237885 -0.420189 -0.102469 -0.901632
0.136878 0.237637 -0.204787 -0.483751 0.0193103 -0.874993
-0.0479679 0.201093 0.131457 0.603606 -0.180554 0.776569
-0.253466 -0.372347 0.142536 0.210877 -0.976535 -0.0437083
0.387549 -0.111314 -0.0866611 0.592455 -0.725063 0.351115
-0.0884501 -0.303302 0.0360986 0.347504 -0.910124 -0.225645
0.174288 0.288448 -0.105829 0.239076 -0.954089 0.180435
0.405443 0.258023 -0.165828 0.879778 0.214508 -0.424237
0.23448 -0.0286694 -0.16635 0.478901 0.00830546 0.87783
-0.0517109 0.0462624 -0.0298241 0.463152 0.0393768 0.885404
-0.266827 0.11454 0.248229 0.49684 -0.0230189 0.867537
0.168044 -0.118536 -0.0431407 -0.33099 0.905109 0.266876
-0.12428 0.00298965 0.00329431 0.504197 -0.0498819 0.862147
0.00601878 0.275476 -0.104468 -0.246748 0.967943 0.046916
-0.425025 -0.212539 0.169636 -0.823513 -0.346519 0.449168
0.119219 -0.210905 -0.0876026 0.317611 -0.944318 -0.0859459
-0.281287 -0.0126665 0.0813591 0.422568 0.0687845 0.903717
0.427048 0.206808 -0.173729 0.818984 0.352574 -0.452721
-0.0797828 0.107949 -0.0822995 -0.503899 -0.0126924 -0.863669
-0.23204 -0.352463 0.0485744 0.350673 -0.909685 -0.222488
-0.106233 -0.232132 0.0941813 -0.135724 0.981349 0.136138
0.0204883 0.279567 -0.0445522 -0.371054 0.897201 0.239479
-0.247196 -0.0532009 0.0641864 0.20017 0.0209773 0.979537
-0.188369 -0.072742 -0.0157576 -0.340837 -0.0747784 -0.937144
0.399123 0.100759 -0.159285 -0.502122 -0.189939 0.84368
0.288788 0.382731 -0.130289 -0.296247 0.9551 0.00469934
0.444691 0.213953 -0.130121 0.809702 0.377983 -0.4489
-0.226112 -0.1518 0.0596311 0.440193 -0.0264389 0.897514
0.167725 -0.185022 -0.145565 0.317112 -0.946564 -0.0587949
-0.409448 0.092991 0.204909 -0.384583 0.908734 0.162166
0.084326 -0.147451 -0.0018822 -0.328934 0.875253 0.354591
0.349952 0.146327 -0.311443 -0.51201 -0.0221276 -0.858694
0.326118 0.406294 -0.199732 -0.329151 0.93803 0.10844
-0.0570146 0.252622 -0.101127 -0.445011 -0.0877642 -0.891214
-0.10598 0.141794 -0.070309 -0.468373 -0.053756 -0.881894
0.135448 0.189701 -0.136088 0.415643 0.0711293 0.906742
-0.448962 -0.130855 0.182989 -0.841405 -0.304445 0.446488
0.227276 -0.18089 -0.00995571 0.369297 -0.912502 -0.175953
0.26047 0.380848 -0.189797 -0.321479 0.943249 0.0832668
0.0136898 0.219113 0.0680975 0.387609 -0.919305 -0.0680961
-0.0611476 -0.141077 -0.0238843 0.439788 0.0350644 0.897417
-0.049063 -0.291069 0.0929298 0.337919 -0.931722 -0.133061
-0.0977117 0.230673 -0.00758121 -0.298176 0.95111 0.0805054
-0.496943 -0.0733825 0.149227 -0.822157 -0.348059 0.450458
0.286129 0.078693 -0.273492 -0.4519 -0.0570214 -0.890244
-0.285747 0.135727 0.0245209 -0.507247 -0.0588925 -0.859786
-0.166428 0.161826 0.194894 0.440026 0.0644253 0.895671
-0.0550242 0.247786 -0.0453621 -0.344888 0.925297 0.157727
-0.173113 0.140332 0.145599 0.379419 -0.923816 -0.0510484
-0.0836616 -0.235628 -0.056689 -0.381878 -0.113685 -0.917194
0.0991569 0.306682 -0.0942162 -0.294366 0.955483 0.0200014
-0.353401 -0.22572 0.296169 -0.767628 -0.406628 0.495379
-0.228971 -0.282404 0.166413 -0.1271 0.980971 0.146768
0.167674 0.0639579 -0.1406 0.453012 0.0459871 0.890318
0.0359784 -0.158818 -0.0485558 -0.236729 0.970217 0.0513727
0.335888 0.323827 -0.249214 0.797188 0.402874 -0.449648
-0.421561 -0.280187 0.12083 -0.329384 -0.0664899 -0.941852
-0.344427 -0.282563 0.259575 -0.768272 -0.40227 0.497933
-0.408232 -0.112503 0.144224 0.57316 0.101633 0.813117
0.394265 0.236896 -0.115883 -0.538593 -0.249564 0.804758
0.194822 -0.157039 -0.208306 -0.426838 -0.088453 -0.899992
0.210786 -0.106281 -0.00332571 -0.280799 0.942061 0.183502
0.33976 0.0131083 -0.29494 -0.38862 -0.109872 -0.914824
-0.0181974 -0.26324 -0.0181361 0.336131 -0.90701 -0.25367
-0.427149 -0.136181 0.228528 -0.823519 -0.346397 0.449249
0.0728317 -0.227479 -0.0592858 0.3273 -0.938853 -0.106907
0.48619 -0.0440999 -0.136062 0.332411 -0.00549386 0.943119
-0.388303 -0.307151 0.160549 -0.84928 -0.275478 0.450373
0.241323 0.230196 -0.259487 -0.432075 -0.177183 -0.884261
0.146652 0.182397 -0.207772 -0.439406 -0.043137 -0.897252
0.493053 -0.0588368 -0.226564 0.360611 -0.922254 -0.139312
0.156158 -0.211365 0.0377302 0.428527 -0.900205 0.0774383
-0.107692 0.177627 -0.00545593 0.453509 -0.856181 0.247557
0.00213604 -0.175762 -0.01645 -0.258994 0.948223 0.183837
-0.111437 -0.212063 0.0125273 0.167743 0.706733 0.687307
0.198756 0.266234 -0.164225 0.250749 -0.439305 0.862633
0.247727 -0.14684 -0.229503 0.326345 -0.939574 -0.103443
-0.121332 0.083868 -0.0595049 -0.462689 -0.05413 -0.884866
-0.493338 0.0239332 0.229401 -0.747509 -0.455458 0.483516
0.435611 0.0318966 -0.29333 0.828943 0.33459 -0.448222
0.37892 -0.00198939 -0.145142 -0.52057 0.602818 0.604663
-0.134332 0.191739 0.171974 -0.334584 0.930841 0.146927
0.0518527 -0.247744 0.0521148 0.289062 -0.957309 0.00166983
-0.309674 0.131838 0.17112 -0.437942 0.850853 0.290268
0.0608361 0.14682 -0.0924452 0.453897 0.0468863 0.88982
-0.177676 -0.355221 0.193593 0.32807 -0.938723 -0.105689
-0.120224 0.169569 0.0915473 0.376492 -0.924596 -0.0580955
-0.211809 -0.35723 0.15767 0.416152 -0.891234 -0.18033
0.412092 0.0731477 -0.306687 0.833028 0.310704 -0.457742
-0.0334385 0.136691 -0.110975 -0.419738 -0.0194241 -0.907438
0.000208202 0.0521424 -0.122069 -0.294795 -0.126136 -0.947199
-0.205523 -0.266201 0.108406 -0.328256 0.914443 0.236732
0.464882 0.01924 -0.247151 0.821913 0.346393 -0.452183
-0.22399 -0.352213 0.10125 0.32057 -0.943905 -0.079234
-0.34775 0.0599709 0.294693 0.638289 -0.139372 0.757075
-0.343177 0.0903985 0.0559837 -0.433716 -0.0383113 -0.900235
0.253937 0.31545 -0.269604 -0.489228 -0.0259296 -0.871771
0.389799 -0.0740623 -0.312016 -0.442589 -0.13693 -0.886208
0.285004 0.370901 -0.0746493 -0.317635 0.947178 0.0442949
-0.377813 0.0453095 0.183013 0.693981 -0.689861 -0.206112
-0.064489 -0.00429692 -0.0260367 0.287083 0.0735403 0.955078
0.257648 0.317663 -0.0613683 0.233727 -0.965962 0.110859
0.428533 0.0545444 -0.141578 -0.571228 0.215495 0.791998
0.355963 0.0568248 -0.307975 -0.419316 0.0254941 -0.907482
-0.424011 -0.0338368 0.301669 -0.80536 -0.379986 0.454979
0.0956981 0.296722 0.0101876 -0.306473 0.948257 0.082962
-0.192682 -0.336544 0.0108598 0.355685 -0.922665 -0.148918
0.428854 -0.0570569 -0.336168 -0.434762 -0.0680686 -0.897969
0.0210878 -0.0220322 -0.0666974 0.417525 0.0960265 0.903577
0.199442 0.0939998 -0.227891 -0.49924 -0.0625997 -0.864199
-0.0865685 -0.309625 0.107601 0.340881 -0.911352 -0.230732
0.110391 0.163296 -0.185232 -0.479508 -0.028555 -0.877073
-0.204472 -0.129736 -0.000894541 -0.461798 -0.0576805 -0.885108
0.35302 0.343762 -0.0847112 0.483254 0.0391856 0.874603
-0.219053 0.0068396 -0.000159351 -0.461943 -0.119187 -0.878865
0.182514 0.330861 0.000167832 -0.436536 0.886079 0.155886
0.383988 0.108207 -0.325771 -0.556339 0.0420165 -0.829893
0.358947 0.279001 -0.115622 -0.332729 -0.569794 0.751416
-0.124857 -0.153101 0.00987973 0.481591 0.0475299 0.875106
-0.39912 -0.203873 0.21825 -0.782142 -0.412109 0.467355
0.0983697 0.30168 -0.188792 -0.445275 -0.0885057 -0.891009
-0.129054 -0.250586 -0.0379978 -0.461878 -0.0936095 -0.88199
-0.327516 -0.00733814 0.0530834 -0.459796 -0.0553456 -0.886298
-0.0561835 0.234056 0.0681125 -0.349879 0.925406 0.145627
-0.0584168 0.192601 0.0287091 0.249277 -0.960753 0.121717
0.0273746 -0.190508 0.0922241 -0.313156 0.92227 0.22661
-0.0844482 -0.316714 0.162475 0.438058 -0.877336 -0.195923
0.272631 -0.09955 -0.255156 -0.46072 -0.0829511 -0.883661
-0.463648 -0.129398 0.133025 -0.533221 -0.0909676 -0.841071
-0.320947 0.0380886 0.05008 -0.526189 -0.0403108 -0.849412
-0.269056 -0.271093 0.268411 0.627327 0.627687 0.460945
-0.127725 -0.248007 0.145924 -0.294268 0.919733 0.259802
0.108886 0.0478856 -0.180078 -0.58026 0.0386316 -0.813514
-0.391466 0.0760335 0.315486 0.425007 0.119734 0.897236
-0.442451 0.0633449 0.11383 -0.414375 -0.036085 -0.909391
0.339063 -0.038372 -0.28961 -0.494982 0.0665584 -0.86635
0.326004 -0.0987676 -0.279725 -0.49005 -0.0212723 -0.871435
0.30309 0.137325 -0.283611 -0.491699 -0.0443465 -0.869635
-0.242 -0.366497 0.265337 0.449073 -0.0312898 0.892947
0.141106 0.240182 -0.140596 0.392717 0.095685 0.914668
0.317263 0.127687 -0.19797 -0.465355 -0.2836 0.83846
-0.28457 -0.263912 0.092414 0.406186 0.345905 0.845791
-0.0971955 0.220599 0.052513 -0.449955 0.884159 0.125713
-0.0955045 -0.178584 -0.056509 -0.5643 0.00341062 -0.825563
-0.0653226 0.189013 -0.0935787 -0.455129 -0.101796 -0.884588
0.304568 -0.130965 -0.196607 0.345161 -0.922233 -0.174215
0.326941 0.210769 -0.164531 -0.57975 -0.147217 0.801385
0.0487883 -0.172659 -0.131258 -0.41436 -0.130093 -0.900767
-0.179323 0.197962 0.015849 -0.416559 0.869917 0.264049
-0.246368 -0.107765 0.0651231 0.439556 -0.029936 0.897716
-0.307452 0.0896803 0.152331 0.429892 -0.897071 -0.102256
0.136665 0.00429821 -0.18895 -0.520131 -0.0579055 -0.852121
0.433766 -0.0822217 -0.204549 0.340562 -0.931856 -0.125145
-0.0674201 -0.227495 0.120903 -0.20266 0.978059 0.0482745
-0.31727 0.0814233 0.205828 0.378979 -0.911222 -0.161398
0.0957234 -0.0041385 -0.1051 0.462809 0.0172885 0.886289
0.0914254 0.2472 -0.182447 -0.500981 -0.05817 -0.863501
0.062833 0.303967 -0.158732 -0.132256 0.986537 -0.0961943
0.290571 0.171228 -0.197491 -0.575065 -0.144903 0.805173
-0.312454 -0.166798 0.0992759 0.420535 0.0630947 0.90508
0.463632 0.0864689 -0.189436 0.769677 0.400347 -0.497312
0.200434 0.35839 -0.177467 -0.329971 0.93865 0.100275
0.119959 0.0876506 -0.120626 0.436894 0.0416957 0.898546
-0.28832 -0.215667 0.0880642 0.595462 -0.0294677 0.802843
-0.0546796 -0.284034 0.00446497 0.337078 -0.930907 -0.140681
0.0485256 -0.246581 0.105494 0.634853 -0.0948836 0.766784
-0.182081 0.102381 0.0240317 0.453982 -0.0376116 0.890217
-0.273337 -0.274478 0.17885 0.268817 0.961625 -0.0549076
-0.204096 -0.108735 0.0451977 0.425742 0.0235843 0.904537
-0.354705 0.111635 0.170074 -0.348294 0.926464 0.142675
-0.13409 -0.20139 -0.0353816 -0.467168 -0.123646 -0.87548
-0.416946 -0.0892043 0.278464 -0.797011 -0.365808 0.480581
0.469555 0.0970635 -0.136027 0.545506 0.122806 0.829061
-0.249063 0.168887 0.0659303 -0.413288 0.869419 0.270746
-0.339614 -0.340194 0.0818423 -0.530217 0.0629113 -0.845524
0.181451 -0.0515997 -0.141694 0.470597 -0.009319 0.882299
-0.178706 0.146399 -0.033277 -0.586115 -0.0233282 -0.809892
0.0187321 -0.247087 -0.0921581 0.351604 -0.908891 -0.22426
-0.453871 -0.0137668 0.267369 -0.841479 -0.336769 0.422493
0.0756213 0.207678 -0.170283 -0.539975 -0.00969479 -0.841625
0.220669 0.305353 -0.0832999 0.257038 -0.952445 0.163645
-0.0466495 -0.246323 0.159954 0.457578 0.0794455 0.885613
0.229734 -0.100736 -0.0509239 -0.29798 0.933361 0.200113
0.0137422 0.155522 -0.0751114 0.407341 0.152819 0.9004
0.33328 0.388492 -0.0830509 0.570916 0.041295 0.819969
0.019853 0.114262 -0.133391 -0.37332 -0.0691924 -0.925119
0.187804 0.33325 -0.0486114 -0.342059 0.930924 0.127973
0.139469 -0.211414 -0.0341726 0.336282 -0.934148 -0.119509
0.29546 0.248627 -0.287853 -0.51441 0.00712488 -0.857515
-0.144284 0.1707 -0.0533882 -0.517719 0.0406659 -0.854584
0.431879 -0.0700454 -0.291901 0.303072 -0.950375 -0.0702485
0.179361 0.140868 -0.221486 -0.320677 -0.0318239 -0.946654
0.445058 -0.0825491 -0.122172 0.556166 -0.634653 0.536558
0.298684 -0.143902 -0.0354419 0.519168 -0.474161 0.71108
0.389796 0.236106 -0.224135 0.811506 0.372701 -0.450057
-0.309463 -0.232815 0.269281 0.737694 0.6151 -0.278317
0.209523 -0.175184 -0.0693991 0.424114 -0.86758 -0.259676
0.152587 -0.0877124 -0.19238 -0.44074 -0.0727121 -0.894685
0.0777996 -0.189594 0.0899522 0.467647 0.0653767 0.881494
-0.207816 0.128388 0.115736 0.357736 -0.933643 0.0183273
0.152319 -0.137926 0.0140966 -0.214501 0.971677 0.0991642
0.182009 -0.194688 -0.0298194 0.313553 -0.944357 -0.0993667
-0.333071 -0.242197 0.114691 0.351558 0.172482 0.92014
-0.396187 0.00724401 0.207645 0.868171 -0.462862 -0.17899
-0.0346409 0.0126152 -0.0985101 -0.475904 -0.0557818 -0.877726
-0.419745 0.0116252 0.334679 0.405785 0.0227812 0.913684
-0.288033 -0.332908 0.052093 -0.33464 -0.142303 -0.93154
0.0798138 -0.220529 -0.112262 0.277863 -0.958417 -0.0650336
0.301855 0.401845 -0.251515 0.838779 0.313944 -0.444846
0.109317 -0.226563 0.0026109 0.335111 -0.934621 -0.119102
-0.219981 -0.3713 0.226022 0.217434 -0.976054 0.00637728
-0.00633525 0.258535 0.0251238 -0.260807 0.965059 -0.0253168
-0.49066 -0.0319568 0.144127 -0.444255 -0.076395 -0.892637
0.385791 0.0161426 -0.320982 -0.458492 0.199611 -0.865991
-0.37208 -0.355563 0.15193 -0.82107 -0.349348 0.451442
-0.32993 -0.221814 0.22748 0.713379 0.608798 -0.347066
0.17369 -0.100685 -0.106406 -0.174503 0.98464 -0.00571023
0.291269 -0.0240817 -0.194353 -0.115176 0.483215 0.867893
-0.458077 -0.174853 0.141227 -0.852035 -0.294767 0.432607
0.0612137 0.238393 0.0505597 0.361465 -0.932384 0.00161449
-0.150368 0.210107 -0.0347422 -0.341026 0.939713 0.0253206
0.502793 0.0497537 -0.152281 0.441828 0.0421914 0.896107
0.118477 -0.046683 -0.177408 -0.488977 -0.0507542 -0.870819
0.284337 -0.09515 -0.0316698 0.199131 0.579826 0.790031
-0.243475 0.113394 0.147802 0.382909 -0.916795 -0.113438
-0.181567 0.137754 0.0810185 0.336326 -0.941597 -0.0167119
-0.273997 0.0987424 0.189918 0.48535 -0.865775 -0.12194
0.0497704 -0.122253 -0.0790928 0.491537 0.0573995 0.868963
-0.385429 -0.0520314 0.275687 0.858393 0.230152 -0.458467
-0.301873 0.096582 0.0968412 0.452317 -0.877961 -0.156823
-0.378644 0.0571107 0.0765705 -0.371517 -0.0840689 -0.924612
-0.231996 0.107051 0.0520174 0.407547 -0.0567652 0.911418
0.388969 -0.094226 -0.254493 0.289442 -0.955488 -0.057153
-0.356828 -0.138821 0.119622 0.469385 0.0373176 0.882205
-0.332498 -0.266801 0.074243 -0.476502 -0.0255324 -0.878802
0.15587 0.295079 -0.219036 -0.4216 -0.145559 -0.895023
-0.0200244 -0.273644 0.0433703 0.332474 -0.90434 -0.267637
0.342583 -0.120347 -0.146255 0.254615 -0.964662 -0.0678114
-0.177801 -0.245716 0.0600746 -0.279559 0.956763 0.0803247
0.337363 -0.134861 -0.0780745 0.334523 -0.894232 -0.297395
0.0205735 0.102212 -0.0743437 0.383894 0.178403 0.905979
0.28367 0.18822 -0.273849 -0.495263 0.0241746 -0.868407
0.268407 0.0892522 -0.190309 0.42043 0.0322847 0.906751
0.0525227 0.291935 -0.100599 -0.34696 0.914978 0.205995
-0.338316 0.133485 0.0584532 -0.340631 0.927118 0.156276
0.435287 -0.0277959 -0.109556 0.478231 0.0161677 0.878085
0.473656 0.0457774 -0.209605 0.876408 0.255096 -0.408455
0.256398 0.217276 -0.191863 0.303367 -0.0102111 0.952819
-0.379868 0.0924604 0.27138 -0.334755 0.93895 0.079453
-0.459809 -0.0438799 0.239161 -0.819915 -0.350821 0.452399
0.218802 0.339703 -0.251335 -0.429742 -0.0856082 -0.898884
-0.242505 -0.301815 0.0300035 -0.372022 -0.0919622 -0.923657
-0.123693 -0.316068 0.0696959 0.355179 -0.9254 -0.132222
0.389291 0.0456019 -0.16504 -0.519018 0.162028 0.839266
-0.0680805 -0.211301 0.0423165 -0.24065 0.961573 0.132156
-0.487989 -0.0244073 0.205557 -0.746269 -0.43415 0.504575
0.0327903 -0.0801692 -0.0663111 0.295232 0.0513379 0.954045
-0.346274 -0.401659 0.163706 -0.771135 -0.411255 0.486025
-0.313351 0.0293625 0.0900197 0.491183 -0.0679864 0.868399
0.0402661 -0.117468 -0.132482 -0.46672 -0.0476365 -0.883121
-0.0318033 0.206696 -0.0181528 0.364259 -0.931294 0.00244094
0.24184 0.0589386 -0.246405 -0.454063 -0.167144 -0.875151
0.0846464 -0.1236 -0.153445 -0.403594 -0.0656846 -0.912577
0.281816 0.259926 -0.163608 -0.308299 -0.583458 0.751351
-0.372086 -0.0209479 0.30726 0.93251 -0.0953622 0.348326
0.25342 0.0193157 -0.182928 0.408816 0.0492062 0.911289
-0.412267 -0.191787 0.112712 -0.46628 -0.0643542 -0.882293
0.307924 0.314244 -0.298685 -0.467447 -0.051714 -0.882507
0.127341 -0.179569 0.0652238 0.511266 0.014909 0.859293
-0.326524 -0.328244 0.256501 -0.872334 -0.148624 0.465774
0.0943733 0.097586 -0.173187 -0.490515 -0.0567112 -0.869585
-0.140838 0.104218 0.00276894 0.492271 0.021681 0.870172
0.417696 0.124646 -0.247205 0.855736 0.268935 -0.44203
0.273187 -0.0374936 -0.257741 -0.468235 -0.0520238 -0.882071
-0.453831 -0.0672541 0.123525 -0.46992 -0.042945 -0.881664
-0.300148 0.125393 0.218797 -0.264283 0.963684 0.0383104
0.00972613 -0.267755 0.0844964 0.236827 -0.969061 -0.0695178
0.0861721 0.283086 0.0532572 0.497653 -0.0233424 0.867062
-0.362336 -0.406414 0.106887 0.280862 -0.958744 -0.0438839
-0.17983 0.180395 0.11662 -0.295387 0.952209 0.0777422
0.391522 0.184323 -0.135658 -0.470089 -0.283751 0.835764
0.171555 0.352791 -0.22119 -0.331683 0.937502 0.105245
0.345628 -0.042755 -0.117876 -0.393879 0.835082 0.384054
0.189777 0.210873 -0.231839 -0.440303 -0.0515833 -0.896366
0.0962195 0.261795 -0.0506922 0.373155 -0.926902 -0.0400956
0.0882402 0.259369 -0.103236 0.400098 -0.908023 0.124156
-0.401112 -0.34516 0.112024 -0.464295 0.0119781 -0.8856
-0.223827 0.130277 -0.0087723 -0.302342 -0.0299096 -0.95273
-0.387537 -0.235339 0.0977623 -0.498113 -0.0129899 -0.867015
-0.0627038 0.0890631 -0.0327752 0.422594 0.0771232 0.903032
-0.336736 -0.0168375 0.103497 0.430624 0.0416233 0.901571
-0.185771 -0.20945 -0.00980945 -0.556548 -0.0363501 -0.83002
-0.297719 -0.32918 0.292452 0.515825 -0.00931052 0.856643
-0.0348227 -0.0398208 -0.0436051 0.45257 0.0264925 0.891335
0.292044 0.281281 -0.131079 0.0850187 -0.832554 0.547381
-0.159074 0.0303983 -0.0386902 -0.540462 -0.197639 -0.817826
0.139922 0.314592 -0.0190161 -0.337272 0.933131 0.124556
-0.272563 -0.256047 0.0475902 -0.463293 -0.0544749 -0.88453
-0.216696 0.0464117 0.04532 0.337284 0.0707603 0.93874
-0.257996 0.0305867 0.0152185 -0.433291 -0.101645 -0.895504
-0.149334 -0.117074 -0.0333072 -0.379846 -0.0899476 -0.920666
-0.309093 -0.376148 0.253016 -0.858909 -0.273401 0.433045
-0.0577227 -0.192717 -0.0161624 0.00608655 0.774755 0.632233
0.187966 0.0353955 -0.216902 -0.421935 -0.112518 -0.899617
-0.0923171 0.218329 0.10714 -0.326662 0.944622 -0.0313374
0.225074 0.1821 -0.176617 0.497908 0.019112 0.867019
-0.0201052 0.0876664 -0.0545056 0.399744 0.0551665 0.914965
0.03046 -0.172888 0.0303468 -0.280683 0.945173 0.166927
0.421204 0.279637 -0.119588 0.457115 0.0280613 0.888965
0.363414 -0.10826 -0.209099 0.33322 -0.937724 -0.0981696
-0.374606 0.02139 0.117212 0.435709 0.0415005 0.89913
-0.26586 0.0647917 0.0668182 0.564209 0.0271556 0.825185
0.500725 -0.0109488 -0.203229 0.873071 0.293001 -0.38974
0.399274 -0.0990494 -0.136327 0.421108 -0.89276 -0.160151
-0.105783 0.232177 -0.0665129 -0.347168 0.928311 0.133088
0.00781817 -0.00103122 -0.122215 -0.539191 -0.0685978 -0.839385
-0.0763982 -0.0399137 -0.0731777 -0.541942 0.00111367 -0.840415
-0.37682 -0.161329 0.195731 0.92217 0.241989 -0.301736
0.167577 -0.190454 -0.0905157 0.474777 -0.800688 -0.365356
-0.431308 0.0733263 0.256796 -0.290748 0.956048 0.0379264
-0.0225296 -0.261052 -0.0785804 0.347203 -0.914747 -0.206612
0.0431803 0.243701 -0.0843621 0.442297 -0.81452 0.375407
0.222822 -0.0851279 -0.105902 -0.378497 0.869996 0.315986
0.131461 -0.0864114 -0.120731 0.454476 0.0669558 0.888239
0.00268795 0.22048 -0.131825 -0.473392 -0.0528872 -0.879263
-0.395872 -0.0905052 0.0943679 -0.525775 0.0278282 -0.850168
-0.314623 -0.390896 0.113293 0.352534 -0.916438 -0.18937
-0.0451709 -0.205645 -0.0807268 -0.425872 -0.0675702 -0.902257
-0.0312103 -0.109805 -0.0941593 -0.5202 -0.0225224 -0.853747
0.237933 0.363743 -0.126234 -0.390375 0.86395 0.318116
0.0446826 0.273849 0.0225753 -0.269918 0.957903 0.0978033
-0.173084 -0.332482 0.0655358 0.423626 -0.884332 -0.196208
-0.463444 0.0337445 0.291961 -0.876544 -0.243011 0.415471
0.0442881 0.041781 -0.139386 -0.376932 -0.0201399 -0.926022
-0.127812 -0.00893326 -0.0463933 -0.506876 -0.0497687 -0.860581
-0.211809 0.122782 0.184689 0.33198 -0.943242 0.00917461
0.227138 0.167134 -0.247338 -0.597921 -0.0790982 -0.797643
0.341717 0.364111 -0.207607 0.817774 0.353405 -0.454259
0.2069 -0.0168153 -0.230715 -0.444365 -0.13162 -0.886124
-0.0571356 -0.0956585 -0.0289425 0.435014 0.0428791 0.899402
0.421345 0.135391 -0.138208 -0.454781 -0.303518 0.837288
-0.3984 -0.120607 0.191234 0.798751 0.49746 -0.338423
0.374633 -0.0626077 -0.0768055 0.523291 0.112484 0.844698
-0.203613 0.168882 0.166478 -0.320217 0.941278 0.107039
-0.020872 -0.198606 0.0723327 -0.27265 0.949046 0.158032
0.388231 0.322233 -0.103341 0.567151 0.118685 0.815017
-0.352658 -0.193069 0.120634 0.433739 0.0704018 0.898284
0.101476 0.0523291 -0.111206 0.45817 0.0423362 0.887856
-0.158354 -0.270264 0.201445 -0.231091 0.919371 0.318362
-0.355646 0.106866 0.218675 -0.346533 0.928587 0.132818
-0.170663 -0.160227 0.0346084 0.435182 0.0432152 0.899305
-0.394877 -0.258557 0.183038 -0.854847 -0.303473 0.42088
0.37253 0.410024 -0.107872 -0.316832 0.947853 0.0345151
-0.331168 -0.0598594 0.0596848 -0.419696 -0.203039 -0.884664
-0.326155 -0.216831 0.0673047 -0.453655 -0.0527358 -0.889615
0.475932 -0.0709485 -0.179578 0.340856 -0.924654 -0.169799
-0.371089 0.0121056 0.276826 0.909583 -0.264001 -0.320878
0.0445431 0.0501697 -0.0825582 0.423428 0.0449398 0.904814
-0.365825 -0.242914 0.253284 -0.811918 -0.419626 0.405836
0.306295 -0.0507968 -0.156833 -0.43914 0.764991 0.471111
0.245421 0.286723 -0.140072 -0.140197 -0.80041 0.582828
-0.237154 -0.0548326 0.0105144 -0.428504 -0.0686237 -0.90093
-0.18383 -0.311999 0.233111 0.497345 -0.127546 0.858126
0.0292661 0.264119 0.0813354 -0.249372 0.968123 0.023493
-0.390582 0.11299 0.120406 -0.436639 0.887664 0.146286
-0.231711 -0.259686 0.0722315 0.178944 0.551425 0.814806
-0.363905 -0.301966 0.211435 -0.805382 -0.372569 0.461033
0.294762 -0.14347 -0.116268 0.337762 -0.931874 -0.132392
-0.155109 0.157378 0.0335812 0.323687 -0.946111 0.0100051
-0.229548 -0.000809237 0.0527831 0.310872 0.153074 0.938044
-0.357463 -0.143563 0.31385 0.524731 -0.0295289 0.850756
0.528807 -0.0132706 -0.158148 0.395241 0.150962 0.906088
-0.399286 -0.161391 0.258692 -0.868655 -0.251294 0.426953
0.108925 0.146432 -0.115773 0.423691 0.0478202 0.904544
-0.0019508 0.221997 -0.0624831 0.486448 -0.7998 0.351693
-0.301072 0.0956131 0.267424 0.487732 -0.263753 0.832197
-0.372671 -0.117775 0.248224 0.903424 0.293387 -0.31265
-0.464646 0.0226635 0.125831 -0.531427 -0.00765574 -0.847069
0.464249 0.147069 -0.146528 0.766435 0.433498 -0.47398
-0.396036 -0.0792153 0.328776 -0.84886 -0.292258 0.44048
-0.420753 0.00117876 0.153885 0.948619 -0.315653 0.0220173
-0.0790022 0.138829 -0.0239101 0.493755 -0.0387615 0.868737
-0.15695 -0.108946 0.0233093 0.470088 -0.0801525 0.878973
0.273573 -0.0793095 -0.0850456 -0.194415 0.97934 0.0556359
-0.0980102 0.171016 0.144415 0.537186 -0.83209 0.138049
0.278029 0.0175612 -0.264379 -0.36397 -0.0966696 -0.926381
-0.278428 -0.0706768 0.0322057 -0.439986 -0.116827 -0.890373
-0.39426 -0.0401708 0.0941419 -0.497112 -0.0376379 -0.86687
-0.0862682 0.0105715 -0.0735292 -0.411883 -0.0857604 -0.907192
-0.419457 -0.0426039 0.197632 0.918516 0.0460258 -0.392696
0.375951 0.370557 -0.143259 0.836053 0.334776 -0.434673
