ply
format ascii 1.0
comment Created by Open3D
element vertex 128
property double x
property double y
property double z
property double nx
property double ny
property double nz
end_header
-0.298193 0.385051 -0.130266 -0.486822 0.837474 -0.248278
-0.00260375 -0.199969 0.123281 -0.847477 -0.5217 -0.0980394
-0.121499 -0.0216919 0.202371 -0.847476 -0.521702 -0.0980386
-0.267886 0.268322 -0.0754921 -0.847476 -0.521702 -0.0980377
0.113634 0.0296935 -0.17696 0.847477 0.521701 0.0980384
0.00415725 0.0549831 0.105395 0.290187 -0.300666 -0.908511
0.0211527 0.0298748 0.113998 0.147804 -0.0545255 -0.987513
-0.23361 0.191706 0.0359185 -0.847477 -0.521701 -0.0980384
-0.160228 0.0116631 0.359661 -0.847476 -0.521701 -0.0980406
-0.186987 0.0633572 0.315886 -0.847477 -0.521701 -0.0980384
0.161339 -0.117575 0.194334 0.847477 0.521701 0.098038
-0.288266 0.248305 0.207197 -0.847477 -0.521701 -0.0980382
-0.0570029 -0.0440155 -0.236366 -0.847476 -0.521701 -0.0980383
0.0434045 0.0878267 0.106805 0.311768 -0.339698 -0.887359
-0.244136 0.356515 -0.0794285 -0.375599 0.45882 0.805239
-0.152946 0.0759019 0.378407 -0.530524 0.838711 0.122918
-0.196827 0.142776 -0.021671 -0.847477 -0.521701 -0.0980384
0.10058 -0.0314666 0.261337 0.847477 0.5217 0.0980384
-0.205234 0.142995 0.356957 0.20283 -0.488922 0.848419
0.0865415 0.00120762 0.208822 0.847477 0.521701 0.0980383
0.0887901 -0.0987891 0.279875 0.136917 -0.393267 0.909172
-0.119744 0.023818 0.0653319 0.453071 -0.614651 -0.645701
0.152025 -0.289761 0.0577787 0.847477 0.521701 0.0980381
-0.0295556 -0.0854637 -0.253067 -0.847477 -0.521701 -0.0980384
0.166719 -0.0671269 -0.120649 0.455849 -0.80988 0.369183
-0.265118 0.254609 -0.0264489 -0.847477 -0.521701 -0.0980384
0.207623 -0.181169 0.132649 0.847477 0.521701 0.098039
-0.166734 0.207997 0.164472 0.847477 0.521701 0.0980382
0.190939 -0.200853 -0.135849 0.506924 -0.740581 -0.441098
0.157091 -0.111007 0.196108 0.847477 0.521701 0.0980386
0.051078 -0.214143 -0.265339 -0.847477 -0.521701 -0.0980384
-0.0542225 0.140605 -0.265748 -0.184576 0.462771 -0.86705
0.0302753 0.149681 -0.0948825 0.847476 0.521702 0.0980384
0.0565018 -0.287543 0.0783693 -0.847477 -0.521701 -0.0980391
-0.270532 0.39874 -0.115801 -0.3756 0.458823 0.805237
0.107152 -0.155355 -0.269558 0.847477 0.521701 0.0980372
0.167391 -0.0527096 -0.265248 0.311768 -0.339698 -0.887359
0.231209 -0.412003 -0.0674093 0.977867 0.20445 0.0444653
-0.0531292 -0.0212386 0.381038 -0.27211 0.268374 0.924084
-0.227559 0.136148 0.279256 -0.847477 -0.5217 -0.0980376
0.135247 -0.302926 0.272863 0.847477 0.521701 0.0980384
-0.0837589 -0.0844925 0.210316 -0.847477 -0.521701 -0.0980384
-0.239045 0.163588 0.232525 -0.847477 -0.521701 -0.0980384
0.0291974 0.0878249 0.243598 0.847477 0.521701 0.0980382
0.16662 -0.347701 -0.18591 0.362339 -0.703495 0.611396
-0.0667794 0.0781217 -0.40041 -0.490294 0.840078 -0.232123
0.187444 -0.301679 -0.184977 0.847477 0.521701 0.0980382
-0.285551 0.280971 0.00990119 -0.847482 -0.521693 -0.0980379
-0.0275294 -0.149703 0.0712613 -0.847477 -0.521701 -0.0980383
0.10723 -0.260333 -0.398541 -0.670971 -0.641017 -0.372686
-0.242386 0.196237 0.0876713 -0.847477 -0.521701 -0.0980384
0.0444504 0.072394 0.19386 0.847477 0.521701 0.0980384
-0.0230152 0.157942 0.275589 -0.33259 0.377903 0.864045
0.0469133 -0.0835571 0.0562003 -0.410722 0.761441 -0.501513
0.0895139 -0.114104 -0.391522 0.530524 -0.838711 -0.122918
-0.164353 0.145436 -0.316546 -0.847477 -0.521701 -0.0980383
0.0676168 0.0427118 0.151553 0.847477 0.521701 0.0980383
-0.0188044 -0.0740237 0.386459 0.847477 0.521701 0.0980385
-0.138714 0.198456 -0.434148 0.387934 -0.482618 -0.78523
-0.16086 0.271252 -0.222912 0.847477 0.521701 0.0980388
0.168394 -0.135563 0.229071 0.847477 0.521701 0.0980378
0.0391384 -0.0318707 -0.0992144 -0.290187 0.300666 0.908511
-0.239588 0.312263 0.188377 -0.362339 0.703495 -0.611396
-0.121072 0.0969795 0.360519 0.847476 0.521701 0.0980403
0.0190088 0.0964653 0.285693 0.847477 0.521701 0.0980385
-0.208586 0.192654 -0.185443 -0.847477 -0.521701 -0.0980384
-0.106413 0.0099953 0.0826044 0.371753 -0.451459 -0.811163
0.0904259 -0.213797 0.199148 0.336763 -0.671158 0.660407
-0.0509087 0.0857802 -0.406215 -0.490294 0.840078 -0.232123
0.157007 -0.0959696 0.116809 0.847477 0.521701 0.0980383
-0.149078 0.00392406 0.304458 -0.847475 -0.521703 -0.0980404
0.151885 -0.174839 0.207401 0.336763 -0.671158 0.660407
-0.0964499 0.0119409 -0.193139 -0.847477 -0.521701 -0.0980383
0.108832 -0.333341 -0.130283 -0.847478 -0.521698 -0.0980446
0.0904125 -0.210007 -0.152763 -0.423596 0.553332 0.71721
0.16614 -0.29741 -0.0235394 0.847477 0.5217 0.0980375
-0.310394 0.35169 0.0348274 -0.186308 0.465263 -0.865344
0.0910567 -0.346164 0.18052 0.527175 -0.805515 -0.270614
0.036935 0.0684606 0.279757 0.847477 0.521701 0.0980383
0.201746 -0.198665 0.14058 0.441871 -0.79566 0.414337
-0.01094 -0.0761019 0.329536 0.847477 0.521701 0.0980385
-0.107005 0.0645796 -0.00562115 0.525411 -0.850719 -0.01482
0.107803 -0.143206 -0.0633353 0.22142 -0.179563 -0.958504
-0.220354 0.348119 -0.117667 0.847477 0.521701 0.0980385
-0.000696578 -0.20481 0.132556 -0.847477 -0.521701 -0.0980381
0.131458 -0.00582032 -0.142053 0.847477 0.521701 0.0980384
-0.126877 -0.0440272 0.367714 -0.847477 -0.521701 -0.0980384
0.195865 -0.332298 -0.185518 0.362339 -0.703495 0.611396
-0.0146323 -0.111667 0.450965 0.490293 -0.840078 0.232126
-0.0354907 0.121756 -0.277968 -0.136918 0.393269 -0.909172
-0.301207 0.376629 0.0765132 -0.203461 0.148654 0.967732
0.0894801 -0.181587 0.228888 0.272526 -0.586095 0.763034
-0.273248 0.254768 0.0429861 -0.847473 -0.521706 -0.0980364
-0.207354 0.185873 -0.160005 -0.847477 -0.521701 -0.0980384
-0.312339 0.313559 0.244016 -0.965174 -0.248891 0.0805762
0.13888 -0.336503 -0.140826 0.530278 -0.840466 -0.111456
-0.105825 0.292416 -0.0182541 -0.515393 0.852892 -0.0833426
0.207039 -0.125021 -0.161085 0.847477 0.5217 0.0980386
-0.176263 0.291462 -0.197307 0.847477 0.521701 0.0980387
-0.0553668 0.197529 0.0691873 -0.0187506 -0.155152 0.987713
0.0769823 -0.235967 -0.373127 -0.847477 -0.521701 -0.0980383
0.0748875 -0.0800355 0.289504 0.111441 -0.355428 0.928036
-0.156898 0.142527 -0.3655 -0.847477 -0.5217 -0.0980379
-0.0793613 0.0218984 0.399494 0.847477 0.521701 0.0980383
0.0824716 0.00157178 0.242065 0.847477 0.521701 0.0980384
0.0815663 -0.126355 0.267533 0.184576 -0.462771 0.867049
-0.0761585 -0.135746 0.417356 -0.847477 -0.521701 -0.0980384
-0.182227 0.210358 0.285831 0.847478 0.521699 0.0980358
-0.162347 0.177252 0.290156 0.847475 0.521703 0.0980414
-0.246388 0.190459 0.153011 -0.847477 -0.521701 -0.0980384
0.00165163 0.0292718 -0.340045 0.847477 0.521701 0.098038
-0.00231821 0.0609076 0.101024 0.33259 -0.377903 -0.864045
0.11076 -0.139757 -0.0632985 0.221419 -0.179562 -0.958505
0.0159991 0.125374 0.157876 0.847477 0.521701 0.0980384
0.201854 -0.234271 -0.007203 0.525411 -0.850719 -0.0148199
-0.0039222 0.205092 -0.0941308 0.847477 0.521701 0.0980383
0.124002 -0.0431005 0.0530753 -0.441871 0.79566 -0.414338
0.085693 -0.135425 0.208779 -0.468717 0.822129 -0.323124
-0.093008 0.0601803 0.0438924 0.506924 -0.740581 -0.441099
-0.0974783 0.200051 -0.391916 0.847477 0.521701 0.0980383
-0.255874 0.202184 0.172614 -0.847477 -0.521701 -0.0980384
0.0890327 -0.279737 -0.244377 -0.847478 -0.521699 -0.0980398
-0.0909365 0.187937 -0.384001 0.847477 0.521701 0.0980383
0.115871 -0.381846 0.296256 -0.219743 0.176665 0.959428
0.019173 -0.258441 0.246187 -0.847478 -0.521699 -0.0980402
-0.208631 0.290698 0.086559 0.847477 0.521701 0.0980383
0.0418576 -0.210231 -0.20645 -0.847477 -0.521701 -0.0980384
0.168588 -0.390802 0.0637265 0.375599 -0.45882 -0.805239
