ply
format ascii 1.0
comment Created by Open3D
element vertex 824
property double x
property double y
property double z
property double nx
property double ny
property double nz
end_header
-0.0153741 -0.269688 -0.0155067 0.307748 -0.951283 -0.0187397
-0.363078 0.0146409 0.113283 0.449559 0.0391368 0.892393
0.362738 -0.101005 -0.234012 0.448126 -0.863205 -0.232508
-0.3471 -0.177501 0.263831 0.79942 0.433848 -0.415577
-0.426359 -0.112351 0.242769 -0.871769 -0.10005 0.479593
-0.16176 -0.169408 -0.0239785 -0.53377 -0.0272841 -0.845189
0.309188 0.38399 -0.0814493 -0.413 0.878105 0.241585
0.429555 0.0915787 -0.256417 0.83207 0.338447 -0.439447
0.111463 -0.126519 -0.093939 -0.116021 0.883537 0.453765
0.0243652 0.273325 -0.00350655 -0.341149 0.926298 0.159965
-0.32129 -0.304482 0.295142 -0.89795 -0.133463 0.419374
-0.396322 -0.29479 0.108783 -0.304103 -0.0465489 -0.951501
-0.248713 0.00640289 0.0146069 -0.464657 0.0459712 -0.884297
0.046313 3.61796e-05 -0.141424 -0.52536 -0.0139293 -0.850766
-0.219386 0.144625 0.226328 0.429378 0.0284284 0.902677
0.487181 0.0205822 -0.211245 0.816312 0.354366 -0.456135
-0.0669301 -0.155927 -0.0197258 0.376117 0.0651884 0.924276
-0.343687 -0.252543 0.0794801 -0.46475 -0.0534119 -0.883829
-0.0696616 0.188011 0.0617436 0.286051 -0.950779 0.119137
-0.241748 0.174768 0.0117217 -0.161372 0.985879 -0.0447497
0.0352764 0.26839 0.0761037 -0.353476 0.918866 0.175328
-0.105997 -0.324625 0.182601 0.45021 -0.826871 0.337038
0.115338 0.30236 0.0349797 -0.281542 0.95953 -0.00600281
-0.190863 0.136183 0.0398063 0.45906 -0.888328 0.0116893
-0.11206 0.229761 -0.0412787 -0.309029 0.94801 0.0760167
-0.333247 -0.215876 0.112961 0.440659 0.0315258 0.897121
-0.0119455 -0.279079 0.105155 0.312679 -0.94489 -0.0970328
-0.113066 0.212177 0.073618 -0.319816 0.943253 0.0893919
-0.328816 0.139645 0.0530076 -0.298531 0.952453 0.0609278
0.143509 -0.0794646 -0.123157 0.276732 0.0910174 0.956627
-0.357339 -0.194461 0.209631 0.901779 0.265705 -0.340874
0.224127 -0.179772 -0.00341668 0.530466 -0.823586 0.200777
-0.162303 -0.251084 0.084845 -0.264869 0.946665 0.183495
-0.0250744 0.17928 -0.0535194 0.413481 0.0469562 0.909301
0.221886 -0.17112 -0.0686746 0.376086 -0.913918 -0.152684
0.393622 0.123945 -0.301802 0.802852 0.370208 -0.467305
0.415057 0.0719812 -0.297191 0.748158 0.502222 -0.433627
-0.068011 -0.301003 0.0851268 0.303128 -0.949055 -0.0860725
0.372595 0.197462 -0.275583 0.767346 0.393903 -0.505985
0.0570998 -0.238388 -0.0121772 0.320507 -0.941832 -0.101134
0.127494 -0.216566 0.000472662 0.291173 -0.951121 -0.102895
0.281661 -0.057288 -0.1498 -0.367764 0.865424 0.340281
0.000713801 0.200162 -0.12795 -0.491955 -0.0388835 -0.869752
-0.0691028 0.228475 0.0830013 -0.325505 0.939266 0.108742
-0.419451 0.0597064 0.336573 0.389435 0.0327512 0.920471
0.24293 -0.164255 -0.0997709 0.414382 -0.868033 -0.273507
-0.381041 -0.0292896 0.272068 0.915413 -0.0724926 -0.395935
-0.276274 -0.376155 0.112412 0.351176 -0.927887 -0.1253
-0.113952 -0.249098 0.167237 -0.214822 0.975163 0.0539368
-0.465295 -0.030969 0.232421 -0.823754 -0.336378 0.456376
0.393489 0.327568 -0.140249 0.825302 0.342676 -0.448831
-0.066356 0.226306 0.108007 -0.330932 0.937258 0.109684
0.285589 0.396991 -0.264564 -0.346969 0.929711 0.123492
0.213445 -0.116701 -0.000264041 -0.029577 0.843654 0.536072
0.508621 0.0317156 -0.156182 0.780104 0.399337 -0.48163
0.164156 -0.114185 -0.0815502 -0.215951 0.95978 0.17941
-0.0724705 -0.304574 0.154404 0.385239 -0.90702 -0.170018
-0.439019 -0.222782 0.142531 -0.78576 -0.3961 0.475064
0.44322 -0.0739098 -0.255476 0.306649 -0.951814 0.0039367
-0.0702962 0.241554 -0.0966717 -0.45724 -0.0293952 -0.888857
0.0120262 -0.0509362 -0.117702 -0.538955 -0.0161778 -0.842179
0.0864689 0.280343 -0.180456 -0.603882 0.044746 -0.795817
-0.422698 -0.18624 0.117915 -0.562237 -0.0184426 -0.826771
0.253921 -0.140879 -0.239705 0.288849 -0.95243 -0.0971819
-0.106428 0.0358006 -0.0657632 -0.395027 -0.0686244 -0.916103
-0.00822049 -0.0212453 -0.0479798 0.381225 0.0732266 0.921578
-0.345707 -0.2765 0.266869 -0.77755 -0.426491 0.462084
-0.494397 0.0211491 0.136662 -0.327339 0.00321728 -0.944902
-0.0230811 0.176639 -0.0564183 0.517909 -0.025742 0.855048
0.110833 -0.154737 -0.163984 -0.471855 -0.0490452 -0.880311
0.258583 0.391088 -0.272653 -0.3197 0.942113 0.101073
-0.287621 0.0700478 0.0279931 -0.454862 -0.0598445 -0.888549
-0.387242 0.0161789 0.219141 0.830275 -0.508768 -0.227593
0.194184 0.232458 -0.238473 -0.44782 0.0129903 -0.89403
0.318695 -0.110404 -0.274838 -0.400161 -0.170576 -0.90043
0.283884 -0.145179 -0.148347 0.338603 -0.930396 -0.140398
0.447639 -0.0681646 -0.274357 0.44777 -0.872461 -0.195737
0.0802065 -0.223698 -0.0908312 0.414823 -0.855569 -0.309714
-0.228791 -0.323569 0.257438 0.460489 0.0568197 0.885845
0.177936 0.269665 -0.228504 -0.535364 -0.014441 -0.844498
0.0873892 0.120355 -0.109076 0.479376 0.0173209 0.877439
-0.518639 0.0395868 0.151746 -0.446677 -0.0449307 -0.893566
-0.15117 -0.26549 0.180531 -0.369883 0.891648 0.261057
-0.468944 -0.0624418 0.130706 -0.483984 -0.0479298 -0.873763
-0.455655 -0.0515865 0.235578 -0.696124 -0.467476 0.544865
0.151637 0.27676 -0.0169858 0.331687 -0.943087 -0.0238932
-0.291739 -0.0628194 0.0849882 0.490424 0.0262368 0.871089
0.304345 0.134084 -0.201939 -0.417352 -0.382706 0.824229
0.384882 0.376837 -0.112059 0.80812 0.369744 -0.45851
-0.0771367 0.0672284 -0.0247136 0.386536 0.162242 0.907892
-0.0833425 0.0745609 -0.0253749 0.340094 0.0913625 0.935943
0.286604 0.230807 -0.176005 -0.369591 -0.48657 0.791614
0.351008 -0.127061 -0.0805417 0.339157 -0.935997 -0.094242
-0.32136 -0.15807 0.106279 0.532628 0.00745518 0.846316
0.461593 -0.0617307 -0.29019 0.329573 -0.938561 -0.102398
-0.0974876 0.0871652 -0.0721161 -0.483731 0.00164551 -0.875215
-0.362288 0.0633877 0.0679434 -0.512655 -0.0168296 -0.85843
0.0183134 0.00796324 -0.0694237 0.29521 -0.0173849 0.955274
0.19475 0.337808 -0.0583086 -0.350788 0.923453 0.155509
-0.238062 -0.257644 0.0229808 -0.51704 -0.0414917 -0.854955
-0.0882956 0.157353 -0.0229912 0.480244 0.0480367 0.875818
0.0292589 -0.0436146 -0.130218 -0.43144 -0.065242 -0.899779
-0.264819 0.0500226 0.0201773 -0.47429 -0.0542545 -0.878695
-0.3294 -0.252517 0.307655 0.598439 0.0691544 0.798179
0.128431 0.299157 0.0336692 0.491453 -0.0836355 0.866879
0.174981 -0.00434627 -0.143196 0.43177 0.0738174 0.898958
0.307604 0.317614 -0.298133 -0.355045 -0.16814 -0.919604
-0.173208 0.0610211 -0.031205 -0.54397 -0.0863969 -0.834645
0.480576 -0.00221415 -0.136821 0.564934 0.0136638 0.825023
0.0361897 0.270454 0.0223983 -0.387676 0.907507 0.161673
0.44141 0.100508 -0.134079 -0.502783 -0.132743 0.85416
-0.31672 0.0192001 0.092054 0.344421 0.0549862 0.937204
-0.20579 0.126729 0.140424 0.316956 -0.948431 0.00430457
-0.281015 -0.261157 0.0479628 -0.792397 0.0441904 -0.608403
0.32158 -0.0152766 -0.28737 -0.372168 -0.0912295 -0.923671
-0.253575 0.0558762 0.0134398 -0.416194 -0.0649268 -0.906955
-0.0381391 -0.0939325 -0.0354505 0.374938 0.0253801 0.926702
-0.0782859 -0.133886 -0.0672497 -0.411705 -0.134321 -0.901364
-0.394779 -0.042154 0.246946 0.946106 -0.0611874 -0.318024
-0.227376 -0.264394 0.0762565 -0.321498 0.909841 0.262351
-0.162748 -0.155933 -0.0222221 -0.485986 -0.00254874 -0.873963
-0.357722 -0.20449 0.301034 -0.885683 -0.175647 0.429783
0.265163 0.334956 -0.275965 -0.463644 -0.024825 -0.885674
0.473429 0.128607 -0.147709 0.860424 0.28058 -0.425377
-0.38773 -0.144548 0.189231 0.818397 0.431665 -0.379332
0.383584 -0.0239309 -0.126094 -0.474777 0.671165 0.56932
0.35941 -0.0943362 -0.301313 -0.565033 -0.0197039 -0.824833
0.0563197 0.12094 -0.0931901 0.395496 0.031153 0.917939
-0.16248 -0.335957 0.121595 0.303901 -0.950223 -0.0687107
0.409853 0.0144813 -0.132402 -0.48777 0.547627 0.679842
0.165218 0.17522 -0.212692 -0.465305 -0.0639915 -0.882834
-0.0364716 -0.191962 -0.0883998 -0.49608 -0.0625562 -0.866021
0.126407 0.272583 -0.0623778 0.341802 -0.939692 -0.012283
0.0274854 -0.0425826 -0.0677249 0.610364 0.0422847 0.790992
0.288255 -0.142089 -0.142454 0.405806 -0.891382 -0.201888
0.0836081 -0.165775 0.045899 -0.246616 0.956778 0.154128
0.154222 -0.191566 -0.113323 0.330195 -0.937892 -0.106443
-0.3536 -0.290696 0.237095 -0.825836 -0.343081 0.447539
0.20529 -0.167187 -0.143764 0.29048 -0.952501 -0.0914553
0.114431 -0.0515449 -0.173874 -0.454056 -0.0639065 -0.888678
0.00317373 -0.257971 0.128905 0.46237 0.0563889 0.884892
0.320555 -0.050378 -0.129473 -0.305233 0.917317 0.25566
-0.480987 -0.0156103 0.225236 -0.831091 -0.327874 0.449206
0.150993 0.100252 -0.201351 -0.485848 -0.054559 -0.872339
0.0242492 -0.00718657 -0.124826 -0.410216 -0.030161 -0.91149
-0.29149 -0.0500918 0.0340369 -0.482185 0.0272808 -0.875645
0.112575 -0.0355154 -0.11207 0.504999 0.012603 0.863028
-0.156793 -0.323721 0.0455376 0.325173 -0.939434 -0.108285
-0.182698 -0.352718 0.195722 0.321741 -0.940927 -0.105538
0.00859876 0.205433 -0.13233 -0.462528 -0.0968742 -0.881296
0.0939184 0.320795 -0.17045 -0.324377 0.938739 0.116397
0.227317 0.0752924 -0.175517 0.462977 0.00903937 0.886324
-0.00974578 0.27433 -0.111222 -0.362679 0.91856 0.157198
-0.146813 0.0655245 0.00860687 0.485032 0.0460642 0.873282
-0.140205 -0.336172 0.170396 0.261169 -0.963394 -0.0605268
0.156091 -0.0128149 -0.133039 0.494397 0.0299314 0.868721
-0.298379 -0.331663 0.297261 0.454224 0.0684929 0.888251
0.462429 -0.0599112 -0.300634 0.330963 -0.939363 -0.0897777
0.0214019 0.141679 -0.0750028 0.512669 -0.086755 0.854192
0.254427 0.355507 -0.271821 -0.505543 -0.038508 -0.861942
0.0495511 0.259056 0.0746157 0.492299 0.0659216 0.867927
0.456842 -0.0703358 -0.232579 0.369935 -0.91648 -0.152353
-0.409569 -0.0039979 0.14125 0.632429 -0.0376723 0.773702
0.192175 0.274781 -0.160474 0.104978 -0.680152 0.725516
0.447238 0.193953 -0.139753 0.867569 0.277641 -0.412601
-0.468666 -0.0582249 0.132095 -0.463503 -0.0511876 -0.884616
-0.196879 -0.171834 -0.00543657 -0.447173 -0.0241943 -0.89412
-0.180513 -0.264653 0.136788 -0.239398 0.968788 0.0643339
-0.363509 -0.1508 0.0813235 -0.433851 0.0077259 -0.900952
0.133459 0.152707 -0.130573 0.39942 0.0161452 0.916626
-0.28093 0.0929904 0.212708 0.360807 -0.932497 -0.0163844
0.0928351 -0.215737 -0.0907871 0.380916 -0.913957 -0.139947
0.0344113 -0.196412 -0.121032 -0.479092 0.0205532 -0.877524
-0.37751 0.0949705 0.26192 -0.334682 0.935344 0.114543
0.094747 0.0458069 -0.170598 -0.455315 -0.21078 -0.86502
-0.370387 -0.330091 0.174811 -0.754433 -0.416247 0.507513
-0.315359 -0.39206 0.117025 0.228446 -0.973557 0.000349985
0.331285 -0.0967352 -0.285328 -0.436112 -0.0378342 -0.899097
-0.392783 0.0124791 0.204023 0.861636 -0.457556 -0.219603
-0.21832 -0.119797 0.0507455 0.506239 0.0710519 0.859461
-0.12507 -0.041214 -0.0563397 -0.465943 -0.0528988 -0.883232
0.399403 0.292581 -0.147518 0.778071 0.378202 -0.501567
0.1202 0.266963 -0.0256325 0.367279 -0.929721 -0.0269243
-0.365866 -0.141468 0.250117 0.882868 0.242621 -0.402094
-0.392763 -0.174919 0.158056 0.908924 0.292281 -0.297371
0.330351 0.23611 -0.305891 -0.490426 -0.0273633 -0.871053
0.0630272 -0.152444 -0.0131641 -0.342671 0.907176 0.244148
-0.325337 -0.376068 0.074749 -0.466212 -0.022993 -0.884374
0.26085 0.150119 -0.263377 -0.427482 -0.0759338 -0.900829
-0.385278 0.0355783 0.174959 0.737818 -0.638766 -0.218182
0.122151 0.311032 -0.0450737 -0.331414 0.938821 0.0936958
-0.343826 0.072685 0.147411 0.396722 -0.917113 -0.0389259
-0.476037 -0.0970701 0.163581 -0.764124 -0.491082 0.418274
0.3089 0.0756287 -0.212478 0.26783 0.0146433 0.963355
-0.322761 0.138482 0.0493558 -0.426035 0.886877 0.178725
0.0872941 -0.198365 0.0853667 0.501502 0.062556 0.862892
0.0697954 0.249807 -0.0303103 0.386776 -0.911893 -0.137317
0.242706 -0.0370789 -0.176096 0.433122 -0.00501275 0.901321
0.202442 0.191022 -0.235932 -0.607654 0.000794024 -0.794201
-0.335496 -0.018 0.104996 0.523842 -0.093656 0.846651
-0.486792 -0.0585649 0.184265 -0.863004 -0.227175 0.451237
-0.350696 -0.210062 0.307821 -0.814679 -0.357163 0.456873
0.00712016 0.275519 -0.0781245 -0.388209 0.906307 0.167039
-0.200281 0.189395 0.044909 -0.413608 0.876321 0.246962
-0.188153 -0.0922017 0.0331086 0.216461 0.144776 0.965497
0.125492 -0.0582323 -0.178572 -0.451079 -0.0756504 -0.889272
0.0632377 0.279621 0.0305281 -0.348392 0.929143 0.123761
-0.417014 0.0788007 0.274433 -0.311873 0.946333 0.0847863
-0.418349 -0.0140798 0.32705 -0.810614 -0.373741 0.450803
0.124553 0.270278 -0.0441164 0.371284 -0.927771 -0.0372871
0.169767 0.331465 -0.0498535 -0.330829 0.941572 0.0632003
-0.297391 -0.251793 0.248069 0.52389 0.821222 -0.226127
0.212385 -0.171842 -0.128767 0.486107 -0.835286 -0.2569
0.165932 -0.198172 -0.0624863 0.320959 -0.941573 -0.102106
0.00750718 0.279184 -0.113534 -0.373536 0.914315 0.156524
-0.264862 0.00518987 0.0180206 -0.339448 -0.17158 -0.924844
0.132622 -0.183135 -0.174023 -0.478749 -0.0325024 -0.87735
-0.354649 -0.169835 0.24145 0.899581 0.322208 -0.294848
-0.424175 -0.147701 0.222597 -0.784503 -0.389313 0.482692
0.0208239 -0.0739288 -0.123748 -0.455377 -0.0367233 -0.889541
0.05168 -0.0736902 -0.0831059 0.459815 -0.0707615 0.885191
-0.0136877 0.260702 -0.0367419 -0.324498 0.940268 0.102945
0.0739184 -0.184406 0.0889929 0.238664 0.525914 0.816366
0.131776 0.251012 -0.133931 0.430483 0.0521186 0.901093
-0.0408495 0.116223 -0.0416626 0.401513 0.0630568 0.91368
0.29382 0.0561773 -0.205325 0.373007 0.00567534 0.927811
-0.159855 -0.255174 -0.0176016 -0.417819 0.0208029 -0.908292
0.21201 -0.17869 -0.0806299 0.33783 -0.933546 -0.119845
0.239725 0.295193 -0.119802 0.0505797 -0.90236 0.428005
0.0847372 0.025434 -0.161433 -0.492446 -0.02879 -0.869867
0.348048 -0.130515 -0.0743787 0.321516 -0.943874 -0.0756911
-0.0050125 0.0361217 -0.113765 -0.437547 -0.0114927 -0.899122
0.220316 -0.126039 0.0106074 0.303971 0.154492 0.940071
0.513095 -0.00140402 -0.17719 0.799813 0.375701 -0.468132
0.385506 0.211288 -0.129481 -0.493816 -0.211983 0.843332
-0.363315 -0.253283 0.253109 -0.794766 -0.406884 0.450325
-0.104259 0.231274 -0.040796 -0.293076 0.955889 0.0195607
-0.303102 -0.136306 0.0959171 0.410359 0.0544162 0.910299
0.0734774 0.185956 -0.101624 0.388663 0.0598838 0.919432
0.385243 0.271481 -0.105462 -0.386508 -0.336923 0.858542
-0.247133 -0.279984 0.163138 0.134926 0.98938 -0.0540532
-0.416703 -0.0980016 0.108011 -0.470595 -0.0525386 -0.880784
0.298401 -0.08398 -0.0353122 0.283214 0.581234 0.762861
-0.0107603 -0.223091 -0.0949775 -0.404576 -0.0343512 -0.913859
0.05349 0.23539 0.0038143 0.364319 -0.931252 0.00637168
-0.304979 -0.386284 0.120127 0.269902 -0.962051 0.0401241
0.308406 -0.0171754 -0.281142 -0.490106 -0.0518742 -0.870118
-0.280742 -0.269604 0.0481379 -0.519093 -0.0485493 -0.853338
0.313664 0.233193 -0.163437 -0.43177 -0.36611 0.824341
-0.230268 -0.333963 0.0250563 -0.469992 -0.059467 -0.880665
0.0869606 -0.0249163 -0.100118 0.518705 -0.040904 0.853974
-0.0330134 -0.211096 0.106657 -0.305229 0.916453 0.258745
0.0110427 0.258042 0.0547694 -0.313026 0.944546 0.099238
-0.313527 0.120169 0.246041 -0.294633 0.954274 0.0505187
0.248318 -0.0771502 -0.124301 -0.281992 0.92429 0.257232
0.324017 -0.131205 -0.120527 0.3724 -0.911997 -0.17199
-0.130522 -0.32768 0.195697 0.554711 -0.608631 0.567331
-0.133062 -0.235809 -0.0323623 -0.500548 -0.0195201 -0.865489
-0.405489 -0.0222398 0.32974 0.458475 0.0611881 0.886598
0.111588 0.265297 -0.085023 0.504741 -0.849912 -0.15128
0.00319767 0.240938 0.100879 0.375066 0.0344974 0.926356
-0.157064 -0.336101 0.17551 0.321466 -0.860895 -0.394359
0.0762905 0.128141 -0.106906 0.395994 0.126194 0.90954
-0.318224 -0.358489 0.24746 -0.713475 -0.452607 0.534883
-0.46117 -0.112537 0.182442 -0.845729 -0.292633 0.446215
-0.38575 -0.161938 0.279655 -0.810771 -0.374664 0.449753
-0.22421 -0.178506 0.0101619 -0.379444 -0.0628091 -0.92308
-0.0206163 0.208584 0.0348367 0.365387 -0.930402 -0.0290775
-0.332372 -0.37423 0.0777132 -0.561425 0.000209479 -0.827527
-0.405625 0.0819007 0.283917 -0.285571 0.958032 -0.0249757
-0.40219 -0.232571 0.195294 -0.874109 -0.281779 0.395643
-0.261031 -0.27987 0.135539 0.0457559 0.998946 0.00354728
-0.199009 -0.208327 0.000254639 -0.447351 -0.0812451 -0.890661
-0.393827 -0.252719 0.195242 -0.804718 -0.360697 0.471516
-0.466275 -0.0597696 0.132963 -0.491669 -0.0510932 -0.869282
0.519084 -0.0110543 -0.17367 0.807029 0.374724 -0.456383
-0.100179 0.163156 -0.0164698 0.431276 0.0497204 0.900849
-0.362616 -0.244129 0.0894301 -0.431248 -0.0677252 -0.899688
-0.202668 0.193094 0.00201604 -0.334919 0.936723 0.101882
-0.0793573 -0.10167 -0.0140671 0.367334 0.112957 0.923204
-0.258274 0.148659 0.189105 -0.342303 0.928392 0.144628
0.243849 -0.0634782 -0.239818 -0.45859 -0.057464 -0.886788
-0.190656 -0.213154 -0.00146936 -0.584292 0.0614736 -0.809212
0.241918 0.328215 -0.0301943 0.546104 -0.170253 0.820234
-0.353835 -0.143524 0.119579 0.393892 -0.0733006 0.916229
-0.276952 -0.0892585 0.0795232 0.447613 -0.0106998 0.894164
0.110545 0.0436392 -0.114907 0.372398 0.160002 0.914177
-0.318104 -0.21051 0.276061 0.821284 0.453385 -0.346317
-0.0230458 0.0578824 -0.107546 -0.597458 0.000912294 -0.8019
0.0956669 -0.223798 -0.0346153 0.306256 -0.948508 -0.0808649
0.439297 0.212023 -0.146826 0.848152 0.296399 -0.439073
-0.260511 0.158494 0.11768 -0.241298 0.970369 0.0126187
-0.228374 -0.193574 0.0581093 0.391967 -0.0423976 0.919002
-0.143504 -0.306278 -0.0208836 0.418756 -0.89292 -0.165338
0.225304 0.340461 -0.0261236 0.44286 -0.0381329 0.89578
-0.238002 -0.301833 0.0242676 -0.551306 -0.0769765 -0.830744
-0.480522 -0.0951715 0.164923 -0.910504 -0.23391 0.340983
-0.0445589 0.200881 -0.0310695 0.479902 -0.876342 0.0414607
-0.0718662 0.0256863 -0.0276857 0.416168 0.116345 0.901814
0.176725 -0.105573 -0.10249 -0.293003 0.935282 0.198484
-0.33737 0.0226168 0.0961522 0.474708 -0.0679177 0.877519
-0.298242 -0.163727 0.0534144 -0.373099 -0.0684194 -0.925265
0.352886 -0.0452371 -0.30086 -0.462283 -0.0569157 -0.884904
-0.139591 0.103299 -0.0506305 -0.463053 -0.0986022 -0.880829
0.268967 0.380624 -0.186976 -0.356667 0.923572 0.140725
0.109426 0.0505872 -0.116369 0.437097 0.014042 0.899305
0.230772 0.146203 -0.177005 0.371673 0.0717888 0.925584
-0.0498497 0.0306559 -0.0384769 0.474119 0.022518 0.880173
0.0258972 0.115409 -0.136428 -0.472511 -0.023316 -0.881016
-0.153344 -0.126519 0.0204475 0.378016 0.0813922 0.922214
-0.162662 0.183544 0.165806 -0.283773 0.958766 0.0154802
-0.373627 -0.406099 0.101808 -0.417244 -0.101945 -0.903059
-0.344231 -0.171615 0.307951 0.510339 -0.0974788 0.854431
0.355421 0.27149 -0.12285 -0.370082 -0.486191 0.791617
-0.445523 -0.114508 0.2143 -0.85655 -0.285249 0.430063
0.435477 0.217043 -0.141812 0.828523 0.343578 -0.442158
0.390997 0.274756 -0.104638 0.00322951 -0.252962 0.967471
-0.452156 -0.087078 0.218825 -0.796041 -0.399966 0.454253
-0.172819 -0.343773 0.224408 0.403897 -0.458187 0.79179
-0.196383 -0.24804 0.053643 0.06782 0.929152 0.363425
0.430637 0.0246146 -0.30895 0.846662 0.300406 -0.439227
0.222262 0.376247 -0.251594 -0.419612 0.894043 0.156885
-0.259144 0.168141 0.0135429 -0.281974 0.955142 0.0905277
0.308434 -0.0904417 -0.0402326 0.470051 0.0499484 0.881225
-0.018612 0.134417 -0.0540355 0.357816 0.125906 0.925265
-0.207088 -0.248045 0.0554907 0.245433 0.379698 0.89196
0.154902 -0.168619 0.0477034 0.640867 0.0333946 0.766925
-0.26148 0.153368 0.111972 -0.367334 0.916757 0.156917
-0.320794 0.110488 0.0469111 -0.495054 -0.023715 -0.868539
-0.370443 0.0961489 0.266133 -0.277371 0.956979 0.0851837
-0.502028 0.00357608 0.200887 -0.842163 -0.30647 0.443664
-0.142761 0.200732 0.0779147 -0.321514 0.944655 0.0652378
-0.371856 0.075459 0.0758397 -0.396624 -0.0358029 -0.917283
-0.119853 -0.233957 0.0688633 -0.265794 0.959464 0.0937116
-0.00685268 0.267787 -0.0658419 -0.345272 0.92812 0.139214
-0.427604 0.0799897 0.242005 -0.380428 0.911858 0.154238
0.410544 0.134876 -0.25721 0.761408 0.504643 -0.406931
0.0693732 0.0809194 -0.159476 -0.454842 -0.0516382 -0.889074
0.371712 0.198565 -0.279301 0.855655 0.291199 -0.427852
0.0428777 -0.182439 0.0628426 -0.203834 0.965617 0.161357
-0.41821 0.0828174 0.0935012 -0.433481 -0.0901635 -0.896641
0.321145 0.33454 -0.265819 0.910841 0.293612 -0.290104
0.294122 0.384972 -0.137738 -0.349415 0.927602 0.132153
-0.0267388 -0.202666 -0.092897 -0.364797 -0.10114 -0.925578
-0.181958 -0.34371 0.131398 0.338643 -0.933344 -0.119123
-0.239635 -0.119734 0.0130832 -0.435307 -0.0406802 -0.899363
0.172097 -0.176277 0.0395624 0.508164 0.0171641 0.861089
-0.213877 0.168967 0.136111 -0.350699 0.928787 0.119856
0.46276 0.0259614 -0.124069 0.390449 0.0765059 0.91744
-0.395818 0.0225703 0.193268 0.803777 -0.466611 -0.369076
0.396203 0.228435 -0.219062 0.875263 0.247625 -0.415448
-0.394224 -0.313181 0.141127 -0.808364 -0.357541 0.467667
0.380305 -0.0918312 -0.272598 0.284425 -0.958633 0.0111469
-0.17958 0.199405 0.0129075 -0.0655528 0.994716 -0.0790068
0.0836633 -0.173037 0.0731188 -0.044867 0.91423 0.402704
-0.257908 0.155704 0.0921283 -0.326374 0.939552 0.103545
0.116945 0.312296 -0.198279 -0.466005 0.0925611 -0.879927
-0.217845 0.179379 -0.0125575 -0.483054 -0.0487655 -0.874232
0.297636 -0.0208141 -0.268432 -0.420022 -0.0826336 -0.903744
-0.147303 -0.288652 -0.0209259 -0.406504 -0.034465 -0.912999
-0.319632 0.130532 0.122886 -0.436841 0.825588 0.357176
-0.029044 0.206051 -0.026979 0.251166 -0.963298 0.0947296
0.443296 -0.0213503 -0.323904 0.855345 0.276717 -0.437964
-0.0501793 0.0094038 -0.0362763 0.323256 -0.0197143 0.946106
-0.381226 -0.0521891 0.277891 0.934441 0.069617 -0.349247
-0.137117 -0.319399 0.0684276 0.302499 -0.950317 -0.0734321
-0.25835 -0.277617 0.192802 0.1657 0.986171 0.00306144
-0.373477 0.0024721 0.310929 0.807998 -0.0633511 0.58577
0.371786 0.360305 -0.1028 0.459105 0.0587723 0.886436
0.0573854 0.123065 -0.0934738 0.412986 0.0666255 0.908297
0.374878 0.25993 -0.224296 0.760268 0.435622 -0.481898
0.25669 -0.048538 -0.249796 -0.443606 -0.0781021 -0.892812
0.144226 -0.128321 -0.0386052 -0.301849 0.928081 0.218064
0.32805 0.364462 -0.229993 0.854649 0.247076 -0.456649
-0.381119 -0.0906575 0.13043 0.436143 0.0419784 0.898898
-0.00603975 0.156105 -0.127187 -0.617072 -0.0195034 -0.786665
-0.115269 -0.320993 0.199211 0.563095 -0.207313 0.799966
0.26673 -0.0728773 -0.251231 -0.437613 -0.0170601 -0.899002
-0.108257 -0.313676 0.106177 0.291122 -0.956406 0.0231549
0.364078 0.185601 -0.154415 -0.582799 -0.210062 0.784997
-0.486193 -0.0774402 0.14455 -0.423916 -0.0587706 -0.903793
0.0790564 -0.244903 0.0634545 0.338759 -0.938454 -0.0674289
0.126334 0.326765 -0.137151 -0.349437 0.922572 0.163567
-0.459043 0.0324351 0.300438 -0.815975 -0.356158 0.455342
-0.178037 0.142901 0.0430497 0.304656 -0.950314 0.0639321
-0.228942 -0.370213 0.221318 0.210477 -0.977405 0.0194469
0.0664413 -0.103312 -0.143923 -0.522892 0.0307034 -0.851846
0.0595804 -0.192735 -0.138019 -0.428091 -0.294839 -0.854288
-0.316553 0.114581 0.275823 0.467681 0.0436961 0.882817
0.0851422 0.0168567 -0.162281 -0.52918 -0.00938379 -0.848457
-0.275926 -0.016082 0.0760477 0.389596 0.0938862 0.916188
-0.0654378 -0.297515 0.164467 0.616028 -0.572667 0.54089
0.261116 0.33611 -0.276025 -0.483602 0.0384788 -0.874442
0.00750665 0.00741961 -0.0643437 0.41256 0.0323498 0.910356
-0.123871 0.199109 0.164003 -0.329494 0.937453 0.11232
-0.261347 -0.0331437 0.0720956 0.369725 0.0555871 0.927477
-0.197302 -0.335448 0.0232482 0.264026 -0.96312 -0.0518713
-0.0605733 0.191508 0.076836 0.207208 -0.969762 0.128947
0.223619 -0.113873 -0.22762 -0.634838 0.0570339 -0.770538
-0.430337 0.084276 0.186577 -0.279023 0.959249 0.0445841
0.312214 0.102047 -0.286842 -0.484346 -0.0614864 -0.872713
-0.289907 -0.305497 0.287516 0.379717 0.0462143 0.923948
0.192527 -0.178189 -0.0900759 0.328203 -0.939759 -0.0955789
-0.430522 -0.0908912 0.115038 -0.411603 -0.0636813 -0.909136
0.170159 0.338825 -0.113546 -0.309551 0.9451 0.104707
-0.0940172 -0.136882 -0.00817359 0.547061 0.0664967 0.834447
-0.391905 -0.0968141 0.0910144 -0.481945 -0.0642999 -0.873839
-0.092565 0.172477 0.107886 0.405835 -0.906475 -0.116623
0.0214212 0.265634 0.0590906 -0.330447 0.937087 0.112572
0.331181 0.402077 -0.142112 -0.371567 0.891655 0.258628
0.334833 0.21724 -0.306673 -0.4967 0.0390182 -0.867045
-0.220108 -0.36835 0.191184 0.340061 -0.9315 -0.129096
-0.414752 -0.275316 0.134199 -0.880413 -0.260309 0.396373
-0.417382 0.0461677 0.099407 -0.483979 -0.0969575 -0.869692
0.309248 0.0727438 -0.278321 -0.50086 0.0244103 -0.865184
-0.172069 0.182713 0.150782 -0.433176 0.885528 0.167922
-0.395961 -0.0247179 0.328627 0.481524 0.05912 0.874437
0.208468 0.043358 -0.229591 -0.471868 -0.044492 -0.880546
-0.314017 -0.387173 0.0931878 0.32254 -0.940107 -0.110306
-0.379304 -0.167437 0.287297 -0.819461 -0.351937 0.452354
-0.0813196 -0.218424 -0.062787 -0.537371 -0.0509027 -0.841809
-0.446169 0.0547212 0.337741 -0.833735 -0.318196 0.451262
0.24336 -0.106292 -0.0073358 0.106364 0.680872 0.724638
0.493861 -0.0505527 -0.242423 0.834015 0.287539 -0.470894
-0.277611 -0.388976 0.287798 0.53957 -0.197612 0.818421
0.170051 -0.190952 -0.0756404 0.448894 -0.873438 -0.188681
-0.306338 -0.260951 0.105676 0.517045 0.370189 0.771768
0.0571128 -0.160608 0.00558969 -0.342177 0.890025 0.30128
0.252183 0.367395 -0.10356 -0.334399 0.932029 0.139642
0.224548 0.184469 -0.175213 0.384422 0.0715734 0.920379
-0.47093 -0.01507 0.228795 -0.823945 -0.320889 0.46706
-0.303589 -0.185002 0.0966924 0.430407 0.103393 0.896694
-0.0892154 0.0106796 -0.0139964 0.424665 0.0656517 0.902967
0.291812 0.128266 -0.205934 0.201204 -0.048535 0.978346
-0.381268 0.0347204 0.200376 0.754743 -0.621346 -0.210459
0.233968 0.358823 -0.0749902 -0.333057 0.935766 0.115821
-0.0218605 0.194169 -0.0587517 0.382246 -0.140212 0.913361
-0.0814814 0.239396 -0.0359562 -0.324078 0.945342 0.0360863
-0.214153 0.0896812 -0.0154107 -0.543553 -0.0562364 -0.837489
-0.0919851 -0.307724 0.0807175 0.319425 -0.942135 -0.101728
0.463097 -0.0659557 -0.248358 0.297058 -0.952963 -0.0601573
0.332689 -0.106632 -0.285549 -0.532083 0.0187615 -0.846485
0.235196 0.283488 -0.140555 -0.140307 -0.796828 0.58769
0.213968 0.368502 -0.22393 -0.432198 0.884827 0.17403
0.305537 0.368354 -0.263785 0.896173 0.259804 -0.359689
-0.229499 -0.280856 0.173276 -0.0407668 0.988304 0.146947
-0.0520964 0.105571 -0.0390564 0.558202 -0.0341178 0.829003
0.284965 -0.133285 -0.211166 0.331508 -0.937867 -0.102507
-0.192181 -0.341107 0.0832682 0.297429 -0.954512 -0.0210528
-0.113751 -0.305271 0.0235506 0.358496 -0.919348 -0.162114
0.361411 0.190555 -0.304816 0.760268 0.50139 -0.413038
0.17745 0.107704 -0.151429 0.498341 -0.0750082 0.86373
-0.0425567 -0.0616008 -0.0924456 -0.531788 -0.0578755 -0.844897
-0.309153 -0.260096 0.188065 0.463633 0.866629 -0.184389
-0.398615 0.0150252 0.20134 0.846479 -0.454457 -0.277384
0.362457 0.300958 -0.0944887 0.0221083 -0.42224 0.906215
0.0858933 0.302803 -0.0831276 -0.327703 0.939166 0.102851
0.369236 -0.0409771 -0.312766 -0.464701 -0.0527584 -0.883894
-0.279885 -0.381439 0.288816 0.481762 -0.0165189 0.876146
-0.249634 -0.368468 0.1405 0.351677 -0.918411 -0.181229
-0.0864324 -0.307286 0.105696 0.333785 -0.933348 -0.132096
0.188568 0.00699616 -0.216823 -0.357555 -0.0357157 -0.933209
-0.531934 0.0346137 0.158966 -0.395813 -0.0880019 -0.914105
0.0319026 -0.204395 0.110973 0.361688 0.335082 0.870001
-0.194264 -0.333409 0.0442979 0.288135 -0.957587 -0.00224968
0.316303 0.398099 -0.161691 -0.389551 0.896493 0.211069
0.371219 -0.071943 -0.302338 -0.550424 0.0793347 -0.831108
0.13071 0.180145 -0.130587 0.422544 0.0402516 0.905448
-0.195539 0.182286 0.112408 -0.294698 0.954581 0.0438984
-0.126369 -0.137985 0.0115238 0.343166 0.118475 0.931773
-0.349705 -0.130898 0.281666 0.82348 0.411296 -0.39079
-0.446979 0.0294366 0.324182 -0.877706 -0.263059 0.40054
-0.343374 -0.191834 0.249085 0.825645 0.442025 -0.350607
-0.505099 -0.0139768 0.149878 -0.463267 -0.0496992 -0.884824
-0.310187 -0.332336 0.28001 -0.772013 -0.401683 0.492592
0.153969 -0.136711 -0.18564 -0.623443 -0.026716 -0.781413
-0.0230555 -0.0707008 -0.0423309 0.531723 0.0326041 0.846291
-0.414262 -0.0982623 0.104795 -0.429711 -0.0492427 -0.901623
-0.387601 0.100541 0.150625 -0.424809 0.859671 0.283732
0.22652 0.181415 -0.177702 0.46676 0.0348112 0.883699
-0.377218 -0.252782 0.22887 -0.820516 -0.35065 0.451439
0.257941 0.380249 -0.197281 -0.426759 0.883374 0.193718
0.216533 0.148388 -0.239452 -0.439441 -0.0698373 -0.895552
0.323177 -0.0682757 -0.0681995 -0.29196 0.939273 0.180347
-0.2207 -0.234339 0.0572651 0.402943 0.0360004 0.914517
0.309539 -0.110512 -0.27121 -0.340189 -0.0911154 -0.935932
0.444269 0.0528509 -0.262126 0.84957 0.267432 -0.454655
-0.257964 -0.0380733 0.0212015 -0.53893 0.218071 -0.813634
0.192796 -0.0252 -0.216774 -0.491489 -0.0608117 -0.868758
-0.213474 0.129268 -0.0141657 -0.402 -0.108116 -0.909234
-0.414268 -0.10981 0.275004 -0.784641 -0.445713 0.430903
0.277682 -0.0492674 -0.173237 -0.421125 0.851862 0.311424
0.0900353 0.285616 0.0563595 0.347204 0.0175155 0.937626
0.252568 0.280014 -0.143399 -0.129368 -0.786212 0.604263
-0.0223817 -0.219699 0.133602 -0.00534989 0.791701 0.610885
-0.0838047 0.2403 -0.0598746 -0.294439 0.953785 0.059991
0.459666 0.0127994 -0.264001 0.844274 0.316657 -0.432354
-0.0112782 -0.174362 -0.0127617 -0.304866 0.930009 0.20528
0.419485 0.12424 -0.254432 0.794598 0.394079 -0.461861
0.21959 -0.0391274 -0.230177 -0.500664 -0.0615352 -0.863452
-0.0261942 -0.280989 0.0661162 0.430888 -0.886044 -0.17106
-0.461403 -0.0421241 0.127453 -0.556687 -0.103835 -0.824207
0.0681209 0.300985 -0.109626 -0.317458 0.946882 0.0513214
0.353272 0.0556417 -0.190649 -0.537022 -0.00543955 0.843551
0.37675 0.177625 -0.281444 0.792847 0.381514 -0.475227
-0.178307 0.198635 -0.0146695 -0.305155 0.950762 0.0541455
0.211923 -0.129477 -0.22077 -0.463101 -0.0800936 -0.882679
0.230067 0.306828 -0.0855795 0.18528 -0.947735 0.259748
-0.065695 0.0725747 -0.0329124 0.433296 0.0619344 0.899121
0.376879 0.227247 -0.248278 0.797903 0.376601 -0.470663
-0.131127 -0.126683 0.0100558 0.404009 0.0379266 0.913968
-0.0322191 -0.264598 -0.0702761 0.327921 -0.940378 -0.0903151
0.311254 -0.0326692 -0.163427 -0.47992 0.769177 0.421951
-0.00777237 -0.197481 0.0779755 -0.25004 0.962918 0.101333
0.278935 0.0223063 -0.190354 0.316908 0.0276926 0.948052
-0.293091 -0.0112635 0.0834438 0.386178 0.0406424 0.921528
0.150169 -0.0977203 -0.124284 0.272777 0.474315 0.83703
-0.221998 -0.224523 0.0117721 -0.471295 -0.0267369 -0.88157
0.287147 0.127074 -0.276329 -0.604412 -0.028009 -0.79618
-0.299818 -0.243022 0.274404 0.744649 0.66726 0.0161793
0.418516 0.0948765 -0.149662 -0.628578 -0.0505524 0.776102
-0.0577175 0.118581 -0.0342386 0.363253 0.122047 0.923662
-0.216435 -0.364406 0.223955 0.278455 -0.960361 -0.0130274
-0.416451 -0.0574016 0.19859 0.959093 0.00745052 -0.282993
0.128683 0.328879 -0.156408 -0.32837 0.938701 0.104944
0.305519 0.304302 -0.100411 0.0234305 -0.851127 0.524437
-0.0575859 0.194961 -0.0183607 0.37285 -0.925766 0.0627731
0.013587 -0.0244645 -0.125959 -0.435086 -0.326987 -0.838916
-0.379868 -0.227045 0.0931115 -0.343592 -0.115776 -0.931955
-0.390115 -0.20747 0.242767 -0.840232 -0.317339 0.439665
-0.0552691 0.0745971 -0.0926147 -0.492171 -0.0814274 -0.866682
0.531914 -0.0394379 -0.175031 0.760622 0.394077 -0.515904
-0.102732 -0.0153653 -0.00991733 0.462989 0.0378466 0.885555
0.218625 0.0865842 -0.171735 0.399752 -0.00368521 0.916616
0.3628 -0.0515486 -0.301669 -0.407626 -0.0865364 -0.909039
-0.423424 0.0912473 0.16015 -0.281338 0.95947 0.0163256
-0.0927757 -0.306418 0.0798107 0.335349 -0.941739 -0.0258589
-0.314902 -0.264713 0.293727 0.411674 0.0452954 0.910205
-0.0438932 -0.223476 0.148245 -0.0707378 0.942236 0.327394
-0.201149 -0.101243 -0.0093296 -0.45475 -0.0488809 -0.889277
0.0603978 -0.00628704 -0.0852112 0.410287 0.0517439 0.910487
0.223775 0.357325 -0.120203 -0.417956 0.886275 0.199574
-0.101175 -0.311258 0.10666 0.296712 -0.952063 -0.0744253
0.194488 -0.169379 -0.18729 0.299978 -0.950657 -0.079148
0.0323239 -0.178209 -0.122517 -0.403904 -0.0388919 -0.913974
0.211372 0.303057 -0.0415033 0.392311 -0.90825 -0.145513
-0.107828 0.219904 0.0189805 -0.272544 0.962094 0.00969272
-0.0315786 -0.268023 -0.0620662 0.369417 -0.912096 -0.177798
0.189675 -0.183519 -0.111207 0.348288 -0.919155 -0.18398
-0.42061 -0.101682 0.168103 0.897982 0.297697 -0.324043
-0.298543 -0.0387909 0.0458425 -0.47192 -0.0517267 -0.880122
0.117935 0.0571977 -0.18244 -0.37723 -0.0479893 -0.924875
0.227508 0.307953 -0.0765378 0.220043 -0.96043 0.170751
0.0699266 0.247886 -0.0556659 0.394638 -0.914495 -0.0892208
-0.333596 0.0681997 0.282803 0.749934 -0.410356 0.518851
0.31639 -0.0762925 -0.276186 -0.529658 0.0320613 -0.847605
0.284228 0.369731 -0.0588749 -0.336402 0.938675 0.0756425
-0.245817 -0.190685 0.0232895 -0.485468 -0.0781003 -0.870759
0.337984 0.191713 -0.305572 -0.41382 -0.0711242 -0.907576
0.304904 -0.0616648 -0.115132 -0.342209 0.899453 0.271802
-0.391028 -0.120046 0.0939278 -0.482617 -0.0988491 -0.870235
0.157113 0.341734 -0.196475 -0.333287 0.934616 0.124144
0.130504 0.150064 -0.196071 -0.465051 -0.052687 -0.883715
0.257255 -0.113679 -0.244783 -0.460744 -0.0621221 -0.885356
0.192278 0.0776982 -0.225333 -0.463567 -0.0477777 -0.884773
-0.246377 0.161885 0.138565 -0.301164 0.951025 0.0696463
0.22367 0.220922 -0.17516 0.421489 0.0562156 0.905089
-0.163957 0.187656 0.107907 -0.28568 0.953787 0.0931548
-0.0422134 -0.268978 0.158996 0.477125 0.0434582 0.87776
0.325195 0.156344 -0.18335 -0.34161 -0.29145 0.89351
0.0584251 -0.171802 -0.140505 -0.486907 -0.0099125 -0.873397
0.463761 0.0778222 -0.202612 0.837584 0.303284 -0.454391
-0.296989 0.0262473 0.0404395 -0.540604 -0.0755676 -0.837876
-0.0272911 0.128297 -0.11388 -0.486171 0.0597238 -0.87182
0.250646 -0.0812028 -0.119302 -0.298787 0.931501 0.207442
0.423935 0.24672 -0.155934 0.84114 0.332156 -0.426797
0.093477 0.224028 -0.179495 -0.537334 -0.0720532 -0.840286
0.238421 0.0459049 -0.175607 0.34756 0.155815 0.924621
0.39364 0.244979 -0.199293 0.863616 0.220199 -0.453518
-0.342407 0.132974 0.0571366 -0.192094 0.981074 0.0243845
-0.0835282 -0.312688 0.140182 0.271698 -0.961166 -0.04837
0.393841 0.117446 -0.301856 0.787202 0.371377 -0.492334
-0.166276 -0.243152 0.0525099 -0.217386 0.970964 0.0998605
-0.0595749 -0.253761 -0.0699927 -0.463579 -0.0895874 -0.881515
0.106698 0.216458 -0.187049 -0.457456 -0.054518 -0.887559
0.301367 -0.110213 -0.262516 -0.452268 -0.0522573 -0.89035
0.031926 0.161023 -0.0845239 0.335573 0.0552222 0.940394
0.310184 0.392636 -0.160223 -0.292756 0.953358 0.0735006
-0.249044 0.108158 0.149356 0.451293 -0.881684 -0.137722
0.238131 0.277279 -0.258231 -0.424821 -0.0434585 -0.904234
-0.437499 0.0757436 0.250526 -0.335543 0.940347 0.056194
-0.0194161 0.229537 0.113526 0.461307 0.0571815 0.885396
-0.00488296 -0.256929 -0.0432749 0.295723 -0.951967 -0.0794191
-0.142882 -0.256844 -0.0277424 -0.413562 -0.0717411 -0.907645
-0.400722 -0.0548375 0.0977387 -0.517249 -0.0571757 -0.853923
-0.323279 0.079748 0.117039 0.312298 -0.949403 0.0332332
-0.270248 -0.341829 0.0462487 -0.520117 -0.0523897 -0.852487
-0.318651 -0.296755 0.298495 -0.786863 -0.454203 0.417788
0.0172963 -0.0913374 -0.118238 -0.405357 -0.0802174 -0.910632
0.469482 -0.0398079 -0.280574 0.901349 0.292188 -0.319682
0.260129 0.281454 -0.143872 -0.197902 -0.744947 0.637094
0.279712 0.156757 -0.268265 -0.467493 -0.0570747 -0.882152
-0.383279 -0.17916 0.13699 0.729588 0.213128 0.649829
0.240754 0.149349 -0.182008 0.361448 0.0199365 0.932179
-0.205271 -0.1084 0.0430939 0.417028 0.0624832 0.906743
0.132809 0.313633 -0.027861 -0.340909 0.924243 0.171915
0.344257 0.37218 -0.189712 0.840732 0.296677 -0.452938
-0.0951684 0.17707 0.0408523 0.275509 -0.960505 0.0390401
0.286345 0.138379 -0.276143 -0.476208 -0.0714731 -0.876423
0.113314 0.248974 -0.126836 0.434619 0.0427581 0.899599
-0.146216 0.157422 0.0857009 0.396684 -0.915231 -0.0706759
-0.305306 -0.263147 0.291216 0.358919 0.0743598 0.930402
-0.162325 0.0944041 -0.0421321 -0.561389 0.00266348 -0.827548
-0.182527 -0.243023 -0.00787418 -0.562828 -0.0336918 -0.825887
0.240133 -0.150127 -0.203216 0.360728 -0.91035 -0.202824
-0.358837 -0.280058 0.0879054 -0.39991 -0.0680737 -0.914023
0.329119 -0.0542537 -0.286504 -0.526898 -0.0218278 -0.849648
-0.242754 0.0847807 0.00209467 -0.556124 -0.0152194 -0.83096
0.00410311 0.260288 0.0018824 -0.314705 0.94414 0.0977759
-0.113187 0.212945 0.0755984 -0.277461 0.958171 0.0701687
-0.377335 -0.00799431 0.0803078 -0.439584 -0.0570864 -0.896385
0.470122 -0.0601212 -0.254008 0.29474 -0.955349 -0.0209176
-0.301733 -0.213805 0.0527135 -0.512981 -0.0661806 -0.855845
0.217959 0.360496 -0.167645 -0.343624 0.922401 0.176349
0.360918 0.237998 -0.134483 -0.436391 -0.360227 0.8245
0.418937 0.192328 -0.205369 0.742514 0.404625 -0.533809
-0.226193 -0.317317 0.25362 0.516121 0.00520542 0.8565
0.174306 0.0641959 -0.208987 -0.257345 0.0618362 -0.964339
0.377886 0.39127 -0.12092 0.849056 0.295833 -0.437706
0.0143361 -0.0010395 -0.0661024 0.375733 0.0356788 0.926041
-0.435347 -0.152569 0.192275 -0.88687 -0.202805 0.415128
-0.455255 -0.118861 0.18486 -0.874464 -0.283221 0.393825
-0.348169 -0.338113 0.0886045 -0.347711 -0.0123342 -0.93752
0.134775 0.213357 -0.201333 -0.47014 -0.0340287 -0.881936
0.448117 -0.0497591 -0.334749 0.85449 0.338194 -0.3943
-0.373917 -0.379553 0.134193 -0.79611 -0.39974 0.454331
-0.0753528 -0.138324 -0.021078 0.518767 0.0121485 0.85483
-0.0272506 -0.288432 0.133617 0.426288 -0.894857 0.132323
0.293962 -0.128719 -0.0324934 0.458904 0.0527475 0.886919
0.234245 0.298988 -0.109171 0.0500196 -0.918119 0.393134
-0.41452 -0.144001 0.241656 -0.855889 -0.289661 0.428428
-0.264481 0.0170814 0.0185921 -0.41411 -0.115675 -0.902847
0.274435 0.00224295 -0.18946 0.422052 0.0544078 0.904938
-0.166784 0.186152 0.126004 -0.327511 0.943113 0.0572266
0.478438 0.0742897 -0.137906 0.56028 0.0481322 0.826904
-0.354272 -0.0587591 0.0722402 -0.526327 -0.088535 -0.845661
-0.048736 0.0754466 -0.0931068 -0.461904 -0.0714519 -0.884047
-0.192942 0.170949 -0.0285803 -0.452745 -0.061924 -0.889487
0.186395 -0.188074 -0.0588704 0.335709 -0.933919 -0.122865
-0.0911184 -0.0594533 -0.0642393 -0.51391 -0.0522847 -0.856249
0.450551 0.173997 -0.147386 0.81565 0.360491 -0.452505
0.181539 0.332006 -0.0683482 -0.330979 0.903428 0.272527
-0.0285326 0.140435 -0.0501061 0.462408 0.0412023 0.88571
-0.220896 0.181448 6.1632e-05 -0.303317 0.892642 0.333451
-0.281078 -0.295836 0.280111 0.568725 0.0928104 0.817275
-0.133904 -0.264487 -0.0276596 -0.467139 -0.0434054 -0.883118
-0.123423 -0.0451939 0.00186655 0.415561 0.0396649 0.9087
-0.384465 -0.309174 0.102776 -0.4769 -0.0992786 -0.873333
-0.24769 -0.0577914 0.0180172 -0.522128 -0.252077 -0.814764
0.139644 0.329748 -0.148474 -0.366972 0.915645 0.164092
-0.00947604 -0.276668 0.135568 0.538598 -0.497395 0.680081
-0.0721274 0.15687 -0.028601 0.451261 0.0362651 0.891655
0.384187 0.154324 -0.291602 0.847882 0.331418 -0.413835
-0.35827 0.0972054 0.30014 -0.358209 0.923155 0.13954
-0.0322686 -0.0517721 -0.0972493 -0.583332 0.0724135 -0.808999
0.241015 0.095668 -0.178527 0.556963 -0.0192795 0.830313
0.0208609 0.0694526 -0.134828 -0.460479 -0.0677046 -0.885085
-0.288313 -0.130288 0.0915238 0.406828 0.050435 0.912111
-0.185693 -0.357172 0.222691 0.421191 -0.837371 0.348437
0.409637 -0.00791279 -0.116221 -0.464583 0.46985 0.750602
0.204589 0.34702 -0.115769 -0.365993 0.917378 0.156417
-0.296795 -0.0728821 0.0892204 0.424173 0.0542998 0.903952
0.0364414 0.282651 -0.150569 -0.495655 -0.0489295 -0.86714
-0.464492 -0.138582 0.159251 -0.807344 -0.382299 0.449493
0.316736 0.391537 -0.224046 0.735861 0.460317 -0.496606
-0.412611 0.0351618 0.32634 0.404292 0.0491721 0.913307
-0.198963 -0.179206 0.0458487 0.363617 0.144734 0.920236
0.43928 0.169056 -0.1791 0.802463 0.39119 -0.45058
-0.275802 0.158618 0.0470241 -0.334374 0.942321 0.0150053
-0.372636 -0.0843287 0.12414 0.376543 0.0437204 0.925367
0.0400732 -0.0674727 -0.0758353 0.194752 0.0787035 0.97769
0.103481 -0.0250447 -0.171442 -0.426904 -0.157429 -0.890488
0.344814 0.321734 -0.0845585 0.389963 -0.174505 0.904144
-0.319438 0.0780841 0.164571 0.393238 -0.914822 -0.0920083
0.329159 0.30204 -0.09805 -0.160236 -0.759999 0.629862
-0.465505 -0.0205904 0.128627 -0.601962 -0.041269 -0.797458
0.408222 -0.0818067 -0.278334 0.357586 -0.924918 -0.12907
-0.376653 -0.0209254 0.127242 0.515945 0.0727106 0.85353
-0.366008 0.0253068 0.261665 0.846552 -0.432058 -0.310928
0.0753142 0.212545 -0.170595 -0.467797 -0.00992652 -0.88378
-0.308428 0.107694 0.272279 0.413251 0.0571911 0.908819
0.177539 -0.138934 0.0310128 0.168703 0.282817 0.944221
0.453687 -0.0722267 -0.215252 0.322513 -0.943154 -0.0802841
-0.00833098 0.0481717 -0.112373 -0.489092 0.0608894 -0.870104
0.469338 -0.015623 -0.273209 0.846756 0.273912 -0.456045
-0.376419 -0.08518 0.274132 0.939968 0.183233 -0.287899
-0.414791 -0.270095 0.147182 -0.833585 -0.33047 0.442635
0.294668 0.142853 -0.274879 -0.571946 -0.0495676 -0.818792
-0.463574 -0.011849 0.25043 -0.876089 -0.32412 0.35695
0.098516 0.155758 -0.113782 0.423317 0.0507666 0.904558
-0.359141 -0.0973288 0.121362 0.498597 -0.0176242 0.866655
-0.330135 -0.0351912 0.0538987 -0.473672 -0.0288416 -0.880229
0.459963 0.171571 -0.140517 0.774762 0.487002 -0.403203
-0.286458 -0.259547 0.233994 0.524259 0.834263 -0.170755
-0.397558 0.0324336 0.0885765 -0.464019 -0.0540057 -0.884178
-0.175825 0.0473608 0.0231878 0.498745 0.00116403 0.866748
-0.359046 0.0607507 0.170858 0.603538 -0.777372 -0.177299
0.225246 0.332326 -0.022434 0.408673 0.158147 0.898875
-0.294426 0.084825 0.0782581 0.481774 -0.205432 0.851875
-0.180575 0.141185 0.0529593 0.21604 -0.96802 0.12753
-0.113848 -0.140242 -0.0469658 -0.472628 -0.0396185 -0.880371
0.399743 0.178238 -0.243359 0.815224 0.357964 -0.455271
-0.0144315 -0.18322 0.00802938 -0.23191 0.965914 0.115011
0.0384427 0.289583 -0.090663 -0.262456 0.964264 0.0362275
-0.0611453 0.189321 0.031947 0.418758 -0.904857 -0.076654
-0.247361 -0.357421 0.268678 0.513266 -0.00512874 0.858214
0.241506 0.311036 -0.0790755 0.0996085 -0.935359 0.339385
-0.300466 -0.241871 0.0552932 -0.510317 0.0272532 -0.859554
-0.211118 -0.0984698 0.0461277 0.431663 0.0803649 0.898448
0.206504 -0.107653 -0.0445061 -0.305033 0.922745 0.235576
-0.0314423 -0.201226 0.0531107 -0.431729 0.861404 0.267569
0.478894 -0.0593463 -0.130481 0.579467 -0.210628 0.787308
0.127607 0.2308 -0.19824 -0.494584 -0.0294885 -0.86863
-0.38523 -0.140764 0.200931 0.805052 0.49079 -0.333192
0.224938 -0.120776 -0.223401 -0.315819 -0.0329569 -0.948247
-0.268781 0.0536901 0.0645935 0.53648 -0.0851749 0.839603
-0.361196 0.106363 0.19092 -0.279579 0.95781 0.0665966
0.227969 0.273567 -0.157535 0.00858696 -0.85487 0.518771
-0.083816 0.0569708 -0.0755286 -0.511897 -0.0248051 -0.858689
-0.137138 0.0169139 -0.0455914 -0.667938 0.0457911 -0.742807
-0.482119 0.0736986 0.143423 -0.33787 0.933048 0.12355
-0.165327 0.182175 0.1695 -0.365659 0.908498 0.202298
-0.366574 -0.123571 0.258472 0.870934 0.309023 -0.382072
0.350912 0.238171 -0.285997 0.919086 0.24948 -0.305025
0.358738 -0.105954 -0.239805 0.341242 -0.930626 -0.132243
0.513725 -0.0117088 -0.182951 0.83771 0.335654 -0.430788
-0.207928 -0.280932 0.195511 -0.0621639 0.995266 0.0747111
-0.0577698 -0.135925 -0.078681 -0.361428 -0.181691 -0.914526
0.291789 0.00736453 -0.273069 -0.540371 -0.0719014 -0.838349
0.173421 -0.0805318 -0.139832 0.386312 0.231799 0.892767
-0.0509913 -0.274011 -0.0582697 0.347874 -0.926736 -0.141931
-0.245641 0.0103408 0.0590713 0.327813 0.0792143 0.941416
-0.0486765 -0.0941158 -0.0299348 0.307252 0.0915654 0.947213
0.303503 -0.132398 -0.0331295 0.552735 -0.145158 0.820617
0.378479 0.0893364 -0.171003 -0.51947 -0.11267 0.847028
0.0719251 0.214982 -0.168231 -0.428045 -0.164114 -0.888732
-0.149254 -0.170373 -0.0293487 -0.390002 -0.092275 -0.916179
0.189284 0.106888 -0.222374 -0.447275 -0.108474 -0.887794
0.400588 0.243398 -0.108932 -0.150212 -0.204959 0.967175
0.0892439 0.291164 0.0314089 -0.281992 0.958166 0.0489685
0.242576 -0.146773 -0.222924 0.333923 -0.937431 -0.098585
-0.260108 0.116883 0.241098 0.589705 -0.270185 0.761083
0.286796 -0.0610178 -0.261263 -0.332179 0.00711728 -0.943189
-0.0337215 -0.235138 -0.0860202 -0.387494 -0.0860514 -0.917847
0.0239135 0.13677 -0.138985 -0.49078 -0.0118663 -0.871202
0.458055 0.076734 -0.211833 0.814171 0.353343 -0.460733
0.0165078 0.168357 -0.0744469 0.552697 0.031008 0.832805
-0.120532 -0.156046 -0.0422167 -0.489511 -0.0676485 -0.869369
0.438022 0.0629478 -0.262382 0.888233 0.263622 -0.376226
-0.380739 -0.0936053 0.322102 0.463671 0.142154 0.874529
-0.121453 -0.32185 0.121909 0.350688 -0.923157 -0.157478
-0.335699 0.0723571 0.210615 0.506634 -0.847692 -0.15729
0.000201317 0.273681 -0.0871132 -0.317322 0.94225 0.107103
-0.196487 0.0820036 0.0319614 0.397446 0.0656522 0.915274
-0.422443 -0.105111 0.255227 -0.780342 -0.36566 0.507306
0.251631 0.137704 -0.18415 0.446886 0.0300698 0.894085
-0.203908 0.167151 0.166593 -0.309517 0.950893 -0.00133487
0.244956 0.371971 -0.188535 -0.357611 0.909737 0.210936
-0.131686 0.220141 -0.0438161 -0.337715 0.937902 0.0792973
0.303825 -0.0108787 -0.201211 -0.48859 0.67463 0.553311
-0.291869 -0.367664 0.0541372 -0.451694 -0.0843556 -0.888176
-0.484562 0.0686968 0.169081 -0.365079 0.920785 0.137374
0.441115 -0.0651546 -0.313843 0.343086 -0.925202 -0.162153
0.218233 0.366637 -0.218802 -0.320423 0.942181 0.0981048
-0.413735 -0.241825 0.168128 -0.841202 -0.301218 0.44905
0.39266 0.26698 -0.107622 -0.21524 -0.226942 0.949826
-0.397451 0.0265347 0.136828 0.617164 -0.34726 0.706059
-0.354385 -0.151485 0.25493 0.895114 0.268005 -0.356292
-0.21771 -0.00285208 0.0450803 0.540079 -0.0415021 0.84059
-0.238646 0.171919 0.0345208 -0.336368 0.932827 0.129188
-0.323218 -0.392032 0.217549 -0.853736 -0.299747 0.425777
0.310976 -0.109588 -0.0355592 0.571469 0.0174644 0.820437
0.1055 0.311076 -0.112317 -0.266752 0.962351 0.0521876
0.0118011 0.16789 -0.0739977 0.381702 0.0677263 0.921801
0.194898 -0.109653 -0.0210142 -0.299529 0.953333 0.0379323
0.358664 0.185616 -0.31395 0.850619 0.265296 -0.453944
0.152376 0.209526 -0.143396 0.344716 0.0558671 0.937043
-0.208005 -0.218586 0.00237551 -0.430961 -0.112355 -0.895348
-0.358083 -0.138412 0.273245 0.847162 0.379795 -0.371582
-0.0121533 0.268543 -0.077773 -0.368516 0.918166 0.145486
-0.431148 -0.0979487 0.251487 -0.778385 -0.42611 0.461029
0.414293 0.0352856 -0.323136 0.862296 0.287585 -0.416822
-0.238073 0.136125 0.233477 0.5252 0.0269578 0.850552
0.334206 0.19036 -0.308064 -0.431355 -0.0421827 -0.901196
-0.260816 -0.366257 0.278562 0.222036 0.12838 0.96655
0.158661 0.121351 -0.143267 0.503422 0.0232914 0.863727
-0.377022 0.0402204 0.211294 0.803171 -0.484873 -0.346143
-0.458405 -0.189348 0.13546 -0.780918 -0.466982 0.414844
0.0529 -0.211964 0.101953 0.460938 0.0561047 0.885657
0.281382 0.0749683 -0.273623 -0.431909 -0.0768818 -0.898635
-0.506669 -0.029635 0.164005 -0.795729 -0.409062 0.446636
-0.0635362 -0.139186 -0.0208482 0.438854 0.0440838 0.897476
-0.238887 -0.138892 0.0633777 0.366647 0.0248904 0.930027
-0.00451132 -0.212456 -0.100061 -0.385993 -0.0881693 -0.918279
-0.382629 -0.0155485 0.318049 0.477173 0.0326014 0.878205
-0.294508 0.148175 0.0928466 -0.263241 0.963558 0.0475416
-0.208645 -0.19847 0.00303347 -0.503834 -0.063463 -0.861466
-0.41442 0.0757023 0.317832 -0.40676 0.892901 0.193065
-0.071826 -0.116492 -0.0707668 -0.52309 0.191077 -0.830582
-0.347369 0.0425418 0.105382 0.367739 0.100511 0.924481
-0.0941886 -0.0934507 -0.00828428 0.464486 0.0263632 0.885188
-0.214316 -0.144713 0.0568683 0.524103 -0.00969161 0.8516
0.203521 0.22198 -0.237137 -0.474122 -0.0584971 -0.878514
-0.215425 -0.297031 0.0153436 -0.334269 -0.17946 -0.925234
-0.0498237 -0.286367 0.0790792 0.307635 -0.949659 -0.0592276
-0.00932758 0.217361 -0.0194788 0.371392 -0.927859 0.0338419
-0.357861 0.0762813 0.0632355 -0.49566 -0.0477825 -0.867201
0.014685 0.0540898 -0.0657264 0.40887 0.0949876 0.907636
0.328323 0.34713 -0.235984 0.790211 0.385534 -0.476372
-0.121032 -0.124446 0.00383359 0.475679 0.00787832 0.879584
-0.370642 -0.20615 0.27923 -0.848531 -0.315274 0.424967
-0.108858 0.233413 -0.0657467 -0.332011 0.930421 0.155193
-0.272028 -0.117257 0.0745405 0.495268 -0.0985283 0.863135
-0.24536 -0.352491 0.269712 0.402405 0.0996965 0.910017
