ply
format ascii 1.0
comment Created by Open3D
element vertex 128
property double x
property double y
property double z
property double nx
property double ny
property double nz
end_header
-0.0889905 0.0797036 -0.0672484 -0.144732 -0.624556 0.767452
-0.00111446 -0.303053 -0.103359 0.0281107 -0.358507 -0.933104
-0.0215215 -0.0392067 -0.0672081 -0.0718886 0.477382 0.87575
-0.191284 -0.468935 -0.0100601 -0.988617 0.0768214 0.129367
-0.0522411 -0.252775 -0.120502 0.124479 -0.313791 -0.941297
0.173169 0.0158674 -0.163554 0.988831 -0.0885628 0.119871
0.165954 0.0151529 -0.11406 0.981512 -0.121142 0.148187
0.210216 0.336059 -0.24682 0.0610466 -0.216577 -0.974355
-0.0408576 0.416911 -0.189406 -0.1022 0.155146 0.982591
0.100591 -0.315158 0.0105425 0.381269 0.0367681 0.923733
0.105946 0.318475 -0.148446 -0.0946495 0.271427 0.957794
-0.139926 -0.514196 -0.0519444 -0.101773 -0.967373 0.232017
0.0927768 0.0400824 -0.184058 0.0795669 -0.166233 -0.982871
0.103445 0.0823941 -0.0161665 -0.205762 -0.832887 0.513772
0.0361518 0.26441 -0.142831 -0.0812639 0.213708 0.973512
-0.0887507 -0.387842 -0.0825802 0.703082 -0.135368 -0.698106
0.0600719 0.044381 0.176461 -0.11629 0.350427 0.929342
0.130104 -0.347195 -0.0722539 0.976323 -0.158607 0.147098
-0.0796072 -0.351973 -0.0136038 0.962511 -0.211519 0.1698
-0.0390625 -0.457708 0.036486 -0.0996962 0.281154 0.95447
0.0939909 -0.124247 0.12207 0.0398344 -0.798163 0.601123
-0.182535 -0.494379 -0.0709856 0.091554 -0.248292 -0.964349
-0.12723 0.154652 0.0501502 -0.520888 0.840131 0.151181
-0.0652397 0.174579 -0.104211 0.00453732 0.81958 0.572946
0.141992 -0.223129 -0.110358 0.0858278 -0.273791 -0.957952
-0.00373374 -0.438749 0.0356016 -0.0777664 0.228054 0.970538
-0.0337522 0.153872 -0.0658288 0.0426556 0.972919 0.227178
-0.0662169 0.0660129 -0.0706029 -0.132753 -0.53716 0.832968
0.089173 0.0876377 0.0805348 -0.0567609 -0.909767 -0.411221
-0.125718 -0.328106 -0.0047317 -0.083047 0.225699 0.970651
0.137792 0.448147 -0.21227 0.156763 0.986988 -0.0357669
0.106553 -0.0543758 -0.156278 0.0531164 -0.14983 -0.987284
-0.0428815 0.425187 -0.29266 0.117789 0.116208 -0.986216
0.109162 -0.00678725 -0.062541 -0.148074 0.101915 0.983711
0.0872022 0.0617503 0.113612 0.0416986 -0.608599 -0.792381
-0.0713351 -0.0775758 0.0607957 0.139279 0.891473 -0.431136
0.0943797 0.116041 0.128961 -0.00983076 0.810513 0.585638
0.0237715 -0.470928 -0.0592909 0.0674666 -0.225741 -0.971848
0.0543193 -0.091204 0.0696619 0.090974 0.922561 -0.374973
-0.0844209 -0.00250155 0.11405 0.0801932 0.198559 -0.976803
-0.0311796 0.0580341 0.107304 0.0684314 -0.508215 -0.858507
0.131592 0.224245 -0.226577 0.0830472 -0.232121 -0.969135
-0.162695 -0.00670561 0.133805 -0.906152 -0.0357324 0.421439
-0.00941253 0.180351 -0.22848 0.0830972 -0.238544 -0.96757
-0.0441468 0.154365 -0.0601543 0.061356 0.964744 0.255938
-0.0870059 -0.300607 -0.112118 0.0948309 -0.24813 -0.964074
-0.0921298 -0.0425622 0.0974674 0.0938456 0.628556 -0.772082
0.11005 -0.129855 0.105867 0.420379 -0.779683 0.464086
-0.0601457 0.426568 -0.194508 -0.352372 0.258887 0.89934
0.10786 0.262875 -0.237929 0.0884427 -0.205318 -0.974691
0.193944 0.332624 -0.162247 0.778338 0.0809819 0.622601
-0.0975925 0.291419 -0.231062 -0.98818 0.0918717 -0.122721
-0.0631888 0.432458 -0.294656 0.248864 0.169392 -0.953611
-0.126858 -0.058285 -0.0550415 0.03531 0.791874 0.609663
-0.0801933 0.161518 0.0251099 0.115763 0.989738 0.0837768
-0.0676262 0.0862382 0.146599 -0.0624149 0.477291 0.876526
0.122321 0.0955519 0.0327722 -0.0625538 -0.998041 -0.000736909
0.0196768 -0.350848 -0.0590663 -0.825599 -0.51939 -0.2205
-0.0216906 -0.0842121 0.14179 -0.133118 -0.612048 0.779536
-0.00259016 -0.0653573 0.0960459 0.197583 0.668762 -0.716741
-0.0476528 -0.0222808 0.165273 -0.136775 -0.193936 0.971433
-0.0413724 -0.0690046 -0.165984 0.1335 -0.288731 -0.948057
-0.110604 -0.0030497 -0.0873927 -0.100087 0.19947 0.974779
0.0808875 -0.515812 -0.0405108 0.0631384 -0.20673 -0.976359
0.157447 -0.0905404 -0.0978644 0.990427 -0.069669 0.119164
0.0801944 0.403953 -0.173101 -0.0856153 0.288294 0.953707
-0.0225071 -0.310344 -0.0988968 0.0450367 -0.645791 -0.762185
-0.156734 -0.105293 -0.0309989 -0.990508 0.0884894 -0.105187
-0.0314163 -0.0453428 -0.0633229 -0.0557373 0.537795 0.841231
-0.164181 -0.310137 -0.0241938 -0.714472 0.204323 0.669165
0.0100053 0.441953 -0.275469 0.164544 0.67869 -0.715755
-0.101477 -0.472311 -0.0684928 0.101667 -0.249645 -0.962986
0.0291115 0.148601 -0.00940275 0.115026 0.969986 -0.214235
0.0438398 0.00584633 -0.177715 0.0295949 -0.18193 -0.982866
0.115601 -0.062411 0.165438 0.711771 -0.330408 0.619849
-0.0739479 -0.0280239 -0.0766049 -0.135454 0.423227 0.895841
0.146212 0.283373 -0.240929 0.0875941 -0.229483 -0.969363
0.0804861 -0.297796 -0.0958969 0.100743 -0.205203 -0.973521
0.18006 0.317295 -0.147518 0.402362 0.195138 0.894442
0.0892111 -0.377537 0.0250203 0.301052 0.191922 0.934095
-0.0817077 0.135178 -0.223538 0.10166 -0.293806 -0.950444
0.0184004 0.0507352 -0.19361 0.111816 -0.266452 -0.95734
0.0666657 0.126662 0.11739 0.00362556 0.83516 0.549995
0.106564 -0.0700671 -0.153179 0.0944439 -0.248267 -0.964077
-0.051981 0.107506 0.0357115 -0.0694537 -0.977236 -0.200462
-0.0350677 0.107551 -0.00245469 -0.105256 -0.971237 0.213588
-0.188 -0.446119 -0.01889 -0.979559 0.141278 -0.143194
-0.12407 0.112638 -0.0220116 -0.0960977 -0.957809 0.270864
-0.11561 0.149393 -0.189614 -0.994747 0.0571788 -0.0849056
-0.108262 0.121857 0.118394 -0.036535 0.685586 0.727074
0.114189 -0.433493 -0.00330545 0.983511 -0.106619 0.146074
0.210311 0.332762 -0.236145 0.989506 -0.0854284 0.116537
-0.169597 -0.292341 -0.0491002 -0.962352 0.12937 0.239045
0.0140438 0.40746 -0.284948 0.109663 -0.218805 -0.969587
-0.0840745 0.159319 -0.0711971 0.0216006 0.965744 0.258597
0.138511 0.0474541 0.143157 0.972701 -0.0353913 0.229348
-0.018709 -0.0384907 0.110474 0.146056 0.45429 -0.878799
-0.0232752 -0.419643 0.0274119 -0.0845623 0.243326 0.966251
0.0207461 0.125964 0.114114 -0.0536257 0.769386 0.63653
0.0826517 -0.0433089 -0.162151 0.091944 -0.274394 -0.957212
-0.00872081 0.15014 -0.0491709 0.0626354 0.983827 0.167811
0.183488 0.129004 -0.162502 0.954677 -0.181468 0.235927
-0.0193565 -0.146313 -0.144213 0.108205 -0.278527 -0.954314
-0.0846109 0.423102 -0.239902 -0.978875 0.136646 -0.152093
-0.133285 -0.0370889 -0.186879 0.13606 -0.305471 -0.942431
-0.0172168 -0.31804 -0.0400649 -0.257895 -0.937763 0.232576
-0.189314 -0.508909 -0.0669211 -0.984761 0.124323 -0.121611
0.0306652 0.0919615 0.0728022 -0.0540348 -0.905554 -0.420775
0.0202469 0.452476 -0.203071 0.0129036 0.845693 0.533514
0.0863186 0.349399 -0.172248 -0.773564 -0.627584 0.087965
-0.107813 -0.131501 0.0462438 -0.0825743 -0.962617 0.257975
0.105128 0.344669 -0.158446 -0.0872369 0.29507 0.951485
-0.0290732 -0.0824818 0.142118 -0.16364 -0.583826 0.795216
-0.161106 -0.0812791 0.0217357 -0.991052 0.0808232 -0.106227
0.140206 0.135817 0.0538698 0.582863 0.80408 0.11716
0.0479855 0.448417 -0.255479 0.119514 0.934402 -0.335572
-0.096145 -0.366733 0.00705713 -0.053706 0.232855 0.971027
-0.129161 0.117411 0.0218312 -0.0581579 -0.975286 -0.213152
-0.115556 -0.134412 0.0321813 -0.108776 -0.915 0.388513
0.0977557 0.0854936 0.0828827 -0.0220387 -0.881796 -0.471116
0.0897896 -0.449979 0.0399157 0.50918 0.139462 0.849286
-0.121022 -0.165207 -0.151177 0.128429 -0.274492 -0.952974
0.147977 -0.164021 -0.124828 0.092688 -0.239593 -0.966439
-0.0613776 -0.0285019 -0.179867 0.137682 -0.27423 -0.951757
0.0362285 -0.048838 -0.057114 -0.0936948 0.487676 0.867983
-0.021426 -0.409625 -0.00773079 -0.211001 0.942561 -0.258954
-0.163256 -0.096296 0.0236698 -0.996085 -0.0345724 -0.0813613
0.124853 -0.168089 0.0216374 0.66892 -0.524407 0.526823
