ply
format ascii 1.0
comment Created by Open3D
element vertex 835
property double x
property double y
property double z
property double nx
property double ny
property double nz
end_header
-0.0730384 -0.0424636 0.139017 -0.726234 -0.559887 -0.398888
0.151049 0.163273 0.310248 0.64056 0.675411 0.36538
0.00163304 0.0720406 0.227769 0.567488 0.745475 0.349606
0.15661 0.137337 0.432643 0.279049 0.384836 0.879792
-0.136645 -0.509528 -0.243926 -0.664451 -0.473396 -0.578274
-0.120343 0.509566 0.211165 0.48414 -0.848099 0.215262
-0.42565 0.0752533 0.237977 0.752369 0.211612 -0.623828
-0.500667 0.302109 0.26621 -0.702708 -0.0717039 0.707856
0.338026 0.256778 0.187302 -0.797834 -0.558095 -0.228017
0.237609 0.0779899 0.436755 0.24524 0.472926 0.846285
-0.353313 -0.156496 0.0396794 -0.696795 -0.591509 -0.405702
-0.0953513 0.415797 -0.300486 -0.462228 0.855275 -0.234202
-0.590394 0.0841433 -0.0724753 -0.876042 -0.476805 0.0721618
0.113182 0.0291394 0.160477 -0.674631 -0.538146 -0.505244
0.493129 0.0215802 -0.117185 -0.862531 -0.402562 0.306567
-0.323872 0.276305 -0.344766 -0.481231 0.853737 -0.198872
-0.13119 0.00791118 0.0534643 -0.431804 0.868355 -0.243935
-0.0604257 0.156 -0.528377 -0.145025 0.217639 0.965195
-0.294017 -0.144251 -0.0299961 0.739784 0.518665 0.42861
0.106174 0.0694351 0.200341 0.765523 -0.517659 0.382103
-0.598342 0.0929271 -0.15116 -0.862211 -0.504566 -0.0447819
0.2544 0.469852 0.0504141 -0.814779 -0.516424 -0.263516
0.434593 -0.0297689 -0.256592 -0.65727 -0.390673 0.644492
-0.428528 -0.183545 0.0131359 0.737801 0.529414 0.418773
0.0121631 0.230416 -0.539071 0.326318 -0.0881355 -0.941142
-0.268062 0.426535 0.212422 0.400295 -0.856371 0.32618
-0.206855 -0.0940141 0.00382618 0.723425 0.510842 0.464431
-0.337548 -0.179712 0.244035 0.74961 0.399566 -0.527667
0.176302 0.215998 0.393796 0.381185 0.38681 0.839688
0.092752 -0.336892 0.556667 -0.286811 0.0952979 0.953235
0.224605 -0.25971 0.560009 -0.0117835 0.317238 0.948273
-0.325627 -0.351557 -0.0382156 0.856874 0.510319 0.0730881
-0.635686 0.169675 -0.00829652 -0.851369 -0.477445 0.217294
0.29179 -0.43087 -0.392141 0.109289 -0.0473502 -0.992882
-0.267057 0.444362 0.36481 -0.109058 0.091165 0.989846
-0.330007 0.204502 -0.548444 -0.150701 -0.435713 -0.88738
-0.183508 -0.47491 -0.181415 0.698519 0.519831 0.49178
-0.264392 0.0286251 -0.464215 0.322341 0.398932 0.858458
-0.576344 0.113016 -0.0261011 0.923223 0.27624 -0.267115
0.225333 0.274907 -0.383218 -0.666171 -0.273591 0.693804
0.516946 0.0154609 0.23113 0.847593 0.374557 0.375889
0.245601 0.101416 0.188823 -0.686927 -0.568122 -0.453177
-0.220446 -0.435298 -0.213396 -0.659741 -0.51647 -0.545895
0.0827905 0.0721066 0.0816491 0.60471 0.769085 0.206963
-0.282591 -0.466679 0.113149 -0.883596 -0.452521 0.120347
-0.332814 -0.233324 0.0973636 -0.732354 -0.38765 -0.559807
0.439307 -0.167548 -0.297681 -0.648068 -0.170199 0.742321
-0.506464 0.0118361 0.0583553 0.921449 0.371818 -0.11262
-0.255048 0.501578 0.357491 0.104986 0.141675 0.98433
0.133298 0.0356647 0.361091 0.464299 -0.851783 0.242676
0.099285 0.559001 -0.0629768 0.474453 -0.851597 0.222884
0.218519 -0.204841 0.525131 -0.105096 -0.23433 -0.96646
0.0762671 0.00797551 0.374264 0.434764 -0.869571 0.234152
-0.468037 -0.0388045 0.112466 0.860897 0.368819 -0.350469
0.0408756 -0.045174 -0.497229 0.0697898 -0.17884 -0.9814
-0.102907 -0.171583 -0.431673 0.177652 0.176253 0.968181
0.126486 0.581912 -0.139553 -0.566358 0.82191 -0.0608473
-0.115276 0.471717 0.0596054 0.609134 -0.783684 0.121635
0.266539 -0.156808 -0.401462 -0.322675 -0.0372599 0.945776
-0.110985 -0.504402 0.411912 0.466791 -0.845551 0.259131
-0.129478 -0.587464 -0.185224 -0.638941 -0.622951 -0.451317
-0.290815 0.0704548 0.352987 0.509296 0.121136 -0.852023
-0.084707 -0.393673 -0.329385 0.411681 0.580868 0.702219
-0.418903 0.0186947 -0.359559 0.632618 0.526884 0.567615
-0.19206 -0.363722 0.386393 -0.695244 -0.245603 0.675511
-0.538582 -0.000284225 0.0282953 -0.872324 -0.440646 0.211852
-0.256227 0.00726582 0.427947 -0.900499 0.0550356 -0.431361
-0.120864 0.320668 -0.58219 -0.599947 0.79149 -0.116653
-0.107105 0.364437 -0.35017 0.521749 -0.843875 0.125114
-0.210325 -0.467423 0.268123 0.838228 0.303952 -0.452755
-0.0161657 -0.00997041 0.29699 -0.824915 0.0177234 -0.564979
0.618594 -0.21731 -0.0797127 -0.900487 -0.294985 0.319541
0.279822 0.0877774 0.228165 0.25596 -0.954967 0.150075
-0.0834263 -0.0449801 0.21525 0.617254 0.695085 0.368584
-0.171968 -0.138838 -0.00508568 0.734018 0.535995 0.417046
-0.155269 0.133761 -0.523888 0.00614631 0.280857 0.95973
0.117841 -0.266449 -0.41927 -0.0456459 0.201267 0.978472
-0.583877 0.173678 -0.0911724 0.436016 -0.869084 0.23363
0.352513 0.293521 0.105274 -0.761868 -0.571455 -0.304952
0.181351 -0.267661 0.534819 0.129743 -0.292594 -0.947394
0.051283 -0.0276518 0.474471 0.112794 -0.225633 -0.967661
-0.140991 0.287316 0.40686 -0.162353 0.236598 0.957947
0.11332 0.492132 -0.460102 -0.373057 0.867195 -0.32985
-0.139184 -0.316773 0.443562 -0.580728 -0.144218 0.801222
0.131701 0.07268 0.487257 0.159258 -0.979984 0.119451
-0.164388 -0.168671 -0.107478 0.512581 -0.83939 0.180791
-0.165145 -0.59576 -0.117739 -0.67589 -0.613761 -0.408007
0.221809 0.379677 0.254551 0.558718 0.603098 0.569305
0.577437 -0.141798 -0.147405 0.908287 0.221239 -0.355061
-0.307136 -0.316775 -0.223229 -0.699556 -0.528734 -0.480688
0.125441 0.613301 0.154856 0.710462 0.459106 0.533353
-0.369387 -0.2152 -0.0570899 0.73491 0.527876 0.42574
0.421695 -0.106587 -0.328494 0.637392 0.180315 -0.749145
-0.242784 -0.336967 -0.243906 0.620483 0.457949 0.636619
-0.362319 -0.145002 0.0384272 -0.720737 -0.486485 -0.493832
-0.148437 -0.637219 -0.0315836 0.847844 0.465901 0.253175
-0.349 0.272053 0.358375 -0.406345 0.107389 0.907387
0.0432102 0.301809 0.369201 -0.234335 -0.368329 -0.899678
-0.492664 0.125395 -0.372488 0.629436 0.498997 0.595661
0.00767393 -0.0610585 0.0960223 0.443416 0.8783 0.178807
0.417407 0.247937 0.0580195 0.848947 0.513431 0.125215
0.277575 0.304838 -0.35086 0.808047 0.211264 -0.549934
-0.288009 0.397563 0.131555 0.443712 -0.862245 0.244239
-0.366617 -0.11512 0.32108 0.733238 0.487027 0.474518
0.161154 -0.165194 -0.45775 0.125424 -0.117431 -0.985129
-0.305743 -0.0786267 0.386811 -0.503457 0.82155 -0.267556
-0.431723 -0.143761 0.0543804 0.871119 0.47692 -0.11704
0.230536 -0.077319 0.4981 0.193833 0.352181 0.91564
-0.269271 0.377732 0.37737 -0.204859 0.166055 0.964603
0.268721 0.0830915 0.386768 -0.4528 -0.531289 -0.716033
0.44913 0.0862919 -0.213463 0.751522 0.445774 -0.486313
0.0120064 0.440233 -0.330386 0.372891 -0.885368 0.277626
0.0339393 -0.180154 -0.467189 -0.0600056 -0.25293 -0.965622
0.232353 0.560141 0.026774 0.801027 0.540995 0.256282
0.319496 0.432382 -0.0889278 0.900281 0.429641 -0.0700238
-0.188258 0.520097 0.29923 -0.471503 0.851977 -0.227639
-0.107911 0.459598 -0.00521975 0.519018 -0.833239 0.190615
0.233567 0.083729 0.276394 0.0248176 -0.998062 -0.057059
-0.283788 -0.423765 0.0910397 0.86762 0.485319 -0.108171
-0.200762 0.354084 -0.213436 0.420768 -0.859155 0.291215
-0.00589429 -0.109088 0.0120114 0.720757 0.53161 0.44486
0.051737 0.131326 0.130019 -0.468592 0.85251 -0.231622
0.0741759 0.0533079 0.132527 0.665263 0.52858 0.527284
0.165607 0.537971 -0.379267 -0.486463 0.850799 -0.198732
0.358271 -0.112306 -0.374171 0.576985 0.0531843 -0.815022
0.165604 0.563818 -0.18535 0.552844 -0.820361 0.146191
0.290575 -0.0589547 -0.417234 0.560066 0.0328788 -0.827795
0.316437 -0.464632 -0.354622 0.378608 -0.888864 0.258025
-0.254948 -0.107829 0.358663 0.71498 0.0749031 -0.695121
0.108054 -0.253653 -0.42419 -0.0766152 0.285913 0.955188
0.543892 0.0112906 0.145897 0.843372 0.506943 0.178136
-0.115478 -0.374889 0.44934 -0.637377 -0.0656637 0.767749
0.35169 0.00109775 0.421961 0.50316 0.457584 0.733107
-0.29034 -0.462267 0.0598772 -0.881905 -0.471007 0.0199172
-0.219113 -0.13336 0.0334232 -0.772014 -0.461247 -0.437316
-0.271267 -0.132062 -0.0873879 0.723818 0.495042 0.480646
0.440045 0.150104 -0.176025 0.848464 0.397491 -0.349441
0.189375 0.276865 0.35315 0.420411 0.415175 0.806774
-0.0203393 -0.0919703 -0.0282772 0.49378 0.0337087 -0.868933
0.491236 0.0863229 -0.117151 0.866659 0.42169 -0.266606
-0.369611 -0.206342 -0.194446 0.801558 0.494661 0.335881
0.0366792 0.588858 0.184556 0.429957 -0.863852 0.26248
-0.330332 -0.225435 0.271041 -0.846333 -0.218544 0.485757
-0.0669893 -0.163063 -0.463586 -0.142882 -0.510088 -0.848172
0.208916 0.637328 -0.0839428 0.947212 0.311915 0.0741513
0.168901 -0.0582948 -0.444048 -0.310145 0.0621718 0.948654
-0.477928 0.0860093 -0.391883 -0.670207 -0.486181 -0.560758
0.497301 0.0576938 0.209199 0.807886 0.481974 0.339148
0.331872 0.400738 0.0324969 0.86412 0.494833 0.0918511
-0.367753 -0.134964 0.0850767 0.739864 0.555701 0.379206
-0.35536 0.405271 0.314874 0.417101 -0.873808 0.249973
-0.124607 0.0688955 0.266237 -0.436231 0.848312 -0.300117
-0.212345 -0.592541 0.000846054 -0.885645 -0.425645 -0.185633
0.445163 0.027609 0.275376 -0.642968 -0.562162 -0.520159
-0.342664 0.290297 -0.247912 -0.452468 0.825146 -0.33824
0.366345 -0.440434 -0.370763 0.2757 -0.0792482 -0.957971
0.400493 -0.412093 -0.339748 0.524724 -0.846256 0.092279
-0.202965 0.374141 -0.129998 0.46402 -0.855111 0.23124
-0.338573 0.288807 -0.150734 0.482556 -0.860236 0.164724
0.109864 0.175321 0.192817 -0.741372 -0.504162 -0.442933
-0.177037 0.418381 -0.101809 -0.459594 0.851424 -0.252685
0.0566559 0.610948 0.223492 0.556319 0.491206 0.670243
-0.191359 0.0116276 0.194311 -0.428125 0.847996 -0.312428
0.126912 0.468986 0.276208 0.440318 0.494324 0.749509
-0.21871 -0.235042 0.398041 -0.603215 -0.156563 0.782061
-0.0813653 0.0549439 0.384768 0.559809 0.709925 0.427341
-0.23777 0.0924997 -0.528481 -0.184725 -0.402416 -0.896626
-0.120337 0.340849 -0.521268 -0.467968 0.848381 -0.247497
0.173249 0.628768 0.0624228 0.797267 0.495818 0.344281
0.238085 0.14964 0.245525 0.659937 -0.713031 0.23679
-0.308844 -0.324802 0.186369 0.888051 0.318881 -0.331179
0.292039 0.403479 -0.197597 -0.86694 -0.423724 0.262436
0.0576892 0.261512 -0.525242 0.415884 -0.028895 -0.908959
-0.16336 -0.546861 -0.133039 0.760727 0.442076 0.475251
-0.116694 -0.0626364 0.0477769 -0.545328 0.828565 -0.126877
-0.356484 -0.297632 -0.145601 -0.78986 -0.527352 -0.313083
0.423907 0.148246 -0.153617 -0.858926 -0.412008 0.30413
-0.130881 0.0817634 0.32369 -0.402265 0.914335 -0.0466244
0.133027 0.510182 -0.326233 0.502245 -0.854302 0.133859
-0.287178 -0.420437 -0.00686001 0.851028 0.465564 0.242904
-0.340599 -0.319934 0.0748041 0.885696 0.450468 -0.112341
0.344904 0.118274 0.212904 0.411788 -0.863127 0.292305
0.119254 0.17697 -0.470191 -0.435326 -0.0203 0.900044
0.0224159 -0.0822646 0.478393 0.119428 -0.104947 -0.987281
-0.216563 -0.0227566 0.367705 -0.813472 -0.340959 -0.471179
-0.0903951 0.494332 0.107103 0.492671 -0.853909 0.167672
0.146963 0.594856 -0.134709 -0.46762 0.852895 -0.232166
0.0171537 0.51416 -0.051504 0.54377 -0.829841 0.125215
-0.203567 -0.618724 0.0720182 -0.922335 -0.369795 -0.112024
0.330281 0.0175502 -0.345622 -0.617779 -0.193149 0.762262
-0.108637 0.112667 0.414272 -0.475373 0.851012 -0.223158
-0.420865 -0.175973 0.213898 -0.825727 -0.365454 0.429672
0.345932 -0.383005 -0.356835 -0.278233 -0.00552296 0.960498
-0.183929 -0.0677356 -0.102693 -0.694998 -0.609845 -0.380877
0.162663 -0.384117 -0.387487 0.0678187 0.105235 0.992132
0.579069 -0.211565 -0.152004 -0.868703 -0.20848 0.449322
-0.177815 -0.613448 -0.0706791 -0.809051 -0.476717 -0.343769
0.0251203 0.449178 -0.414466 -0.456147 0.8545 -0.248514
-0.414812 0.290038 0.0110554 0.391185 -0.86178 0.322969
0.53644 -0.0136926 -0.00992674 -0.830738 -0.538624 0.140562
-0.1756 -0.0684655 -0.113315 0.58209 -0.101106 -0.806814
0.332377 0.272518 -0.280073 0.81257 0.327899 -0.481884
-0.239359 -0.288049 -0.0842289 0.50829 -0.841561 0.182801
-0.258728 0.446411 0.262158 0.430343 -0.853166 0.29481
-0.181248 0.310162 -0.500323 -0.46543 0.853948 -0.232697
0.0889813 0.100325 0.488473 0.0844489 0.315535 0.945149
-0.255381 -0.0892908 -0.405771 0.393076 0.44846 0.80273
0.452711 0.0752978 -0.165786 -0.878748 -0.251917 0.405388
-0.316142 0.440654 0.267615 -0.433768 0.864919 -0.25251
0.221525 -0.518173 -0.356489 0.44078 -0.860738 0.254643
-0.487805 0.18939 -0.20065 0.40408 -0.873628 0.271096
-0.366068 0.237389 0.319209 0.510895 -0.00508612 -0.859628
0.217174 0.150587 0.438105 0.27831 0.390425 0.87756
-0.200153 -0.178969 0.391597 0.603753 0.0665584 -0.794388
-0.036794 0.390898 -0.417455 0.469295 -0.851985 0.23213
-0.429925 -0.248033 0.103795 -0.902011 -0.394237 0.175935
0.353161 -0.172742 -0.384747 0.484672 0.0272785 -0.874271
-0.421881 0.157451 -0.483749 -0.377669 -0.512986 -0.770851
0.238533 0.516011 -0.18472 -0.945731 -0.289959 0.146683
0.0856877 0.639473 0.173688 -0.373142 0.863756 -0.338659
0.474789 0.100822 -0.030146 -0.855239 -0.517701 0.02348
-0.149074 -0.172397 0.425312 0.511706 0.111762 -0.851861
0.184349 0.590652 0.0321717 -0.805182 -0.526876 -0.272182
-0.086798 -0.017845 0.420742 -0.862268 -0.112581 -0.493781
0.65239 -0.180182 0.0231001 0.353025 -0.872465 0.337902
-0.197873 -0.109042 -0.449281 -0.302822 -0.421444 -0.8548
-0.0919306 -0.475206 0.448711 0.453877 -0.844342 0.28475
-0.0560083 0.00676208 -0.513984 0.0223205 -0.233588 -0.972079
-0.19418 -0.092234 0.456558 -0.293113 -0.9547 -0.0513038
-0.431841 0.335068 0.211232 0.539599 -0.831566 0.131645
-0.0322085 -0.0401785 0.0707732 -0.805675 -0.468644 -0.362298
-0.30391 0.294392 -0.20657 0.555425 -0.816005 0.16012
0.141819 0.203999 0.261925 -0.780239 0.400573 -0.480384
-0.346236 -0.173471 0.169794 -0.507311 0.835046 -0.212919
-0.580718 0.116087 -0.0132761 0.916503 0.377055 -0.13361
-0.0609686 0.00236371 0.0813204 -0.855077 -0.198742 -0.4789
0.155488 0.00616101 0.14886 -0.0453337 -0.996276 -0.0733462
-0.0732722 -0.0622483 -0.0321189 -0.511934 0.822946 -0.246339
0.247934 0.198623 -0.411991 0.67457 0.0490142 -0.736582
-0.25324 -0.0650183 0.0367805 -0.464766 0.853016 -0.237397
0.17122 -0.545872 -0.344218 0.10269 0.28223 0.953835
0.17446 0.62621 0.0598907 0.821792 0.393134 0.412436
0.0210701 -0.0783113 0.504822 -0.130267 0.117669 0.984472
0.0147887 0.0403845 0.324989 -0.861093 -0.165579 -0.48073
-0.0229515 0.456638 -0.184576 0.500505 -0.846091 0.18337
-0.170155 -0.120083 -0.0641478 -0.762545 -0.458837 -0.456063
-0.369321 0.232969 -0.415852 -0.544024 0.836245 -0.0687913
0.49408 -0.112521 0.391061 0.612465 0.569344 0.548392
-0.300753 -0.317293 -0.230824 -0.732551 -0.461757 -0.50015
-0.226347 -0.539017 -0.0762419 -0.829023 -0.440941 -0.343936
-0.167357 -0.161987 0.237465 0.487028 -0.863337 0.132111
-0.201136 0.0200417 0.331837 -0.860178 0.180429 -0.47701
-0.15718 -0.407483 0.371929 0.743644 0.22403 -0.629923
-0.0389273 -0.195382 -0.4305 0.139705 0.361308 0.921922
0.183252 0.170806 0.0912258 0.465333 0.0593319 -0.883145
-0.54797 0.00958474 -0.162527 -0.847337 -0.492401 -0.198902
0.171798 0.24201 0.299686 -0.540157 0.827995 -0.150513
0.287916 0.354595 -0.247683 -0.859158 -0.342367 0.380304
-0.510818 0.128189 0.198533 -0.689514 -0.368574 0.623476
-0.0125811 0.549955 0.0370874 -0.392255 0.876849 -0.277979
-0.348188 -0.304967 -0.152919 -0.814941 -0.461064 -0.35113
-0.452562 -0.129364 0.109588 -0.873329 -0.382824 0.301235
0.388749 -0.368189 -0.368104 0.414424 -0.170395 -0.89399
-0.329423 0.39123 0.359258 -0.274698 0.0749062 0.958608
-0.0123605 0.549227 0.140134 0.420617 -0.863193 0.279247
-0.284241 -0.394154 -0.153736 -0.847725 -0.523672 -0.0844425
-0.371984 -0.0977065 0.301319 0.728865 0.561022 0.392442
0.0833158 0.110543 -0.487878 -0.229056 -0.105137 0.967719
-0.21346 -0.33015 0.340685 0.703218 0.268393 -0.658369
-0.313464 0.240791 -0.401407 0.558507 -0.821713 0.113388
-0.175277 0.294643 -0.58867 -0.347811 0.875089 -0.336521
-0.124717 0.233885 0.397801 0.164472 -0.198865 -0.966127
-0.565185 0.0588181 0.0279019 -0.842136 -0.455694 0.288358
0.481283 -0.168101 0.421991 0.63173 -0.761786 0.143526
-0.546591 0.137544 -0.364815 -0.546922 -0.536947 -0.642311
-0.467337 -0.0341629 0.166499 -0.832021 -0.326934 0.44817
-0.506701 0.32653 0.223157 -0.559888 0.822809 -0.0975238
-0.475158 0.243656 -0.160903 -0.410214 0.862866 -0.295276
-0.274933 -0.289839 -0.287376 -0.612368 -0.505812 -0.607585
0.404443 0.132159 -0.215825 -0.875806 -0.292546 0.383901
0.36453 0.263238 -0.235088 0.763114 0.495834 -0.414495
-0.494412 0.149509 -0.425668 -0.574285 -0.493532 -0.653165
0.180779 -0.161093 0.537563 0.0151336 0.256107 0.96653
0.522567 -0.0272205 0.269934 0.744702 0.609148 0.272686
-0.35279 -0.295799 -0.0456528 0.827046 0.551206 0.110308
-0.422173 0.126277 0.295536 -0.529903 -0.253184 0.809383
0.223793 0.0912669 0.358443 0.431872 -0.884457 0.176697
-0.143572 -0.120416 0.456148 -0.476821 0.0495601 0.877602
0.0853058 0.536984 -0.10292 0.496993 -0.844992 0.197449
-0.248013 -0.1024 0.0913131 0.740625 0.516819 0.429386
0.267154 -0.308876 -0.388814 -0.171492 0.0241551 0.984889
-0.592926 0.186153 0.045454 0.826966 0.428721 -0.363766
0.435357 -0.108057 -0.314794 0.594621 0.307241 -0.742986
-0.156381 -0.408311 0.377099 0.764672 0.149551 -0.626827
0.370221 0.345392 0.0272929 0.849954 0.515588 0.108381
-0.121042 0.027329 0.429455 0.290916 -0.0992885 -0.951583
-0.265371 -0.310404 0.27552 0.793736 0.314672 -0.520542
0.339724 -0.356394 -0.361146 -0.354 0.0874634 0.931147
-0.360535 -0.240863 0.138414 0.885096 0.356731 -0.298911
0.440719 -0.0464087 -0.254546 -0.648261 -0.362938 0.669353
-0.347001 0.305035 -0.178486 -0.538906 0.827525 -0.157425
0.0594473 0.137379 0.322604 -0.688549 -0.572213 -0.445503
-0.505733 -0.0233368 -0.00442885 0.894127 0.440081 -0.0828581
0.131326 -0.210076 -0.432768 -0.101481 0.165861 0.980914
0.147109 -0.312092 0.541575 0.108653 -0.150339 -0.982646
0.361448 0.204376 -0.232733 -0.825065 -0.353094 0.441127
0.228639 0.338996 -0.388271 0.672533 0.259627 -0.693032
0.635967 -0.214399 -0.0800937 0.509616 -0.843203 0.171172
0.0534896 0.386001 0.331773 -0.341318 -0.438328 -0.831487
0.442667 0.0166533 -0.227809 -0.771073 -0.344579 0.535455
0.264217 -0.121287 -0.405053 -0.386894 -0.00405875 0.922115
-0.311783 0.353523 0.0289977 0.457884 -0.83588 0.302731
0.276836 0.150593 0.145859 -0.670591 0.702918 -0.237097
-0.20306 -0.380652 0.331195 0.86867 0.1682 -0.465963
0.0596132 -0.405837 -0.400142 -0.178656 -0.358305 -0.916351
0.132636 -0.0536524 -0.479475 0.22558 -0.0905394 -0.970008
-0.028991 0.260427 0.398415 -0.116542 -0.286883 -0.95085
-0.253338 0.241541 -0.576815 -0.113136 -0.30633 -0.945179
-0.347851 -0.188949 -0.243468 0.708927 0.64057 0.295115
0.217056 -0.043723 -0.425385 -0.207709 -0.00441317 0.978181
-0.186775 0.016569 -0.509075 -0.184343 -0.344541 -0.920494
-0.102275 -0.260589 0.473048 -0.508792 0.0042524 0.860879
-0.507253 -0.0422483 0.0690068 -0.921421 -0.330178 0.204858
-0.384513 -0.215962 -0.215438 -0.810877 -0.428239 -0.398861
-0.2493 -0.267531 0.0258121 0.415929 -0.868132 0.270832
-0.234361 -0.570357 0.0926977 -0.949997 -0.311571 -0.0207115
0.325872 0.370871 0.115503 0.768077 0.613699 0.182844
-0.251182 -0.0110759 0.275786 -0.740626 -0.529064 -0.414203
0.349292 0.3042 0.158463 0.777399 0.523734 0.348358
0.377251 0.0474482 -0.328133 0.730573 0.180178 -0.658634
-0.498784 0.00607809 -0.226784 0.792259 0.529782 0.302748
0.258719 0.363694 -0.34363 0.721107 0.353946 -0.595589
0.490769 -0.185096 -0.284848 0.718338 0.111825 -0.686648
0.313417 0.304132 0.225828 0.640129 0.599746 0.480145
0.308368 0.372666 -0.255891 0.88216 0.334725 -0.33129
-0.524346 -0.0460719 -0.0550293 -0.910996 -0.406447 0.0699076
-0.0516216 -0.108622 0.0938046 0.737003 0.544782 0.400049
0.0903483 0.103081 0.143687 -0.296567 -0.916282 -0.269213
-0.2647 -0.173618 -0.00555363 -0.509476 0.837002 -0.199652
0.132898 0.181409 0.148954 -0.60334 0.783373 -0.149357
-0.554321 0.141012 0.140847 -0.950598 -0.221677 0.217307
0.111048 0.564984 0.176707 -0.505323 -0.621692 -0.598454
-0.466582 0.0547577 -0.338425 0.67884 0.496064 0.541384
0.180066 0.601683 -0.0844741 0.360471 -0.888417 0.284209
0.137918 0.506886 -0.333549 0.339323 -0.86277 0.374816
-0.250325 -0.24534 -0.307613 0.567031 0.403031 0.71836
-0.100576 0.458248 -0.00825564 0.489884 -0.845037 0.214305
-0.161951 0.442082 -0.0458419 -0.485033 0.849516 -0.207522
-0.284996 -0.233616 -0.285875 0.645699 0.546632 0.533167
0.075212 -0.230859 -0.45443 0.0577523 -0.25656 -0.964801
-0.16058 -0.364884 -0.329915 -0.51463 -0.487618 -0.705255
-0.520546 0.126881 0.186129 -0.715966 -0.363618 0.595965
0.234206 0.590571 -0.0666141 0.822858 0.566448 0.0451922
0.267492 0.337364 -0.303415 -0.749454 -0.334812 0.571156
0.442821 0.198207 -0.0937063 0.774335 0.577416 -0.258837
0.0688078 0.394085 -0.480958 -0.556655 -0.0441046 0.829572
0.471911 -0.159008 0.408694 -0.509125 -0.510661 -0.692832
0.0776993 0.597957 0.039697 -0.500696 0.848792 -0.16987
-0.215518 -0.174887 0.269187 0.174877 -0.984582 -0.00394952
0.224595 0.154793 0.165083 -0.331528 -0.906946 -0.259882
0.477429 -0.00834426 -0.233517 0.735072 0.37287 -0.566249
0.262786 0.463203 0.118168 0.740385 0.611693 0.278679
-0.0142752 0.407486 -0.488862 -0.446811 0.825356 -0.345177
-0.229642 -0.392817 -0.24157 -0.719301 -0.431947 -0.544084
0.179603 -0.238033 -0.440249 0.188858 -0.367961 -0.91046
1.35177e-05 -0.0615951 0.250319 0.600991 -0.770591 0.212131
0.0182566 0.43508 -0.456371 -0.49722 0.846618 -0.189763
0.136974 0.130921 0.19722 -0.740917 -0.479648 -0.470085
-0.156872 -0.00775608 -0.477546 0.171929 0.471011 0.86521
0.0454375 -0.311635 -0.429365 -0.1411 -0.261103 -0.954943
0.591355 -0.151872 0.259722 0.42861 -0.862196 0.270021
0.195224 0.158675 0.381578 -0.34768 -0.405742 -0.845276
-0.163015 0.194541 0.424053 -0.244786 0.209494 0.946674
0.255337 0.474341 0.0448557 -0.80134 -0.43183 -0.413977
0.00633549 -0.0692659 0.0417488 -0.434767 -0.832607 -0.343138
0.273094 0.410556 -0.297657 0.858713 0.309429 -0.408491
-0.133469 0.527266 0.344681 0.189081 0.485789 0.85338
0.173104 0.0128376 0.0941974 -0.315417 -0.931522 -0.181048
0.0369845 0.0921157 0.282704 -0.344216 -0.898937 -0.270977
-0.110408 -0.0321549 0.0999758 0.699081 0.46886 0.539867
-0.448725 0.120926 -0.442713 -0.542433 -0.49766 -0.676832
-0.387451 -0.148974 -0.285347 -0.689632 -0.537264 -0.485546
-0.323079 -0.363223 0.0662239 0.905456 0.418076 -0.0732194
-0.24581 0.185536 0.377263 0.343526 0.0586995 -0.937307
-0.506196 0.264836 0.00932785 -0.457868 0.857076 -0.236173
-0.13506 0.337918 -0.404565 0.395765 -0.812243 0.428522
-0.535899 0.23093 0.17311 0.75387 0.27297 -0.597634
0.316955 -0.110135 0.462398 -0.313173 -0.367744 -0.875606
0.138834 0.0246336 0.454613 -0.114926 -0.381354 -0.917258
0.108209 0.640529 0.11366 -0.454854 0.856612 -0.243563
-0.257453 -0.511866 -0.00703497 -0.852574 -0.507053 -0.12655
-0.245745 0.00327097 0.27662 -0.436692 0.838484 -0.325952
-0.205756 -0.0720845 0.398205 -0.616587 -0.666682 -0.418754
-0.20605 -0.154085 0.278525 -0.322394 0.930045 -0.176293
-0.16677 -0.535472 -0.183106 -0.71067 -0.51005 -0.484559
0.0935709 0.14304 0.0822231 -0.431719 0.83693 -0.336402
-0.382585 -0.348031 -0.0150792 0.44175 -0.841103 0.312096
-0.121919 -0.108625 -0.446336 0.202247 0.341124 0.918004
-0.315135 -0.17379 -0.34192 -0.664319 -0.537932 -0.51895
0.115599 0.180236 0.194501 -0.466687 0.841446 -0.272343
-0.0333573 0.043775 0.325977 0.815696 0.539341 0.209169
0.424804 0.179998 0.0954604 -0.873268 -0.438773 -0.211851
-0.0939409 0.383833 -0.41049 -0.493748 0.858532 -0.13833
0.158098 0.200327 0.242087 -0.815072 0.305108 -0.492511
-0.177469 -0.584902 0.243544 0.414816 -0.868318 0.271941
-0.255152 -0.358543 0.315172 -0.883525 -0.121003 0.452484
0.343981 -0.220912 -0.361347 -0.446176 0.00277378 0.894941
-0.0358815 -0.244197 0.5074 -0.306551 -0.0294315 0.951399
0.0755297 0.108297 -0.486326 -0.312605 0.0306007 0.94939
0.248743 0.223463 -0.373223 -0.750169 -0.104625 0.652917
0.379677 0.265789 0.149691 0.751193 0.59289 0.290156
0.218326 0.214689 0.362167 0.734354 0.517413 0.439328
-0.260964 0.376438 0.018541 0.502431 -0.857632 0.109687
0.165935 -0.54651 -0.368981 -0.243854 -0.299074 -0.922545
-0.62042 0.225728 0.0827978 -0.449908 0.85807 -0.247585
-0.0366946 -0.0625542 0.277492 -0.469178 0.870439 -0.149026
-0.506351 0.237359 -0.102712 -0.345554 0.851992 -0.393321
0.0573373 0.0409193 0.251492 -0.911409 -0.294023 -0.287896
-0.371813 -0.160487 0.294613 -0.924304 -0.0835157 0.372406
0.0377615 0.0932957 0.0213102 -0.192519 0.974718 -0.113408
0.0723022 -0.0628433 0.508962 -0.0621273 0.212574 0.975168
0.227328 -0.0878451 -0.420796 -0.379626 0.0555963 0.923468
-0.550207 0.0907127 0.11369 -0.82632 -0.409488 0.386673
-0.0579935 0.347739 0.394864 0.108055 0.279924 0.953922
0.34962 0.117877 -0.298273 -0.863855 -0.136024 0.485027
0.0124788 0.120373 0.198886 -0.352789 -0.886081 -0.300666
0.490855 0.00390507 0.225018 -0.770454 -0.539947 -0.338907
-0.411888 0.227201 0.290175 0.633009 0.051852 -0.772406
0.305585 -0.163192 0.491784 -0.142555 -0.433046 -0.890028
0.458937 0.12081 -0.0835052 -0.953271 -0.24284 0.179733
-0.203028 0.145194 -0.547319 -0.025261 -0.347204 -0.937449
-0.0725425 -0.0613369 -0.0263098 -0.546386 0.820075 -0.170115
-0.263194 -0.250998 -0.114011 0.377402 0.858162 0.348032
-0.51757 0.0602936 -0.318387 -0.71693 -0.526831 -0.456574
-0.0975544 0.433683 -0.129602 0.479829 -0.85314 0.204734
-0.237303 0.30026 -0.320238 0.514346 -0.840314 0.171233
-0.0263242 -0.466592 -0.315981 0.486675 0.51759 0.703739
0.35518 0.121446 -0.288582 -0.720577 -0.307466 0.621477
-0.210574 0.279471 0.377983 0.204039 -0.159533 -0.965877
-0.275211 0.29342 0.356464 0.290272 -0.213625 -0.932795
-0.400888 0.241725 -0.320447 -0.474592 0.851738 -0.222045
-0.123554 0.0798705 0.374943 0.145336 0.984924 0.09382
0.518182 0.0172138 0.0960639 -0.845575 -0.520107 -0.120381
-0.345283 0.0944508 0.352374 -0.537812 -0.109667 0.835901
0.516085 -0.0820116 0.340301 0.689773 0.517518 0.506348
-0.276995 0.203929 -0.532364 0.269102 0.251809 0.929611
0.0489782 -0.0590063 0.00527516 0.461175 0.0700362 -0.884541
0.079215 0.56136 -0.113846 -0.498543 0.85023 -0.169006
0.423234 -0.0283825 -0.304869 0.660592 0.245544 -0.709455
-0.147044 0.452637 -0.0457403 -0.407286 0.862727 -0.2997
0.470626 -0.232794 -0.314659 0.61463 0.146126 -0.775162
0.501356 0.0257176 0.173144 -0.812521 -0.520012 -0.263432
0.432309 -0.363297 -0.316386 -0.501455 -0.0110699 0.865113
-0.104975 0.141282 -0.552949 -0.0812498 -0.0344319 -0.996099
0.246059 0.228677 -0.372102 -0.698255 -0.158303 0.698126
0.153312 -0.313158 0.560276 0.465783 -0.850809 0.243247
-0.369483 -0.302252 -0.0986018 -0.838359 -0.485791 -0.247309
-0.32966 -0.0916147 -0.3854 -0.577781 -0.409519 -0.706019
0.434965 0.0783342 -0.244108 0.7786 0.312923 -0.543931
-0.212735 0.476228 0.290573 0.502417 -0.845308 0.181743
0.216452 0.149384 -0.441291 0.593799 0.036782 -0.803772
0.22424 0.41734 -0.322927 -0.780717 -0.333992 0.528138
-0.199456 0.378725 0.383245 -0.113505 0.174242 0.978139
0.047621 -0.0798929 0.106153 0.41447 -0.906322 0.0824267
-0.196022 -0.436531 0.315243 0.888233 0.137395 -0.438365
-0.336796 0.379819 0.0812216 -0.478758 0.853007 -0.207774
0.0771335 0.0567566 -0.504214 0.412889 -0.118888 -0.902989
0.111758 -0.0553082 0.0430534 0.41971 0.0607687 -0.905622
0.40032 0.14088 -0.206554 -0.782112 -0.398557 0.479013
0.0550543 0.515125 -0.145421 0.525622 -0.829281 0.189775
-0.16486 0.00622371 0.106571 -0.403553 0.870586 -0.281471
-0.167053 -0.630269 0.0281774 0.848156 0.512383 0.134516
0.510925 -0.0946049 -0.186094 -0.781213 -0.339256 0.524034
-0.25934 -0.066735 0.330881 -0.475544 0.85086 -0.223373
-0.309726 0.384122 0.0391884 -0.596525 0.782862 -0.176873
0.472786 -0.0376452 0.307973 -0.659705 -0.512182 -0.549963
-0.395481 -0.146616 -0.225699 0.794981 0.471678 0.381477
0.577451 -0.216807 -0.194165 0.762486 0.317685 -0.563641
0.263075 0.542098 -0.0843574 0.895139 0.443958 0.0403397
-0.149464 0.461627 0.0958339 0.468288 -0.851958 0.234251
-0.31617 0.162282 0.347943 0.431535 0.0916628 -0.897427
0.0628131 0.565221 0.249223 0.504207 0.520378 0.689189
-0.378106 -0.351897 -0.0373062 -0.886952 -0.118555 -0.446387
-0.0449601 -0.016951 -0.0350528 0.73711 0.523263 0.427627
-0.241337 -0.0948067 0.278597 0.662517 -0.740555 0.112465
0.146405 0.503959 -0.425546 0.707606 0.290299 -0.64422
0.146165 0.323473 0.351582 0.467147 0.408956 0.783919
0.238956 0.463351 -0.253414 -0.770426 -0.537806 0.342356
-0.0434229 0.488802 -0.0270008 0.411145 -0.870206 0.271479
0.144958 0.0029099 -0.452081 -0.256664 0.0221599 0.966247
-0.272905 -0.224174 0.0277733 0.669695 0.537513 0.512434
-0.416693 0.327963 0.0465964 -0.495137 0.847654 -0.190586
-0.217385 -0.162313 -0.14276 0.46721 0.101581 -0.878291
0.127195 0.290448 -0.45808 -0.532004 -0.115346 0.838849
0.616176 -0.240407 -0.146347 0.637366 -0.761412 0.118388
-0.382304 0.105055 -0.480191 -0.438618 -0.439554 -0.783841
0.0188983 0.507406 -0.191899 -0.498018 0.84427 -0.197957
0.200422 0.222039 0.187798 -0.714451 0.624703 -0.315129
0.331546 0.181998 -0.332437 0.698757 0.281424 -0.657677
-0.263169 -0.45215 -0.0488573 0.807383 0.49492 0.321226
-0.079516 0.366139 -0.521149 -0.420712 0.870733 -0.254609
-0.237722 -0.14624 0.128066 0.730753 0.523738 0.437833
0.166945 0.245969 -0.442673 -0.557695 -0.17963 0.810376
0.0398226 0.0463221 0.192865 0.73557 0.522763 0.430877
0.0132374 0.606372 0.258349 0.453583 0.439552 0.775278
-0.621825 0.138813 -0.0452451 -0.885647 -0.453296 0.100755
0.266648 -0.095675 0.476463 -0.224085 -0.349131 -0.909886
-0.326783 -0.0553387 -0.372377 0.531112 0.498971 0.684797
-0.573336 0.0424025 -0.0971714 -0.813202 -0.576179 -0.0819759
-0.00420582 -0.0157244 -0.508568 -0.0390663 -0.147367 -0.98831
0.556508 -0.245269 -0.232802 0.749152 0.166266 -0.641192
0.0358452 0.0934213 0.0895302 0.159425 0.980265 0.11689
-0.538812 0.201038 -0.160602 -0.434619 0.852941 -0.289132
0.204286 0.607153 0.0206333 0.735054 0.576012 0.357638
-0.0780014 -0.070877 0.406428 0.620994 -0.738067 0.263863
0.0757246 -0.136767 0.5238 -0.0956914 0.17998 0.979005
0.390585 0.23996 -0.10271 -0.899118 -0.418173 0.129295
-0.390269 -0.125712 0.101937 -0.402092 0.876229 -0.265603
0.031947 0.125358 0.229475 0.394032 0.902061 0.17614
-0.184988 -0.572893 -0.0442112 0.845851 0.489449 0.212073
-0.490538 -0.088527 -0.138362 -0.893053 -0.404329 -0.197419
-0.446544 0.266777 -0.0112166 0.55075 -0.817628 0.167805
0.385094 0.205371 0.212822 0.779794 0.465688 0.418397
-0.378693 -0.157037 -0.282563 -0.780514 -0.334094 -0.528373
0.324868 -0.251987 -0.39527 0.360457 -0.0136817 -0.932676
-0.11085 0.513072 0.21067 0.432001 -0.865509 0.253514
-0.203091 -0.15005 0.0758325 0.737795 0.519135 0.431461
0.253387 0.182007 0.367828 0.504483 0.418854 0.755022
-0.0955523 0.0635852 0.17634 -0.670478 0.699522 -0.247241
0.115444 -0.0576843 0.483539 -0.195117 -0.223535 -0.954967
0.182898 -0.151364 0.533967 0.0138887 0.214493 0.976627
-0.341816 -0.25128 -0.234696 -0.686139 -0.47016 -0.555125
0.230502 0.203981 0.311611 -0.717006 -0.535787 -0.445909
-0.298054 -0.271734 0.0954056 0.518306 -0.845686 0.127177
0.123238 0.313637 0.36414 0.498472 0.375229 0.781491
-0.248648 0.311633 -0.274264 0.407873 -0.8518 0.328751
0.0666085 0.49571 -0.227141 0.48663 -0.84531 0.22055
-0.115964 -0.0281266 0.476052 -0.828283 0.14072 -0.542351
-0.375375 0.200029 -0.50758 -0.530509 0.835964 -0.140445
0.206041 0.457625 -0.372917 0.684568 0.387828 -0.617217
-0.410153 -0.183577 0.0743133 0.920131 0.364582 -0.142961
-0.280012 0.387614 0.0799479 0.456221 -0.856239 0.242318
0.469985 -0.0809242 -0.27019 0.698274 0.274592 -0.661069
-0.201989 0.28764 -0.433652 0.474535 -0.851958 0.221322
-0.36765 0.410454 0.257901 -0.470412 0.852535 -0.227806
0.11422 0.0368553 0.0852209 0.742291 0.444128 0.501752
0.149175 -0.453131 -0.392017 -0.00655315 -0.295172 -0.955422
-0.0584648 0.349938 0.393562 0.10426 0.284862 0.952882
0.00727388 -0.396383 0.52527 -0.480024 0.020413 0.877018
0.0801356 -0.125536 0.518793 -0.0666838 0.131053 0.98913
0.104757 0.0165405 0.31745 0.394971 -0.861167 0.319983
-0.0680899 -0.0422387 0.127796 -0.734749 -0.512199 -0.444743
0.0901863 -0.0604803 0.0898331 0.481902 -0.771231 0.4159
-0.293398 0.373579 -0.018106 -0.437486 0.845743 -0.305491
0.0435446 0.148466 0.379071 0.733236 0.532196 0.423241
-0.442177 0.176949 -0.380136 0.429034 -0.855785 0.289069
0.115951 0.0163379 0.314018 0.421482 -0.832399 0.359813
-0.299796 -0.423899 0.150391 -0.854907 -0.468956 0.221845
-0.150697 -0.354344 -0.310936 0.503856 0.504999 0.700789
-0.4005 0.187198 -0.411357 0.439349 -0.824881 0.355731
0.116956 0.614975 0.0176963 -0.518228 0.837018 -0.175617
-0.215786 0.0571988 -0.49581 0.187538 0.353137 0.916583
0.302825 -0.192317 0.531018 0.237336 0.321515 0.916678
0.0669061 0.0864411 0.245911 -0.505259 -0.830023 -0.236169
0.624606 -0.163774 -0.0775661 0.876419 0.332354 -0.348468
-0.460935 -0.188405 0.0777037 -0.817334 -0.540833 0.198658
0.277581 0.280744 -0.355917 0.756679 0.255585 -0.601759
-0.0619258 0.213981 0.409639 3.49899e-05 -0.0237084 -0.999719
-0.449898 0.281607 -0.0643212 -0.419962 0.869104 -0.261323
-0.282106 -0.187962 0.256923 0.771095 0.475708 0.423218
0.0752197 0.29856 -0.492129 -0.471976 -0.048249 0.88029
-0.0792344 -0.337331 -0.359465 0.280087 0.48395 0.829062
-0.218509 -0.075422 0.233473 -0.623415 0.769454 -0.138905
-0.0295673 0.402466 -0.492405 -0.404361 0.861451 -0.307238
0.273984 0.383062 0.181974 0.747254 0.477408 0.46227
-0.290166 -0.215355 -0.330143 -0.579678 -0.512442 -0.633543
-0.251155 -0.43377 -0.1153 0.743577 0.592329 0.310226
-0.0543267 -0.110103 0.466607 0.296275 -0.0190652 -0.954912
0.368215 0.0540514 0.334963 -0.660059 -0.558719 -0.502151
0.071014 0.12052 0.200181 0.273714 0.92923 0.248216
-0.399591 0.20177 -0.363139 0.489208 -0.849024 0.199586
0.14615 -0.215838 0.544938 -0.0426677 0.215936 0.975475
-0.145348 -0.649698 -0.0903534 0.464079 -0.855683 0.228993
-0.0308416 0.0248683 0.0200032 -0.850173 0.122898 -0.511959
-0.0701816 -0.500794 -0.305948 -0.474262 -0.453937 -0.754332
-0.493304 0.200014 -0.277216 -0.508845 0.842891 -0.174962
-0.477013 0.0893096 0.188021 0.746541 0.317771 -0.58455
-0.319418 -0.172739 -0.199052 0.512119 -0.0707349 -0.855997
-0.0886697 0.566 0.255551 -0.448406 0.85716 -0.253396
-0.0889121 0.0529129 0.19697 0.617288 -0.729286 0.295124
0.196207 0.593542 -0.247943 -0.478207 0.850134 -0.220433
-0.381638 0.224998 0.34104 -0.559855 -0.0550991 0.826757
-0.219565 -0.205154 0.127906 -0.747624 -0.509896 -0.425516
-0.0636561 -0.0500603 0.458865 0.264017 -0.0432244 -0.963549
-0.279561 0.241198 0.364687 0.305631 0.0277217 -0.951747
0.0684777 -0.346151 -0.396651 0.0529565 0.327406 0.943399
-0.53798 0.14463 0.131379 0.786855 0.374092 -0.49083
0.26883 -0.045738 0.480545 0.419111 0.511038 0.750458
0.00868342 0.0571088 -0.00730957 0.527717 -0.0391609 -0.848517
-0.289904 0.320338 -0.129464 0.473418 -0.851376 0.225906
0.22987 0.0874503 0.435336 0.331588 0.399216 0.854796
-0.26617 0.440257 0.156218 -0.360231 0.860106 -0.36118
-0.246873 -0.479766 0.233856 -0.857032 -0.378439 0.349686
-0.591026 0.179657 0.101216 -0.801791 -0.401522 0.442619
-0.218723 -0.254657 -0.0204217 0.649593 0.616958 0.444287
-0.0395297 0.49953 -0.0885284 -0.386487 0.879194 -0.278649
0.276166 -0.487366 -0.362778 0.452767 -0.858848 0.239545
-0.0883197 0.0197325 0.00105355 -0.507021 0.839935 -0.193494
0.291889 -0.377736 -0.375608 -0.25671 0.264043 0.929721
-0.312056 -0.132722 0.238239 0.730434 0.54394 0.413033
0.468484 0.146684 0.124789 0.827584 0.48125 0.288968
-0.348123 -0.0267595 -0.416534 -0.562441 -0.47647 -0.675749
0.200004 0.0240838 0.471122 0.261881 0.398061 0.879185
0.205292 0.525646 -0.276846 -0.881334 -0.347695 0.319936
-0.303955 -0.0626678 -0.426156 -0.41853 -0.452527 -0.787434
-0.00661212 0.0755247 0.0470396 -0.532912 0.807649 -0.252404
-0.327886 0.222471 0.36725 -0.531646 0.0490354 0.845546
-0.117541 -0.268167 -0.408992 -0.443054 -0.311053 -0.840803
0.160304 -0.327091 -0.399714 -0.233757 0.391236 0.890108
0.274706 0.221708 0.217624 -0.731098 -0.540099 -0.41688
-0.459981 -0.125908 0.0944237 -0.891321 -0.37129 0.260172
-0.297518 0.312213 -0.258137 -0.392988 0.866267 -0.308451
-0.467029 0.222791 0.278677 -0.748195 0.0626509 0.660514
-0.215703 -0.444708 0.319973 -0.829647 -0.25737 0.495426
-0.534835 0.225939 -0.00913127 0.445372 -0.850586 0.279549
-0.00959315 -0.343987 0.493879 0.484026 -0.0395762 -0.874158
-0.522401 0.0871925 0.161008 -0.800811 -0.357984 0.480156
-0.431235 0.26465 -0.157516 -0.429937 0.860385 -0.273664
-0.459026 0.000849623 -0.284741 0.726003 0.523594 0.445836
-0.24157 0.35981 -0.0893525 0.366817 -0.862042 0.349755
0.32599 0.155348 0.23819 0.750604 0.527571 0.397822
0.100505 0.00672943 0.215911 -0.449797 -0.856804 -0.252132
-0.199223 -0.380993 0.327462 0.661387 0.423322 -0.619165
0.151824 0.57793 -0.211132 -0.459756 0.854625 -0.24133
0.561784 -0.0606922 -0.117756 0.852703 0.385956 -0.352044
-0.109171 0.0447084 0.434872 0.190021 -0.0603547 -0.979923
-0.30723 0.334506 0.372679 -0.368122 0.0901428 0.925398
-0.00923457 -0.0104689 -0.508231 0.0844493 -0.230749 -0.969342
-0.142414 -0.351727 0.40476 0.716884 0.101089 -0.689825
-0.222726 -0.14299 0.0264124 -0.478668 0.850161 -0.219325
-0.0649517 0.414683 -0.256697 0.453936 -0.848637 0.271582
-0.242122 -0.216991 0.188937 0.5204 -0.832759 0.188934
-0.241122 0.0694766 0.409561 -0.629366 0.0878178 0.772131
-0.505841 0.235233 -0.117495 -0.645316 0.758582 -0.0901113
-0.113716 -0.0602279 -0.492931 -0.148144 -0.339997 -0.928685
-0.314303 0.36816 -0.0169447 -0.489789 0.848365 -0.200959
0.51433 -0.0781697 0.28903 -0.776625 -0.491781 -0.393707
-0.0625505 0.0201537 0.451353 0.278207 -0.247834 -0.927997
-0.136464 -0.306828 0.442662 -0.489139 -0.277365 0.826929
-0.131445 0.00726147 0.0527558 -0.456353 0.855696 -0.243979
0.517108 -0.0768059 0.2894 -0.667024 -0.504541 -0.548194
0.261616 -0.153244 0.523273 0.1517 0.318973 0.935544
-0.21871 0.214118 -0.549216 0.154557 0.224288 0.962189
0.0974046 0.525912 -0.275978 -0.411282 0.874361 -0.257566
0.286436 0.27006 0.168441 -0.40794 0.869718 -0.277806
-0.20677 -0.598538 0.181627 -0.905611 -0.360132 0.223996
-0.419953 0.386376 0.265357 -0.462006 0.85541 -0.234147
0.359187 0.356088 -0.112643 0.923824 0.355748 -0.141394
0.213894 -0.18193 -0.439604 0.284175 -0.0520892 -0.957357
-0.24442 -0.0624733 0.320589 -0.632857 -0.707923 -0.313588
-0.30921 -0.325493 0.241804 -0.863167 -0.237516 0.445566
-0.246601 -0.280183 0.314507 0.748801 0.264261 -0.607835
0.282785 -0.0707183 -0.416925 0.463346 0.0846934 -0.882121
-0.549649 0.222571 -0.0662046 -0.524888 0.843119 -0.116803
-0.0429141 0.108873 -0.512751 -0.183259 0.256546 0.949
-0.106566 0.0975251 -0.515174 -0.0348592 0.251197 0.967308
0.424943 -0.137708 0.456721 0.376404 0.546031 0.748445
-0.346423 -0.338981 0.130176 -0.885806 -0.418899 0.199679
0.205974 0.584721 -0.0273531 -0.790384 -0.586527 -0.176862
-0.391532 -0.135034 0.230483 -0.836947 -0.169802 0.520276
-0.101135 0.384416 -0.410999 -0.545131 0.835807 -0.0652569
-0.0623943 -0.387636 0.485906 -0.562815 -0.0403178 0.825599
-0.327151 -0.338825 0.189098 -0.848253 -0.390725 0.357494
-0.0885928 -0.426956 0.462556 -0.642827 -0.0784293 0.761985
0.107822 -0.374392 -0.415917 -0.0598922 -0.28937 -0.955342
0.431696 0.184947 0.0382966 -0.915084 -0.384339 -0.122086
0.119122 0.139699 0.46876 0.477597 -0.784826 0.394904
0.150299 0.44872 0.234876 -0.612654 -0.482986 -0.625603
0.123688 0.0318671 0.363377 0.579333 -0.789676 0.201954
0.322621 0.37962 0.108892 0.793481 0.545115 0.270623
-0.34146 -0.332602 0.0170647 0.921997 0.384252 0.0476641
-0.115785 0.562212 0.30271 -0.483343 0.854718 -0.189305
0.199445 0.0558269 0.188121 -0.630756 -0.56356 -0.53343
-0.388059 0.274585 -0.220721 -0.47346 0.851388 -0.225776
0.0526978 0.0861031 0.338052 0.533275 -0.835741 0.130978
-0.326654 0.216115 -0.555833 -0.17786 -0.403759 -0.89741
0.218852 0.569267 -0.130888 -0.917297 -0.387777 0.0905307
-0.36878 -0.256826 -0.179397 -0.761443 -0.583312 -0.282757
-0.298335 -0.367545 0.157569 0.886107 0.399353 -0.235227
-0.235066 -0.101093 0.0768079 0.700627 0.621827 0.349932
-0.461247 -0.196978 0.0649593 -0.91424 -0.380724 0.138614
0.0201546 0.412065 0.356523 0.340804 0.223342 0.91322
-0.166477 -0.544147 -0.129516 0.833195 0.435878 0.340288
-0.0784473 0.448166 -0.20806 -0.520974 0.841217 -0.144706
-0.12071 0.425266 -0.0919138 0.605108 -0.795412 0.0341225
-0.52529 0.0239773 -0.159047 0.913578 0.355444 0.197574
-0.17058 0.401073 -0.0965161 0.489222 -0.845634 0.21346
0.241851 0.237388 0.137996 -0.550459 0.805959 -0.217773
-0.370274 0.340221 0.0898824 0.463464 -0.85184 0.24407
-0.309526 -0.372735 -0.0457314 0.879007 0.470934 0.0746222
-0.25578 -0.0821427 0.0336614 -0.734195 -0.524194 -0.431483
0.249119 0.529515 -0.221392 0.919152 0.349154 -0.182348
5.71889e-05 -0.228242 -0.455097 -0.13758 -0.290914 -0.946805
0.401033 0.0112302 -0.280775 -0.647356 -0.297574 0.701698
-0.591121 0.0964615 -0.208845 -0.888262 -0.437311 -0.140534
-0.190826 0.391905 -0.178192 -0.460527 0.843694 -0.275854
-0.184097 -0.0304082 0.22953 0.794647 0.466813 0.388101
-0.075143 -0.0069792 0.404151 -0.750955 -0.480636 -0.452831
0.358167 0.227589 -0.278456 0.88036 0.254869 -0.40001
-0.125508 -0.116595 -0.472033 -0.182529 -0.274184 -0.944196
-0.312955 -0.167192 -0.349739 -0.542265 -0.460981 -0.702457
-0.355023 0.0551691 0.302357 0.578939 0.208856 -0.788168
-0.417803 0.378621 0.242914 -0.472172 0.851605 -0.227645
-0.106916 -0.0620661 -0.491773 -0.122211 -0.243663 -0.962129
-0.0211434 -0.0189795 0.0224952 -0.786179 -0.403674 -0.467942
-0.011446 -0.0547417 0.108443 0.585192 0.78585 0.199977
0.144562 0.582601 -0.0625239 0.45591 -0.854768 0.248028
-0.426067 0.217238 -0.239741 0.496854 -0.855109 0.148068
0.396298 0.207696 0.13271 -0.756433 -0.606045 -0.246005
-0.209255 0.114497 0.392135 0.390702 -0.0990873 -0.915169
0.176863 0.171613 0.207734 -0.829553 -0.293327 -0.475186
-0.0353632 -0.367722 -0.392238 -0.338797 -0.32446 -0.883144
-0.392784 -0.240983 0.203757 -0.713805 -0.529893 -0.457926
-0.369049 -0.197906 0.11663 -0.734534 -0.502712 -0.455785
-0.149763 -0.0749316 0.0856183 -0.64414 0.740959 -0.189903
-0.359227 0.220075 -0.370672 0.49413 -0.843652 0.20997
-0.287759 -0.214549 -0.338124 -0.591046 -0.495729 -0.636331
-0.309414 -0.277533 0.0501843 0.407587 0.871436 0.272897
-0.281841 -0.169265 0.0626358 -0.473393 0.851236 -0.226486
-0.0511872 -0.0881945 0.227149 -0.041162 -0.998686 -0.030544
0.550023 -0.0171993 -0.0768619 0.864667 0.424972 -0.267862
-0.579035 0.227341 0.00910355 -0.523249 0.832712 -0.181112
0.0244524 0.0699013 0.444637 0.0384406 -0.278519 -0.959661
-0.0586995 -0.00238511 -0.489787 -0.0513642 0.353287 0.934104
0.18431 0.498382 0.197407 0.683778 0.456962 0.568887
0.327831 -0.292598 -0.375183 -0.368799 0.0593187 0.927615
-0.00852233 0.132364 0.262866 -0.431017 0.855218 -0.287797
-0.123712 0.0196929 0.485685 -0.273665 0.075494 0.958858
-0.0620196 -0.335759 0.487964 -0.533675 -0.00535692 0.845673
0.147992 -0.0118083 0.489361 0.0760122 0.446815 0.891392
0.0855532 -0.155982 -0.448644 -0.0635844 0.034257 0.997388
0.215027 0.438152 -0.324956 -0.830043 -0.28369 0.480155
-0.0333346 0.44095 -0.330393 -0.518902 0.839003 -0.163752
-0.43073 0.0683369 -0.426148 -0.529843 -0.517492 -0.671914
-0.349111 0.315651 -0.116335 -0.490787 0.850001 -0.19138
0.0660469 0.531324 -0.193811 -0.54708 0.835015 0.0587691
0.209849 0.137608 0.448686 0.211464 0.419616 0.882726
0.158173 -0.335068 -0.422263 -0.0169423 -0.182764 -0.983011
-0.0222192 0.0353946 -0.498069 -0.0944317 0.150343 0.984114
0.282579 -0.251386 -0.414807 0.355701 -0.200238 -0.912897
0.649044 -0.161828 0.0889636 0.460133 -0.852057 0.24955
-0.164113 0.476315 0.177922 0.471181 -0.850645 0.233221
0.336918 0.141687 0.29887 -0.549142 -0.511575 -0.660859
0.220143 0.028018 -0.420882 -0.473393 -0.134253 0.87056
0.27078 0.20931 0.231526 -0.682391 -0.600024 -0.417509
0.184991 0.100899 0.150087 -0.736834 -0.522793 -0.428676
-0.332162 -0.162099 -0.296126 0.633831 0.515494 0.576649
-0.189167 -0.111711 0.10173 -0.89735 0.140364 -0.418404
-0.278434 0.29557 -0.357875 -0.437423 0.844654 -0.308578
0.20175 0.636925 -0.0326519 0.818339 0.546534 0.177826
-0.227855 -0.133915 0.428146 0.752092 0.485382 0.445827
0.369329 0.297769 -0.0712426 -0.88422 -0.466971 0.0095824
-0.340876 -0.250926 0.00189855 0.399529 0.90505 0.145812
-0.044563 0.483464 0.320939 -0.326923 -0.317908 -0.889975
0.223525 -0.201175 0.541403 0.132281 0.27693 0.951741
0.290079 0.177818 0.274349 0.757441 0.516336 0.3996
0.33711 0.140967 0.298187 -0.586376 -0.440115 -0.680046
-0.219311 -0.545763 0.216184 -0.831866 -0.463116 0.305814
0.128288 0.0880335 0.313827 0.740498 0.518227 0.427905
0.318732 0.1107 0.255028 0.572826 -0.808648 0.134007
-0.533239 -0.0187056 -0.0991052 -0.879439 -0.413245 -0.236252
-0.261636 -0.305268 0.334822 -0.818245 -0.138873 0.557843
-0.3699 -0.174136 0.21354 -0.427032 0.853147 -0.29964
-0.192819 -0.42342 -0.256398 -0.595193 -0.562956 -0.573433
-0.137404 0.296824 -0.537187 0.54528 -0.814346 0.198773
0.321451 -0.466012 -0.360624 0.477394 -0.849806 0.223441
0.0775669 0.030804 0.481168 0.0517989 0.20586 0.97721
0.474387 0.167611 0.0147361 0.870936 0.490493 0.0297923
0.267056 0.343714 -0.295533 -0.80722 -0.333861 0.486757
-0.125293 -0.0565454 0.300019 0.56684 0.750599 0.33955
0.444624 0.199449 -0.0944684 0.849844 0.505682 -0.148494
0.216427 0.398408 -0.38133 0.70159 0.375502 -0.605615
-0.272647 0.460566 0.24382 -0.392461 0.867684 -0.305121
-0.427003 0.151057 -0.481696 -0.595451 -0.338995 -0.728368
0.294409 0.226808 -0.313698 -0.785922 -0.157077 0.598042
-0.40752 -0.182653 0.085949 0.883943 0.429309 -0.185305
-0.0643163 0.124101 0.360377 -0.45162 0.85159 -0.266147
0.348315 0.349303 -0.170707 0.882578 0.387399 -0.266416
0.0663859 0.564764 0.253303 0.500469 0.517532 0.69404
0.449127 -0.105799 0.418361 0.509695 0.515701 0.688668
0.0615396 0.558634 -0.00224675 0.503548 -0.842914 0.189569
-0.515818 0.110705 -0.332331 0.693548 0.524735 0.493604
0.355246 0.295647 -0.14972 -0.907691 -0.395663 0.139813
-0.457471 -0.0870683 0.143975 -0.887773 -0.330689 0.320163
0.428492 0.19457 -0.0489645 -0.841892 -0.51634 0.156877
-0.102927 0.18345 0.412763 0.111144 -0.190178 -0.975438
-0.285378 -0.174603 0.390465 -0.746201 -0.042349 0.664372
-0.00373055 -0.061622 0.196898 -0.402792 0.906158 -0.128982
0.383465 -0.264854 -0.370535 0.428108 0.0485077 -0.902425
-0.262804 -0.451719 -0.0558209 0.787371 0.56987 0.235147
0.31689 0.195667 0.164236 0.470546 0.0552178 -0.880646
-0.0113097 0.0418394 0.416817 0.852311 0.238925 0.465275
-0.195746 -0.172316 -0.0679332 0.445195 -0.855994 0.262822
0.221643 0.563143 -0.120376 -0.801902 -0.591023 0.0874334
-0.420404 0.225444 -0.231791 0.480144 -0.862787 0.158304
-0.233726 -0.476474 -0.15583 -0.777103 -0.543796 -0.316854
-0.556106 0.230678 0.0801614 0.396533 -0.834617 0.382329
-0.166577 0.0458679 0.290488 -0.777558 0.549153 -0.306323
-0.343247 -0.352278 -0.0968651 -0.795181 -0.555411 -0.243322
0.155353 0.540645 -0.249497 0.458034 -0.853961 0.246891
0.100151 0.137834 0.418079 -0.0755839 -0.996096 0.0456059
0.334057 0.226281 -0.267396 -0.757925 -0.345068 0.553605
-0.207394 -0.276838 -0.141598 0.488787 0.0204926 -0.872163
0.31906 0.385358 -0.127141 -0.917041 -0.369005 0.151233
-0.352047 0.287057 -0.256402 -0.556544 0.82433 -0.10363
0.0804621 -0.0102364 -0.471319 -0.202993 0.146048 0.968227
-0.317282 -0.281149 0.208891 0.769302 0.418212 -0.482983
0.55366 -0.0052692 0.158754 0.831993 0.495722 0.249094
0.233896 0.578706 -0.181131 0.873634 0.458101 -0.164035
-0.149946 -0.515453 0.337134 0.852794 0.227067 -0.4703
0.211082 -0.341824 -0.423534 0.227433 -0.29018 -0.929554
-0.0216944 0.528686 -0.0128088 -0.505418 0.838889 -0.202035
-0.482262 0.348554 0.288821 -0.665689 -0.0397905 0.745167
0.382188 0.293308 -0.14632 0.821438 0.53159 -0.206522
-0.209642 -0.177281 -0.409381 -0.356416 -0.453432 -0.816926
-0.381233 -0.280534 0.0986159 -0.876782 -0.455702 0.153586
-0.254415 0.396332 -0.0389066 -0.465173 0.854483 -0.231242
-0.22809 -0.532296 0.216083 -0.869908 -0.393713 0.297068
-0.204502 -0.53394 0.274921 -0.850147 -0.352476 0.391165
0.27873 0.494514 -0.0112788 0.820524 0.554273 0.139721
-0.332828 0.203261 -0.494544 0.384135 -0.87051 0.307655
0.625376 -0.114233 0.0892149 0.855784 0.517236 0.0100557
0.397488 -0.0653834 -0.304496 -0.685227 -0.131827 0.7163
-0.139508 -0.13494 0.277642 0.714805 0.545302 0.437836
0.0930901 0.132516 0.275093 -0.759268 -0.553513 -0.342251
