ply
format ascii 1.0
comment Created by Open3D
element vertex 832
property double x
property double y
property double z
property double nx
property double ny
property double nz
end_header
-0.0266193 0.203859 -0.157709 -0.213211 0.859756 -0.464069
0.225949 -0.0536828 0.117764 0.0653031 0.562566 -0.824169
0.212953 0.335315 0.274579 0.238411 0.773717 0.58696
0.0380574 -0.222764 -0.0406685 0.514143 -0.72683 -0.455385
0.299749 0.134619 -0.35748 -0.44827 -0.68036 0.579797
-0.347328 -0.358933 -0.0200334 -0.968282 0.235345 0.0839207
0.198199 0.098253 -0.481214 0.45475 -0.0962994 -0.885398
0.501953 -0.0723524 0.186707 0.916049 -0.3881 0.101158
-0.0525361 -0.212278 -0.012556 0.0653031 0.562566 -0.824169
0.406851 0.290275 -0.0142229 0.813428 0.581582 -0.00987478
0.487212 0.0788666 0.148637 0.844579 0.335869 0.416988
0.194075 -0.0411943 0.123763 0.065303 0.562566 -0.824169
0.193286 -0.152773 0.359961 -0.456049 0.263598 0.850021
0.165328 -0.384693 0.343408 0.126516 -0.460615 0.878537
0.152831 -0.423307 0.268304 0.392879 -0.873987 0.285996
-0.226821 -0.0228624 0.204355 -0.21801 -0.315445 0.923562
0.121642 -0.396041 0.341031 0.0423153 -0.510297 0.858957
0.217465 0.275066 0.115955 -0.855215 -0.394002 -0.336703
0.305314 0.275286 0.311805 0.224836 0.721772 0.654594
0.385429 0.268204 -0.194677 0.672197 0.671123 -0.312642
0.465879 0.197719 0.0276786 0.845077 0.520363 0.122752
0.0406287 -0.0576965 0.279121 -0.343852 -0.0547425 0.937427
0.102457 0.101842 0.214138 0.065303 0.562566 -0.824169
-0.099057 -0.285195 -0.0958299 0.514143 -0.72683 -0.455385
-0.194673 0.241995 -0.0726438 -0.0441416 0.702676 -0.710139
-0.207866 -0.212472 -0.33475 0.514143 -0.72683 -0.455386
0.318577 0.115036 -0.365902 -0.448269 -0.68036 0.579798
-0.23377 -0.365151 -0.266704 0.514143 -0.72683 -0.455385
-0.123861 -0.409703 0.261672 -0.507332 -0.160995 0.846579
0.196231 0.328439 0.10324 -0.065303 -0.562566 0.824169
-0.0671091 -0.0911356 -0.369494 0.514143 -0.72683 -0.455386
0.442037 0.0938198 -0.23122 -0.697109 -0.663434 0.271836
-0.164983 0.116257 0.202787 0.065303 0.562566 -0.824169
0.0347271 -0.252498 0.306759 -0.467172 0.304933 0.82992
0.148245 -0.0693053 0.100944 0.065303 0.562566 -0.824169
-0.0838672 0.131222 -0.053571 -0.0653031 -0.562566 0.824169
0.0145495 0.145362 -0.475531 -0.334351 0.818681 -0.466874
0.184112 -0.0869847 0.0539116 -0.514143 0.72683 0.455385
0.272591 0.156188 0.115045 -0.855215 -0.394002 -0.336703
0.192691 -0.062716 -0.121533 0.514142 -0.72683 -0.455386
-0.239564 -0.353831 -0.263851 0.855215 0.394003 0.336703
-0.200335 -0.430887 0.196497 -0.526356 -0.686038 0.502296
0.0710679 0.101566 -0.0615374 -0.0653031 -0.562566 0.824169
0.0837621 0.144175 -0.0314474 -0.0653031 -0.562566 0.824169
0.502506 0.053261 0.138285 0.844579 0.335869 0.416988
-0.101544 -0.190392 -0.103556 -0.514143 0.72683 0.455385
0.202024 -0.0620934 0.0344057 -0.514143 0.72683 0.455385
-0.21549 -0.217694 -0.335023 0.514143 -0.72683 -0.455386
0.142066 -0.374859 0.351503 0.0839672 -0.485279 0.870318
-0.0240034 -0.247207 0.272665 -0.455935 0.263105 0.850235
0.415693 0.11567 0.253051 0.815111 0.24882 0.523147
0.0928088 0.133681 -0.5061 0.00147054 0.531183 -0.847256
-0.233063 -0.323736 -0.332007 0.514143 -0.726829 -0.455386
0.39873 0.300595 0.0422299 0.830559 0.55442 0.0528209
-0.116768 -0.473043 0.0926828 0.552248 0.686765 -0.472626
0.243648 0.237375 0.0935581 -0.855215 -0.394002 -0.336703
-0.260504 0.0754951 -0.236545 -0.968282 0.235344 0.0839217
-0.265216 -0.3558 -0.179963 0.855396 0.473448 0.210106
-0.215676 0.00552477 0.217305 -0.195172 -0.356817 0.913559
-0.210066 -0.230584 -0.425915 -0.161391 -0.592294 -0.789393
0.379301 -0.234879 0.303396 0.752745 -0.604119 0.261564
0.20823 0.28954 0.122475 -0.855215 -0.394002 -0.336703
0.142373 0.25282 0.342803 -0.514141 0.72683 0.455386
-0.180253 0.255063 -0.0608703 -0.0202233 0.674538 -0.737963
0.188502 0.0157871 -0.105164 -0.514143 0.72683 0.455385
0.345487 0.301457 -0.168106 0.181769 0.938596 -0.293252
-0.118107 0.270169 0.0210242 -0.514142 0.72683 0.455385
0.450333 0.0407813 0.00416256 0.514142 -0.72683 -0.455386
0.183529 -0.122478 0.346753 -0.436597 0.197647 0.877678
-0.339871 -0.264074 -0.296237 -0.836102 -0.315962 -0.448444
-0.224897 -0.044453 0.197856 -0.240551 -0.273265 0.931376
0.313703 0.151482 0.0161302 -0.855215 -0.394002 -0.336703
-0.270074 -0.443341 0.063904 -0.697284 -0.663186 0.271991
0.254544 0.119447 -0.342444 0.514143 -0.72683 -0.455385
0.301112 0.126878 0.372389 0.261303 -0.0113871 0.96519
-0.123674 -0.0321049 -0.16821 -0.0653031 -0.562566 0.824169
0.103671 0.307825 0.0818353 -0.065303 -0.562566 0.824169
-0.278164 -0.435184 0.0632328 -0.694063 -0.66486 0.276112
-0.100977 -0.137143 -0.187905 -0.514143 0.72683 0.455385
0.329854 -0.121076 0.367097 0.565814 -0.111593 0.816947
0.239593 -0.0930182 -0.0202146 0.514142 -0.72683 -0.455385
0.404861 0.196319 -0.295995 0.614759 0.682631 -0.395077
0.363989 0.165738 -0.359924 0.730437 -0.0284794 -0.682386
-0.192658 -0.346459 -0.103727 0.514143 -0.72683 -0.455385
-0.0519224 0.134696 0.224332 0.065303 0.562566 -0.824169
0.152138 0.289062 0.295984 -0.514143 0.72683 0.455385
0.277112 0.336252 -0.0523845 -0.229277 0.870205 -0.43609
-0.0557142 -0.00970538 -0.538409 0.12867 -0.286946 -0.949266
0.11454 0.126739 0.23209 0.065303 0.562566 -0.824169
-0.015071 -0.104285 -0.143359 -0.514143 0.72683 0.455385
0.107878 0.190872 0.275338 0.065303 0.562566 -0.824169
0.0314521 -0.0910006 0.0768808 0.065303 0.562566 -0.824169
0.214001 0.0112527 -0.069138 -0.514143 0.72683 0.455385
0.16923 -0.016325 -0.0756688 -0.514143 0.72683 0.455385
0.116394 0.223261 0.36065 -0.514145 0.726829 0.455383
0.224878 0.218583 0.372537 0.010625 0.272338 0.962143
0.0724559 0.191923 0.354711 -0.147346 -0.438016 0.886809
0.270399 -0.114854 0.0494184 0.514142 -0.72683 -0.455385
-0.198145 0.0311763 -0.46114 -0.522437 0.658978 -0.541117
0.0545298 0.173967 -0.384309 -0.424482 0.905242 0.0187398
0.0869034 -0.104649 -0.174041 0.514142 -0.72683 -0.455385
0.321421 0.0262041 0.0510363 -0.891915 0.403271 0.204596
0.522915 -0.0249571 0.130414 0.947176 -0.31958 0.0269384
0.0337211 -0.473238 0.228025 0.212989 -0.954064 0.210706
-0.120907 0.129003 0.243174 -0.514143 0.72683 0.455386
-0.239449 0.00302598 0.209619 -0.968282 0.235344 0.0839212
0.168263 0.0998921 -0.442456 -0.129031 -0.590437 0.796703
-0.214169 -0.354763 -0.11476 0.514143 -0.72683 -0.455386
-0.184609 -0.193296 -0.339099 0.514142 -0.72683 -0.455385
0.216918 0.0915903 -0.340464 0.514143 -0.72683 -0.455385
0.293581 0.224151 0.36454 0.139531 0.570025 0.809693
0.0133524 -0.00638479 -0.493089 0.251654 -0.379734 0.890209
-0.131899 -0.21419 -0.0998448 -0.514143 0.72683 0.455385
-0.262303 0.0554617 -0.201123 -0.968282 0.235345 0.0839206
0.282484 0.379774 0.171082 0.238945 0.863339 0.444466
-0.221889 -0.411564 0.191709 -0.604421 -0.224344 0.764425
0.142042 0.284123 -0.0865715 -0.209486 0.856998 -0.470818
0.303067 0.398784 0.0579141 0.422707 0.833598 -0.355573
0.35213 -0.0959929 0.111591 0.514142 -0.72683 -0.455385
-0.160089 -0.0997447 -0.508377 -0.0257515 -0.423615 -0.905476
0.0843217 0.27146 -0.0854506 -0.189315 0.842295 -0.504677
0.110219 -0.0412771 -0.248864 0.514142 -0.72683 -0.455386
-0.136185 -0.18934 -0.144346 -0.514143 0.72683 0.455385
0.314775 -0.248149 0.273072 -0.482163 0.194174 -0.854292
-0.328328 -0.295667 0.0217619 -0.968282 0.235343 0.0839214
0.0127315 -0.340542 0.118719 0.514143 -0.72683 -0.455385
0.0556368 -0.225709 0.308835 -0.461445 0.283139 0.840774
-0.32922 -0.295274 -0.29395 -0.844056 -0.346298 -0.409447
-0.128059 -0.483699 0.0614661 0.614846 0.682507 -0.395156
0.379999 0.293822 0.167933 0.857543 0.445907 0.256488
-0.191695 -0.439225 0.0298621 0.697109 0.663434 -0.271835
0.0250033 0.075499 0.19002 0.065303 0.562566 -0.824169
-0.175878 -0.498586 0.0658244 -0.0918732 -0.993239 -0.0709679
-0.021304 0.305096 0.0700705 -0.065303 -0.562566 0.824169
-0.121422 -0.502555 0.0821538 -0.0497115 -0.998655 -0.0147201
0.523456 0.114795 -0.0171767 0.845077 0.520363 0.122752
-0.247157 -0.170959 -0.446978 -0.695697 -0.0428578 -0.717056
0.0174416 0.071217 0.294384 -0.240551 -0.273265 0.931376
0.261486 -0.119299 0.04645 0.514143 -0.72683 -0.455385
-0.0231061 -0.033965 0.259037 -0.304731 -0.143226 0.941608
0.0917968 0.320453 0.0895139 -0.065303 -0.562566 0.824169
0.00883399 0.132904 0.315572 -0.171391 -0.397504 0.901452
-4.93967e-05 -0.144605 0.0377954 0.065303 0.562566 -0.824169
0.130239 0.261545 0.0523505 -0.065303 -0.562566 0.824169
0.0424045 0.168309 -0.383242 -0.417223 0.908797 -0.00369387
-0.202123 0.22368 -0.0903033 -0.0441416 0.702676 -0.710139
-0.131167 -0.290078 0.228598 -0.449379 0.239869 0.860536
0.310262 0.113774 -0.270484 0.514142 -0.72683 -0.455386
-0.00554139 0.0067007 -0.535335 0.185521 -0.245314 -0.951527
0.0427914 -0.242546 -0.00375074 0.514142 -0.72683 -0.455386
0.0203649 -0.44053 0.216839 0.212817 0.622437 -0.753181
0.295042 0.175608 0.0352981 -0.855215 -0.394002 -0.336703
-0.0393458 -0.087055 -0.344661 0.514142 -0.72683 -0.455385
-0.26647 0.0640928 -0.27341 -0.968282 0.235344 0.0839214
0.103596 -0.0547497 -0.234838 0.514143 -0.72683 -0.455385
0.357642 0.216615 0.294552 0.827029 0.279384 0.48782
0.0853464 -0.376742 0.353874 0.00927609 -0.525653 0.850648
0.14512 0.299104 0.271581 -0.855215 -0.394002 -0.336703
-0.1607 -0.396593 0.0123724 0.514142 -0.72683 -0.455386
0.0613108 0.127598 -0.508881 -0.0409713 0.508397 -0.860148
0.318837 -0.0178809 -0.0506703 0.514142 -0.72683 -0.455385
-0.175579 -0.493576 0.00966716 -0.12951 -0.983058 -0.129709
0.139449 0.213235 -0.336216 -0.41076 0.911446 -0.0232861
-0.0387899 -0.169402 -0.212602 0.514142 -0.72683 -0.455385
-0.0736217 -0.126266 -0.320777 0.514142 -0.72683 -0.455385
-0.0835908 -0.180327 0.00679239 0.065303 0.562566 -0.824169
0.378469 0.255065 -0.23465 0.638402 0.677765 -0.364799
0.129322 -0.407401 0.255962 0.00121025 0.53155 -0.847026
-0.284058 -0.206142 -0.28448 -0.514143 0.72683 0.455385
-0.294409 -0.355025 0.14884 -0.649569 -0.278028 0.707644
0.194382 0.296481 -0.0882493 -0.229277 0.870205 -0.43609
0.324078 0.0558541 0.00428576 -0.868881 0.438204 0.230266
-0.307226 -0.429435 -0.0527401 -0.798191 -0.600012 0.0536444
0.15921 -0.312931 0.240029 0.514142 -0.72683 -0.455386
0.298238 0.0961362 -0.0472439 -0.0653031 -0.562566 0.824169
-0.103728 -0.335582 0.260218 -0.476727 0.343284 0.809251
0.32027 -0.141777 0.370357 0.539181 -0.138975 0.830644
-0.193958 -0.165456 -0.247695 -0.514143 0.72683 0.455385
0.156315 -0.00978002 0.142214 0.065303 0.562566 -0.824169
0.186573 -0.101841 0.0804019 -0.514143 0.72683 0.455385
0.352867 -0.0449239 0.0309133 0.514142 -0.72683 -0.455385
0.195831 0.250596 -0.21929 -0.34188 0.91712 -0.204961
0.165533 -0.173146 0.351449 -0.461445 0.283139 0.840774
0.402342 0.038894 -0.0470079 0.514142 -0.72683 -0.455386
-0.19534 -0.284037 -0.206385 0.514143 -0.72683 -0.455385
0.475864 -0.0723581 0.12108 -0.812656 -0.243001 -0.529661
0.387011 0.245182 0.214641 0.851161 0.366908 0.375371
-0.151654 -0.32502 -0.0916496 0.514142 -0.72683 -0.455386
0.0542131 -0.270094 0.053113 0.514142 -0.72683 -0.455386
-0.222732 0.0312183 0.140165 0.065303 0.562566 -0.824169
-0.0776323 -0.02127 -0.157166 -0.0653031 -0.562566 0.824169
-0.266928 0.0310358 -0.185989 -0.968282 0.235345 0.0839207
-0.0734948 0.179996 -0.180384 -0.213211 0.859756 -0.464069
-0.187156 0.00806499 -0.477614 -0.48369 0.192506 -0.853807
0.18978 -0.0544174 0.00833105 -0.514143 0.72683 0.455385
0.225561 -0.234587 0.189897 0.514142 -0.72683 -0.455385
0.178778 -0.375016 0.346544 0.126516 -0.460615 0.878537
-0.0817384 -0.0364705 0.105134 0.065303 0.562566 -0.824169
-0.199437 0.0779391 -0.337722 -0.320506 0.912594 -0.253866
0.425921 -0.183072 0.277954 0.817735 -0.531977 0.219796
0.279296 0.162165 -0.434465 0.599903 -0.0479827 -0.798632
-0.0434764 0.133429 -0.352547 -0.384066 0.917675 -0.101813
-0.256311 -0.262602 -0.163039 -0.514143 0.72683 0.455385
0.09212 -0.365693 0.248494 0.514143 -0.72683 -0.455385
0.259524 0.202206 0.0943874 -0.855215 -0.394002 -0.336703
0.525057 0.00704671 0.129111 0.836079 0.305546 0.455647
0.100554 0.0533929 -0.477145 0.0415447 -0.509208 0.85964
0.0148073 0.335983 0.066044 -0.514142 0.72683 0.455385
-0.158814 -0.501114 0.12347 -0.0270626 -0.999558 0.0122919
0.269702 0.263611 -0.308989 0.0336198 0.943591 -0.329402
0.342923 -0.0454465 0.0205206 0.514143 -0.72683 -0.455386
0.0976833 -0.253106 0.0750776 0.514143 -0.72683 -0.455385
0.396787 -0.0230687 0.0456175 0.514143 -0.72683 -0.455386
-0.114816 -0.217562 -0.075174 -0.514143 0.72683 0.455385
-0.0827536 0.157527 0.240725 -0.514143 0.72683 0.455386
-0.134155 0.115148 -0.289405 -0.300207 0.906263 -0.297595
0.204302 0.259636 0.0569156 -0.065303 -0.562566 0.824169
0.0540265 -0.126221 -0.0303346 -0.514143 0.72683 0.455385
0.117366 0.255844 -0.129234 -0.240286 0.876995 -0.416105
-0.340003 -0.320256 -0.0439799 -0.968282 0.235343 0.0839214
0.163559 0.338211 0.178985 -0.855215 -0.394002 -0.336703
-0.0832854 -0.0299658 0.109451 0.065303 0.562566 -0.824169
0.0996396 -0.432481 0.308895 0.332407 -0.904652 0.266666
0.281223 0.373718 0.0101915 -0.164272 0.822375 -0.544714
-0.0207505 0.147465 -0.320863 -0.356882 0.918811 -0.168588
-0.0829564 -0.402513 0.109596 0.514143 -0.72683 -0.455385
-0.336028 -0.321272 0.00473304 -0.968282 0.235345 0.0839209
0.233365 0.147913 0.224361 -0.855215 -0.394002 -0.336703
-0.00691837 -0.136354 -0.229364 0.514142 -0.72683 -0.455385
-0.207522 0.0449239 -0.122274 -0.0653031 -0.562566 0.824169
0.0726426 -0.385563 0.258218 0.514143 -0.72683 -0.455385
-0.294295 -0.207279 -0.389212 -0.762694 -0.144543 -0.630401
-0.172803 -0.45897 0.0285466 0.671334 0.671466 -0.313758
0.439874 0.0676445 -0.0505211 0.514142 -0.72683 -0.455386
0.216995 0.0303584 -0.0962507 -0.514143 0.72683 0.455385
0.148786 -0.374467 0.351074 0.0839672 -0.485279 0.870318
-0.278571 -0.321382 -0.323795 -0.227687 -0.730102 -0.64429
-0.255796 0.0563231 -0.128465 -0.968282 0.235345 0.0839207
-0.0930525 -0.223647 -0.187287 0.514143 -0.726829 -0.455386
0.0458825 -0.340523 0.156117 0.514143 -0.72683 -0.455385
-0.328706 -0.295514 0.0169811 -0.968282 0.235343 0.0839214
0.221136 0.151213 0.370509 -0.242504 -0.269757 0.931892
-0.308151 -0.252633 0.133886 -0.968282 0.235343 0.0839214
-0.348808 -0.361143 -0.138769 -0.84814 -0.5099 -0.143734
0.525313 0.107844 -0.00540423 0.851372 0.497415 0.166566
0.387944 0.312901 -0.0415862 0.785134 0.612477 -0.091854
0.0826159 -0.317706 0.361135 -0.269562 -0.0255209 0.962645
-0.0238117 0.000112089 -0.478992 0.292216 -0.350734 0.889717
0.0477514 0.140967 0.326617 -0.17741 -0.387861 0.904483
0.0316701 -0.215842 -0.0589285 0.514142 -0.72683 -0.455386
0.132886 0.407772 0.0736182 0.0194547 0.820692 -0.571039
-0.0324602 0.298938 0.0649827 -0.065303 -0.562566 0.824169
-0.263823 0.0507273 -0.354778 -0.300207 0.906263 -0.297595
0.284499 0.344202 -0.040691 -0.220864 0.864732 -0.451062
0.233386 0.336408 -0.0329707 -0.189315 0.842295 -0.504677
0.23257 -0.0334644 0.0231995 -0.514143 0.72683 0.455385
0.216318 0.35105 0.251703 0.241306 0.792517 0.560079
0.203767 -0.25956 0.20515 0.514142 -0.72683 -0.455385
0.0216941 -0.172702 0.278222 -0.427464 0.16896 0.888103
0.299629 0.130505 -0.416945 0.627455 -0.0417122 -0.777535
-0.0731128 0.0461003 0.264193 -0.21801 -0.315445 0.923562
0.173403 0.116041 -0.429261 -0.171137 -0.607192 0.775906
-0.0333434 0.254699 0.034716 -0.065303 -0.562566 0.824169
0.263543 0.0806138 -0.270304 0.514142 -0.72683 -0.455386
-0.336966 -0.38788 -0.0304607 -0.798191 -0.600012 0.0536444
0.408999 0.0591641 0.283967 0.781477 0.177588 0.598127
0.529799 0.111172 -0.0573888 0.955062 -0.130331 -0.266215
-0.193801 -0.247318 -0.116859 -0.514143 0.72683 0.455385
-0.0978117 -0.228106 0.231217 -0.425938 0.164148 0.889737
0.358516 0.0530326 -0.119055 0.514142 -0.72683 -0.455386
0.165697 -0.350529 0.285409 -0.126638 0.460787 -0.878429
0.0256501 -0.0880458 -0.269698 0.514143 -0.72683 -0.455385
0.110585 -0.272852 0.121161 0.514142 -0.72683 -0.455386
0.111639 0.204106 -0.297821 -0.377175 0.918718 -0.117032
-0.14963 -0.242792 -0.0742118 -0.514143 0.72683 0.455385
-0.218994 -0.479303 -0.0372807 -0.162246 -0.968214 -0.190361
0.323482 0.264668 -0.295092 0.532701 0.686695 -0.494651
-0.162933 -0.04108 -0.177447 -0.0653031 -0.562566 0.824169
0.0171142 0.197607 0.289508 -0.514143 0.72683 0.455386
0.146623 -0.226984 0.088639 0.514142 -0.72683 -0.455386
-0.242737 -0.279881 0.171906 -0.412191 0.123755 0.902653
0.134772 0.354412 0.0156598 -0.0852077 0.748616 -0.657506
0.112339 0.203426 -0.410555 -0.447186 0.889319 0.0955835
0.310424 -0.0305601 -0.039932 0.514143 -0.72683 -0.455385
0.21343 -0.276454 0.243024 0.514142 -0.72683 -0.455385
-0.238973 -0.450504 0.11427 -0.643932 -0.677772 0.354932
0.0621191 -0.283491 0.337047 -0.490795 0.407104 0.770316
-0.219119 0.0505767 -0.119335 -0.0653031 -0.562566 0.824169
0.531912 0.0563508 -0.0100419 0.968447 -0.179036 -0.173366
-0.241368 -0.484077 0.0381705 -0.697284 -0.663186 0.271991
0.394013 -0.174347 0.314644 0.59365 -0.081608 0.800575
-0.151148 -0.336955 -0.0720287 0.514142 -0.72683 -0.455386
-0.0702383 0.062017 -0.0997294 -0.0653031 -0.562566 0.824169
0.00777131 0.115582 -0.0569854 -0.0653031 -0.562566 0.824169
0.350564 -0.0949625 0.354672 0.613583 -0.0603887 0.787318
0.463492 0.110283 0.171375 0.844579 0.335869 0.416988
0.052075 -0.0333411 0.117872 0.065303 0.562566 -0.824169
-0.116788 -0.414658 0.0907839 0.514142 -0.72683 -0.455386
-0.27118 -0.157579 -0.265544 -0.0653031 -0.562566 0.824169
-0.0461737 -0.145061 -0.113393 -0.514143 0.72683 0.455385
-0.278454 -0.465546 -0.0480266 -0.189758 -0.948855 -0.252322
0.319449 0.00987481 -0.0942797 0.514143 -0.72683 -0.455385
-0.237318 -0.334038 -0.173974 0.514143 -0.72683 -0.455384
0.188184 -0.0720447 -0.111732 0.514143 -0.72683 -0.455385
0.283351 0.100816 0.376893 0.263447 -0.0205327 0.964455
0.160051 0.259216 -0.150064 -0.273913 0.895099 -0.351809
-0.269729 -0.0785657 0.0890502 -0.968282 0.235344 0.083921
-0.227622 -0.453991 0.126516 -0.614849 -0.682503 0.395158
-0.204721 0.0244023 0.13694 0.065303 0.562566 -0.824169
0.166354 -0.316455 0.253719 0.514142 -0.72683 -0.455386
0.198152 0.199062 -0.443158 0.222012 0.625664 -0.747834
-0.0122656 0.195051 -0.182503 -0.240286 0.876995 -0.416105
0.239077 -0.0599458 -0.0735829 0.514142 -0.72683 -0.455386
-0.247708 -0.00801536 0.145285 -0.968282 0.235344 0.083921
0.344182 0.362775 0.158755 0.851957 0.494134 0.173207
-0.0816522 -0.00248397 -0.533076 -0.371036 0.290171 -0.882118
-0.091994 -0.0633072 -0.442006 0.514142 -0.72683 -0.455385
0.0429017 0.0868481 0.305609 -0.232924 -0.288164 0.928821
0.221451 0.224306 -0.410888 -0.0820444 0.926796 -0.366493
0.108655 -0.425052 0.244029 0.0439606 0.552568 -0.832308
-0.277254 -0.132854 -0.249149 -0.0653031 -0.562566 0.824169
-0.348807 -0.366746 -0.0151841 -0.968282 0.235343 0.0839211
0.294202 0.259843 -0.316782 0.0455812 0.941492 -0.333939
0.434583 -0.146984 0.282951 0.670118 0.00822228 0.742209
0.0701786 -0.0427142 0.112909 0.065303 0.562566 -0.824169
0.424798 0.143647 0.221479 0.836079 0.305546 0.455647
-0.145667 -0.0801174 0.212352 -0.304731 -0.143226 0.941608
0.292542 -0.178126 0.37964 0.484416 -0.192346 0.853431
-0.00852069 -0.0086335 -0.435026 0.514142 -0.72683 -0.455385
0.265593 0.0797579 0.21199 0.065303 0.562566 -0.824169
-0.00607067 -0.148185 -0.209524 0.514143 -0.72683 -0.455386
0.0396837 -0.0681259 0.278369 -0.358219 -0.0201299 0.93342
-0.0358199 -0.453315 0.181864 0.334277 0.658756 -0.674017
-0.313137 -0.42026 -0.126348 -0.835607 -0.543534 -0.0795786
-0.194007 -0.113498 -0.22934 -0.0653031 -0.562566 0.824169
-0.160453 -0.0442178 -0.504339 -0.516346 0.160284 -0.841247
0.239929 0.0808362 -0.443715 0.514142 -0.72683 -0.455385
-0.0766104 0.14296 -0.044984 -0.0653031 -0.562566 0.824169
-0.00168132 0.0498634 0.283188 -0.242504 -0.269757 0.931892
0.207076 0.0180934 0.165262 0.065303 0.562566 -0.824169
0.0747858 -0.16116 -0.0975261 0.514143 -0.72683 -0.455384
-0.12041 -0.458291 0.109864 0.552249 0.686765 -0.472625
0.127957 -0.225763 0.065617 0.514143 -0.726829 -0.455385
0.497329 0.0962922 0.108839 0.855215 0.394002 0.336703
0.0073857 -0.216212 0.280468 -0.443342 0.21967 0.869018
0.23928 -0.331535 0.352477 0.252419 -0.38081 0.889532
0.0875186 0.0810325 -0.526872 0.334116 -0.153746 -0.929908
0.0465238 0.00124741 -0.38865 0.514142 -0.72683 -0.455385
0.0189904 -0.359567 0.338196 -0.335648 -0.0612869 0.939992
0.229683 -0.0379783 0.35502 -0.399986 0.0897176 0.91212
-0.109396 0.277701 -0.0426134 -0.0441416 0.702676 -0.710139
0.15718 0.067392 0.194959 0.065303 0.562566 -0.824169
0.209391 0.241163 -0.3655 -0.0673651 0.925924 -0.371653
0.184983 -0.0250396 -0.190369 0.514143 -0.72683 -0.455385
0.173391 0.345936 0.144973 -0.855215 -0.394002 -0.336703
0.103388 0.348978 0.01355 -0.0777949 0.739894 -0.66821
0.178005 0.206961 0.372191 -0.0797989 0.00800458 0.996779
0.494407 0.140064 0.050957 0.855544 0.473239 0.209974
-0.0777675 0.137588 0.278178 -0.514143 0.72683 0.455386
-0.293038 -0.427359 0.0396227 -0.726883 -0.651077 0.218497
-0.0533216 -0.324858 0.0191106 0.514143 -0.72683 -0.455385
0.314564 0.0842097 0.0926622 -0.855215 -0.394002 -0.336703
0.220411 -0.00611006 0.349414 -0.373185 0.0173194 0.927595
0.0803596 -0.382186 0.350514 -0.000328434 -0.532796 0.846244
0.0226993 0.0618967 -0.538963 -0.16785 0.433534 -0.885367
-0.019762 -0.203299 0.264089 -0.427464 0.16896 0.888103
0.388379 0.300243 0.119759 0.851957 0.494134 0.173207
0.473535 -0.137473 0.168471 0.514143 -0.72683 -0.455385
0.102652 -0.362164 0.362021 0.0494473 -0.504373 0.862069
0.309603 0.1227 -0.285474 0.514143 -0.72683 -0.455385
0.482246 0.174067 -0.154284 0.763814 0.629518 -0.142458
0.00379166 0.0430043 -0.106841 -0.0653031 -0.562566 0.824169
0.489246 0.0144582 0.0260332 -0.857407 -0.421554 -0.295204
0.427877 0.252989 -0.0971084 0.770606 0.624546 -0.126916
0.307207 0.359862 -0.0221974 -0.209486 0.856998 -0.470818
-0.227051 -0.243584 -0.306754 0.514142 -0.72683 -0.455385
-0.229285 -0.1495 0.175328 -0.324677 -0.0990992 0.940619
0.243682 0.174654 0.166864 -0.855215 -0.394002 -0.336703
0.41935 0.270093 0.0342226 0.836569 0.542175 0.0787279
0.18008 -0.149673 0.00301978 0.514142 -0.72683 -0.455385
-0.279049 -0.304868 -0.121252 -0.514143 0.72683 0.455385
0.210278 0.0178635 0.165359 0.065303 0.562566 -0.824169
0.132933 0.199503 0.0102149 -0.065303 -0.562566 0.824169
0.365824 0.137159 -0.288821 -0.584275 -0.685488 0.434429
-0.115426 -0.0313359 0.231001 -0.267306 -0.221261 0.937865
0.1369 0.226131 0.36979 -0.0423399 0.0140132 0.999005
-0.227854 -0.290333 0.180444 -0.425938 0.164148 0.889737
-0.240485 -0.406154 -0.148573 0.836469 0.542317 0.0788154
-0.0724479 0.169287 -0.202145 -0.235862 0.874488 -0.42384
-0.203595 -0.117135 0.187975 -0.304731 -0.143226 0.941608
-0.23188 -0.421148 -0.13465 0.825974 0.56265 0.0345159
0.284212 0.396698 0.134056 0.224232 0.902471 0.367785
-0.295844 -0.206274 0.145885 -0.968282 0.235345 0.0839208
0.266028 -0.210237 0.196722 0.514143 -0.72683 -0.455385
0.494595 0.0164057 0.00716529 -0.857468 -0.448057 -0.252971
0.497737 0.162037 -0.0802388 0.813428 0.581582 -0.00987478
-0.13715 -0.345227 -0.0430227 0.514143 -0.72683 -0.455385
-0.0118548 0.143306 -0.406583 -0.417697 0.908584 -0.00218978
0.187667 0.0687219 -0.0747175 -0.0653031 -0.562566 0.824169
-0.04541 -0.101968 0.244982 -0.358219 -0.0201299 0.93342
-0.210658 -0.254471 -0.373219 0.781305 0.177832 0.59828
-0.0512716 -0.273191 -0.0610385 0.514143 -0.72683 -0.455385
-0.110339 -0.399902 0.271587 -0.50962 -0.144535 0.848173
0.289903 0.0407207 -0.0304754 -0.514143 0.72683 0.455385
0.171826 -0.263768 0.175805 0.514142 -0.72683 -0.455386
-0.01461 -0.434962 0.209227 0.29449 0.648252 -0.702172
0.0514022 -0.0634583 -0.133471 -0.514143 0.72683 0.455385
0.496998 0.0836679 -0.146758 0.928462 -0.0901919 -0.360312
-0.198187 -0.0248789 0.103819 0.065303 0.562566 -0.824169
-0.165767 -0.0851241 -0.508337 -0.549877 0.126883 -0.825552
0.277527 -0.174591 0.15281 0.514142 -0.72683 -0.455385
-0.00107814 0.0401936 0.280653 -0.256487 -0.242778 0.93556
0.300849 -0.23231 0.271266 0.514143 -0.72683 -0.455385
0.361565 0.0354066 -0.08748 0.514143 -0.72683 -0.455385
0.325173 0.121958 0.0213895 -0.86757 -0.376054 -0.325431
0.134501 0.189536 -0.461075 -0.199322 0.889913 -0.410275
0.535069 0.0722637 0.0345009 0.857583 0.447894 0.252869
0.34563 0.0473091 0.358781 0.714464 0.0691679 0.696245
-0.293544 -0.0603882 -0.236695 -0.968282 0.235345 0.0839207
0.137487 0.0281068 0.320587 -0.319334 -0.1111 0.941107
0.085371 0.168128 0.345656 -0.171391 -0.397504 0.901452
-0.132266 0.121041 0.208645 0.065303 0.562566 -0.824169
-0.303346 -0.102599 -0.231418 -0.968282 0.235345 0.0839207
0.0895877 -0.275852 0.102243 0.514143 -0.72683 -0.455385
-0.204938 -0.184068 0.182083 -0.36223 -0.0102548 0.932032
-0.112529 -0.439919 0.25482 -0.374542 -0.668032 0.643002
-0.044314 0.169013 -0.220656 -0.258 0.887159 -0.382603
-0.104909 -0.336055 0.259723 -0.476727 0.343284 0.809251
0.267957 0.369325 0.00755431 -0.157941 0.816893 -0.554744
-0.244906 0.00803471 -0.441226 -0.562972 0.114591 -0.818493
0.413382 0.00986689 0.290522 0.747903 0.119994 0.652872
-0.206369 -0.489171 0.0988242 -0.614849 -0.682503 0.395158
0.269734 0.143595 -0.440388 0.571764 -0.0554118 -0.818544
-0.00392548 -0.379543 0.162162 0.514143 -0.72683 -0.455385
0.132277 -0.392658 0.342481 0.0494473 -0.504373 0.862069
-0.00937433 0.161756 0.246174 0.065303 0.562566 -0.824169
-0.0147694 0.0460023 0.278666 -0.240551 -0.273265 0.931376
0.206098 -0.191764 0.0995751 0.514143 -0.72683 -0.455385
0.105001 0.324417 -0.0156805 -0.109583 0.773267 -0.624539
0.333249 0.0899223 -0.00726671 -0.983401 0.176402 0.04249
0.161687 -0.0872628 -0.117358 0.514143 -0.72683 -0.455385
0.430065 0.114335 0.230309 0.825493 0.274473 0.49318
0.165181 -0.264388 0.169292 0.514142 -0.72683 -0.455386
0.221178 0.242965 0.14409 -0.855215 -0.394002 -0.336703
0.216402 -0.0836645 -0.0613264 0.514143 -0.72683 -0.455385
-0.205869 -0.0732971 -0.20284 -0.0653031 -0.562566 0.824169
-0.29702 -0.401682 0.0965021 -0.684591 -0.669272 0.288809
0.348005 -0.161755 0.211895 0.514142 -0.72683 -0.455385
0.0343483 -0.254096 0.307158 -0.471242 0.320826 0.821585
-0.220933 0.0630421 -0.11097 -0.0653031 -0.562566 0.824169
0.0848123 -0.0596803 -0.248176 0.514143 -0.72683 -0.455385
0.124638 0.215558 -0.257894 -0.352252 0.918408 -0.180128
-0.326975 -0.161214 -0.339678 -0.968282 0.235345 0.083922
-0.274802 -0.221248 -0.409593 -0.762694 -0.144543 -0.630401
0.106475 0.140258 -0.032321 -0.0653031 -0.562566 0.824169
0.207185 0.353493 0.252181 0.241306 0.792517 0.560079
0.410022 0.277483 -0.0849857 0.770606 0.624546 -0.126916
-0.068786 0.118669 -0.0609441 -0.0653031 -0.562566 0.824169
0.033697 0.229949 -0.137086 -0.213211 0.859756 -0.464069
-0.0518984 -0.0976216 -0.195573 -0.514143 0.72683 0.455385
0.335475 0.134062 -0.386394 0.680521 -0.0327048 -0.731998
-0.233711 -0.144724 -0.46061 -0.669825 -0.00863524 -0.742468
0.398037 -0.0952677 0.162264 0.514143 -0.72683 -0.455385
-0.0612816 -0.0603173 0.242702 -0.319334 -0.1111 0.941107
-0.214602 0.160326 -0.163623 -0.142754 0.803612 -0.577779
-0.178525 -0.0405683 -0.492551 -0.516346 0.160284 -0.841247
0.12776 -0.0397688 -0.085072 -0.514143 0.72683 0.455385
-0.154638 -0.137852 0.202815 -0.343852 -0.0547425 0.937427
0.0304979 0.0909506 -0.0719979 -0.0653031 -0.562566 0.824169
0.271351 0.213001 0.373237 0.0514394 0.406129 0.912367
0.117158 0.264164 0.0531016 -0.065303 -0.562566 0.824169
-0.0053522 0.339646 0.0374367 -0.514142 0.72683 0.455385
-0.213796 -0.220508 -0.377852 0.762694 0.144543 0.630401
0.0951594 0.393329 0.0652342 -0.514142 0.72683 0.455385
-0.253561 -0.347286 -0.234834 0.857407 0.421554 0.295204
-0.202307 -0.269507 -0.063487 0.0653031 0.562566 -0.824169
-0.195934 -0.354195 -0.0950788 0.514142 -0.72683 -0.455386
-0.244266 -0.12471 -0.240976 -0.0653031 -0.562566 0.824169
0.523051 -0.0105523 0.0260089 0.96832 -0.235222 -0.0838338
-0.198943 -0.45872 -0.0533247 0.763799 0.62954 -0.142444
0.293121 -0.20406 0.372979 0.454083 -0.219739 0.863437
-0.0224641 -0.233059 0.269498 -0.443342 0.21967 0.869018
0.0693042 -0.0346593 -0.30562 0.514143 -0.72683 -0.455385
0.11426 -0.00718281 0.140655 0.065303 0.562566 -0.824169
-0.127605 0.189013 -0.145372 -0.164272 0.822375 -0.544714
0.31683 -0.0579078 0.0109497 0.514142 -0.72683 -0.455385
-0.0894332 0.222014 -0.10875 -0.142754 0.803612 -0.577779
0.196221 0.216025 0.239003 -0.855215 -0.394002 -0.336703
-0.310595 -0.250561 0.0998785 -0.968282 0.235345 0.0839204
0.0188318 0.187214 0.308034 -0.514143 0.72683 0.455386
0.458755 0.216845 -0.0633754 0.813428 0.581582 -0.00987478
-0.071693 0.0984002 0.19799 0.065303 0.562566 -0.824169
0.326464 -0.194348 0.356631 0.510749 -0.166991 0.843356
-0.0575009 -0.0931736 0.241055 -0.343852 -0.0547425 0.937427
0.176562 -0.142286 -0.0127431 0.514143 -0.72683 -0.455385
0.145825 0.278554 0.0651956 -0.065303 -0.562566 0.824169
0.0597179 -0.141012 -0.000301995 -0.514143 0.72683 0.455385
-0.294493 -0.0231392 -0.352108 -0.968282 0.235344 0.0839202
0.0678562 0.15723 0.337535 -0.17741 -0.387861 0.904483
-0.249784 -0.254377 -0.315193 0.514142 -0.72683 -0.455385
0.0196951 -0.464722 0.28041 0.242466 -0.943283 0.226778
-0.0498949 0.00346754 -0.138082 -0.0653031 -0.562566 0.824169
0.222327 -0.175969 0.0926879 0.514142 -0.72683 -0.455385
0.500967 -0.0750613 0.185237 0.916049 -0.3881 0.101158
0.326963 0.0353688 0.0743507 -0.990522 0.136559 0.0147294
0.166944 0.245015 0.0439758 -0.065303 -0.562566 0.824169
-0.15709 0.178814 -0.152096 -0.135594 0.797729 -0.587574
-0.234325 0.0393107 0.166974 -0.968282 0.235344 0.083921
0.179219 0.0716141 0.199588 0.065303 0.562566 -0.824169
-0.0566637 0.122668 -0.422491 -0.417223 0.908797 -0.00369387
0.0748666 -0.144331 -0.124296 0.514142 -0.72683 -0.455385
-0.333903 -0.393587 -0.0699415 -0.816754 -0.576984 -0.00122724
0.145138 -0.091924 -0.128603 0.514142 -0.72683 -0.455386
0.386988 -0.0198821 0.0294678 0.514143 -0.72683 -0.455386
-0.109299 -0.41827 0.105005 0.514143 -0.72683 -0.455385
-0.106042 -0.127136 -0.209596 -0.514143 0.72683 0.455385
-0.196558 -0.255564 -0.253205 0.514142 -0.72683 -0.455385
0.506075 -0.070251 0.149802 0.927836 -0.364872 0.0773907
-0.194841 0.03503 -0.459637 -0.522437 0.658978 -0.541117
-0.210169 -0.188794 -0.375142 0.514142 -0.72683 -0.455385
-0.150117 -0.244462 -0.218493 0.514143 -0.726829 -0.455386
0.255072 0.226206 -0.393735 0.368895 0.665005 -0.649372
0.130492 0.2554 0.325272 -0.514143 0.72683 0.455386
0.207659 -0.00329828 -0.199469 0.514143 -0.72683 -0.455385
0.00168956 -0.469805 0.183895 0.29449 0.648252 -0.702172
-0.193102 -0.369117 0.221727 -0.474437 0.333893 0.814509
0.323013 0.122565 -0.353638 -0.448269 -0.68036 0.579798
0.0680388 -0.291939 0.345533 -0.493397 0.418817 0.762333
0.147311 0.122097 0.231518 0.065303 0.562566 -0.824169
0.00038233 0.198003 -0.183626 -0.248267 0.881663 -0.401289
0.0788875 -0.0332817 -0.150604 -0.514143 0.72683 0.455385
-0.251891 -0.207278 -0.246351 -0.514143 0.72683 0.455385
-0.192689 -0.460703 -0.0326705 0.743398 0.642445 -0.186075
0.278294 0.00485559 -0.132734 0.514143 -0.72683 -0.455385
-0.00457259 -0.448139 0.201272 0.29449 0.648252 -0.702172
-0.318313 -0.412872 -0.0333667 -0.794902 -0.603213 0.0653076
-0.296187 -0.391915 -0.21794 -0.242918 -0.830741 -0.50086
-0.317095 -0.295537 -0.316693 -0.83593 -0.305756 -0.455779
0.405934 0.00103076 0.0174799 0.514142 -0.72683 -0.455385
-0.0638576 -0.170528 -0.239106 0.514142 -0.72683 -0.455385
-0.215158 -0.274974 0.183827 -0.412191 0.123755 0.902653
0.417423 -0.108245 0.204551 -0.719836 -0.0769707 -0.689863
-0.0380974 0.102386 0.203373 0.065303 0.562566 -0.824169
0.0813162 -0.318006 0.160184 0.514143 -0.72683 -0.455385
-0.345237 -0.374338 -0.00540102 -0.786623 -0.611213 0.0874232
-0.222659 -0.0820991 0.0628223 0.065303 0.562566 -0.824169
-0.264275 -0.245995 -0.198536 -0.514143 0.72683 0.455385
-0.0334217 -0.319272 0.295423 -0.485304 0.380939 0.786998
0.317558 -0.281281 0.339614 0.409687 -0.259585 0.874512
0.157285 0.157419 -0.485256 0.129073 0.590378 -0.796739
0.0567249 -0.312138 0.349663 -0.497929 0.445187 0.744228
0.0523389 0.188777 0.269508 0.065303 0.562566 -0.824169
-0.172216 -0.486557 -0.00343444 0.514142 -0.726831 -0.455385
-0.0131162 -0.184947 -0.158805 0.514143 -0.726829 -0.455386
0.429506 0.223776 0.124143 0.857583 0.447894 0.252869
-0.231141 -0.246643 -0.409071 -0.175894 -0.61609 -0.767785
-0.0472042 -0.0965042 -0.192057 -0.514143 0.72683 0.455385
0.237572 0.0553909 -0.259369 0.514143 -0.72683 -0.455385
0.0971323 0.0567931 0.182967 0.065303 0.562566 -0.824169
-0.18122 -0.232171 -0.0363309 0.065303 0.562566 -0.824169
0.499371 0.159794 -0.0777009 0.813428 0.581582 -0.00987478
-0.0266879 -0.112676 -0.289477 0.514142 -0.72683 -0.455385
0.187048 0.223356 0.0307845 -0.065303 -0.562566 0.824169
0.0491387 -0.129592 -0.0304728 -0.514143 0.72683 0.455385
0.0941257 -0.0519707 0.299738 -0.366861 0.00246082 0.930272
0.332091 0.0827383 0.0232405 -0.997531 0.0154316 -0.068506
0.232511 0.101879 -0.424589 -0.253969 -0.636135 0.728582
-0.21934 -0.47841 0.0966011 -0.643932 -0.677772 0.354932
-0.0139874 -0.292384 0.0116889 0.514142 -0.72683 -0.455386
-0.249092 -0.241695 -0.408929 -0.175892 -0.616089 -0.767786
-0.0382176 0.151801 -0.0359067 -0.0653031 -0.562566 0.824169
0.496955 -0.0519392 0.202037 0.781477 0.177588 0.598127
-0.0092244 0.00624302 0.140035 0.065303 0.562566 -0.824169
0.210827 0.160676 -0.471295 0.212796 0.622467 -0.753162
0.533823 0.0860011 -0.0260276 0.965479 -0.161912 -0.204048
-0.21139 -0.378683 -0.0734433 0.514142 -0.72683 -0.455386
0.32085 0.0189741 0.145369 -0.961365 -0.185872 -0.203047
0.0397678 0.126619 0.226083 0.065303 0.562566 -0.824169
0.215986 0.41305 0.125213 0.166782 0.979249 0.115127
-0.0432504 -0.227909 0.257688 -0.436428 0.197158 0.877872
0.258552 0.238292 0.360805 0.145726 0.56727 0.810536
0.0339601 0.126251 -0.0476277 -0.0653031 -0.562566 0.824169
-0.228964 0.101986 -0.0850235 -0.0653031 -0.562566 0.824169
-0.115045 -0.0543298 -0.182696 -0.0653031 -0.562566 0.824169
-0.0343613 -0.147303 -0.242873 0.514143 -0.72683 -0.455386
-0.133472 -0.439164 0.11106 0.514142 -0.72683 -0.455386
0.14852 0.0914023 -0.417387 0.514143 -0.72683 -0.455385
0.496427 0.030866 -0.0285237 -0.855396 -0.473447 -0.210107
-0.0356167 -0.025682 0.116152 0.065303 0.562566 -0.824169
-0.163516 0.234359 0.0105183 -0.065303 -0.562566 0.824169
0.13661 0.0373124 -0.344503 0.514142 -0.72683 -0.455386
0.0327352 0.348322 0.066591 -0.514142 0.72683 0.455385
0.0238265 0.0164313 0.282437 -0.292891 -0.166803 0.941484
-0.237398 -0.0336825 0.094703 0.065303 0.562566 -0.824169
0.415802 -0.0487832 0.108128 0.514143 -0.72683 -0.455386
-0.103567 0.101841 0.197814 0.065303 0.562566 -0.824169
0.274224 0.303939 0.290013 0.234109 0.753271 0.614635
0.352006 0.0356137 -0.0986033 0.514143 -0.72683 -0.455385
-0.0600244 -0.393201 0.120624 0.514143 -0.72683 -0.455385
-0.246107 -0.38314 -0.105526 0.514143 -0.72683 -0.455385
0.121938 0.389785 0.101126 -0.514142 0.72683 0.455385
0.348371 0.160825 -0.375403 0.705904 -0.0299906 -0.707672
-0.220763 -0.122478 -0.471425 -0.642289 0.0256084 -0.766035
0.0154407 -0.0247813 -0.382199 0.514142 -0.72683 -0.455385
0.18448 0.0300027 0.337061 -0.324677 -0.0990992 0.940619
0.36771 0.0861234 0.328553 0.762938 0.144199 0.630184
0.489787 -0.102575 0.180283 0.902888 -0.411642 0.123873
-0.0592831 0.11021 -0.477821 -0.401607 0.766659 -0.500945
0.405353 0.110206 -0.157427 0.514143 -0.72683 -0.455385
0.0750457 0.0679396 -0.462894 0.514143 -0.72683 -0.455385
0.170614 0.335193 0.243215 -0.514143 0.72683 0.455385
0.26252 0.318291 0.276848 0.236258 0.763073 0.601583
0.238072 0.000843217 -0.0253463 -0.514143 0.72683 0.455385
0.14245 0.110242 -0.509665 0.394587 -0.123081 -0.910578
0.410709 0.186184 0.217118 0.845075 0.338499 0.413843
-0.10915 0.038076 0.252946 -0.21801 -0.315445 0.923562
-0.0547345 0.243935 0.0256738 -0.065303 -0.562566 0.824169
-0.289021 -0.429069 0.0476593 -0.720685 -0.654408 0.228828
0.286993 0.131852 0.106942 -0.855215 -0.394002 -0.336703
-0.0169105 0.141331 -0.391489 -0.411066 0.91131 -0.0232029
0.166127 0.00276379 0.151554 0.065303 0.562566 -0.824169
-0.0317693 0.100508 -0.509009 -0.21183 0.405797 -0.889077
0.118821 -0.0521479 -0.221802 0.514142 -0.72683 -0.455386
-0.192699 0.192095 -0.020643 -0.0653031 -0.562566 0.824169
-0.121824 -0.170532 -0.304547 0.514143 -0.726829 -0.455386
0.283644 0.226876 0.364349 0.142943 0.568717 0.810018
0.416715 -0.190178 0.292743 0.797132 -0.556149 0.235115
0.506131 0.015127 0.158203 0.825493 0.274473 0.49318
-0.0273844 -0.0679605 -0.361633 0.514143 -0.72683 -0.455385
0.0328524 0.341372 0.0778162 -0.514142 0.72683 0.455385
0.33613 -0.0902188 0.0843111 0.514142 -0.72683 -0.455385
-0.148946 -0.265089 -0.184248 0.514143 -0.72683 -0.455385
0.468002 0.060129 -0.00676861 0.514143 -0.72683 -0.455385
0.219091 -0.184604 0.102816 0.514142 -0.72683 -0.455385
0.391394 -0.0697922 0.321083 0.671541 0.0104229 0.740894
-0.0812045 -0.159397 0.0212681 0.065303 0.562566 -0.824169
0.353426 -0.0647595 0.0632029 0.514142 -0.72683 -0.455385
0.0108472 -0.482845 0.203623 0.15523 -0.972321 0.174632
-0.313472 -0.1963 -0.36776 -0.78379 -0.187594 -0.592014
-0.204778 -0.110071 -0.483467 -0.612733 0.0591882 -0.78807
-0.198874 -0.410286 0.210189 -0.591598 -0.204141 0.77996
0.0701941 0.21789 0.317062 -0.514143 0.72683 0.455386
0.190747 -0.0767643 -0.101305 0.514142 -0.72683 -0.455386
-0.276061 0.0198621 -0.399382 -0.558696 0.573133 -0.599481
0.0230818 -0.23494 -0.0381438 0.514143 -0.72683 -0.455385
0.434521 0.0405651 0.25609 0.788776 0.19214 0.583879
-0.297893 -0.0411393 -0.34086 -0.968282 0.235344 0.0839202
-0.272734 -0.0976942 -0.425951 -0.669825 -0.00863524 -0.742468
0.113019 0.0957833 0.326365 -0.250324 -0.254839 0.934021
0.402764 0.294061 0.0454071 0.836569 0.542175 0.0787279
0.489286 0.101793 0.122844 0.855242 0.393965 0.33668
-0.35277 -0.32377 -0.181432 -0.968282 0.235345 0.0839211
-0.26563 -0.0812602 0.143902 -0.968282 0.235344 0.083921
0.254079 0.287335 0.315972 0.221811 0.714174 0.663894
0.204662 0.251301 0.0512548 -0.065303 -0.562566 0.824169
-0.0154925 -0.388087 0.162739 0.514142 -0.72683 -0.455386
-0.306271 -0.069679 -0.357493 -0.968282 0.235345 0.0839213
-0.0238893 -0.151752 -0.0775541 -0.514143 0.72683 0.455385
0.0502071 -0.00625937 -0.518905 0.514142 -0.72683 -0.455385
0.357478 0.102517 -0.199208 0.514142 -0.72683 -0.455386
0.0986919 0.283979 -0.0703422 -0.173269 0.829641 -0.53073
0.253529 0.0874521 -0.056714 -0.0653031 -0.562566 0.824169
0.182393 -0.0881079 0.0537639 -0.514143 0.72683 0.455385
0.0325381 -0.255656 0.00559794 0.514143 -0.72683 -0.455385
0.5202 0.0995113 0.0366676 0.857583 0.447894 0.252869
-0.178735 0.235432 0.0080168 -0.514142 0.72683 0.455385
0.101026 -0.213322 0.015355 0.514142 -0.72683 -0.455385
-0.218206 0.182158 -0.0476352 -0.968282 0.235345 0.0839207
-0.0821567 0.295189 -0.0270027 -0.0441416 0.702676 -0.710139
-0.0940065 -0.213685 -0.0578681 -0.514143 0.72683 0.455385
0.432117 0.117221 -0.196269 -0.72115 -0.653752 0.229239
0.226274 0.25353 0.118784 -0.855215 -0.394002 -0.336703
0.34351 0.130741 -0.378777 0.680521 -0.0327048 -0.731998
-0.232084 0.0640383 -0.111173 -0.0653031 -0.562566 0.824169
0.120725 -0.292113 0.163351 0.514142 -0.72683 -0.455386
0.0573258 0.0647025 0.185212 0.065303 0.562566 -0.824169
0.151584 -0.330262 0.25908 0.514143 -0.726829 -0.455385
-0.27793 -0.336652 0.165421 -0.439824 0.208316 0.87359
0.222235 -0.0311908 0.132823 0.0653031 0.562566 -0.824169
-0.287225 0.0167036 -0.379984 -0.968282 0.235345 0.0839213
0.140489 0.0437176 -0.496742 0.514142 -0.72683 -0.455385
0.233427 0.219272 0.372193 0.0283675 0.311524 0.949815
-0.281717 0.0373339 -0.374285 -0.968282 0.235345 0.083921
0.343493 0.144634 -0.282219 0.514143 -0.72683 -0.455385
0.501417 0.0912996 0.104297 0.855215 0.394002 0.336703
-0.0862181 0.0435821 -0.51549 -0.338265 0.31655 -0.886213
-0.121499 0.262714 -0.0566473 -0.0373702 0.695761 -0.7173
-0.256422 -0.353407 -0.293189 -0.238271 -0.772333 -0.588836
-0.0137141 0.15682 0.3198 -0.514143 0.72683 0.455386
0.305098 0.148036 -0.3376 -0.44827 -0.68036 0.579797
0.375041 0.191274 0.279567 0.827029 0.279384 0.48782
0.453942 -0.0456141 0.142446 -0.812656 -0.243002 -0.529661
-0.0392157 0.166069 -0.232206 -0.279477 0.897754 -0.340486
-0.130745 0.0904901 -0.410513 -0.387644 0.917497 -0.0890591
-0.22421 -0.249972 -0.356859 0.781305 0.177832 0.59828
-0.0122933 0.225701 -0.125579 -0.189315 0.842295 -0.504677
-0.306952 -0.0887288 -0.311921 -0.968282 0.235344 0.0839211
0.0641504 0.147847 -0.0304948 -0.0653031 -0.562566 0.824169
-0.307071 -0.0690347 -0.368525 -0.968282 0.235344 0.0839188
-0.249504 -0.257447 -0.395731 -0.189054 -0.639632 -0.74507
-0.0573179 -0.0682958 -0.519107 0.0741479 -0.330835 -0.940771
-0.13752 -0.214425 -0.0207553 0.065303 0.562566 -0.824169
0.292125 -0.320268 0.262892 -0.371055 0.290194 -0.882103
0.0856405 0.069502 0.312115 -0.262473 -0.23046 0.937014
0.192446 0.308747 0.14009 -0.855215 -0.394002 -0.336703
0.257329 0.19543 0.107892 -0.855215 -0.394002 -0.336703
-0.112083 -0.083987 -0.202705 -0.0653031 -0.562566 0.824169
0.173285 0.0867979 0.209482 0.065303 0.562566 -0.824169
-0.170367 -0.375294 -0.0325367 0.514143 -0.72683 -0.455385
-0.267548 -0.169346 -0.000287614 0.065303 0.562566 -0.824169
0.0511664 0.0281675 -0.113215 -0.0653031 -0.562566 0.824169
0.0892801 0.0502184 -0.418538 0.514142 -0.72683 -0.455386
0.305147 0.0654527 0.371351 0.214229 0.0257887 0.976443
-0.233307 -0.172217 -0.272535 -0.0653031 -0.562566 0.824169
0.27937 0.114819 0.378372 0.262241 -0.0298323 0.964541
0.239031 0.189051 0.161833 -0.855215 -0.394002 -0.336703
0.0421827 0.184011 0.339511 -0.514143 0.72683 0.455386
-0.223965 -0.0726929 0.190417 -0.262473 -0.23046 0.937014
-0.128384 0.103948 -0.334701 -0.337674 0.916483 -0.21456
-0.0120394 0.00991744 -0.13068 -0.0653031 -0.562566 0.824169
0.268938 0.184301 0.0914265 -0.855215 -0.394002 -0.336703
0.429859 0.245799 -0.118182 0.763814 0.629518 -0.142458
0.214869 0.397717 0.171872 0.235075 0.876886 0.419297
0.1656 -0.33166 0.277137 0.514142 -0.72683 -0.455386
-0.321387 -0.129497 -0.364149 -0.968282 0.235345 0.083922
-0.238281 0.0572992 -0.362877 -0.320506 0.912594 -0.253866
-0.302912 -0.207044 0.0664876 -0.968282 0.235345 0.0839207
0.11056 -0.0570843 -0.223249 0.514142 -0.72683 -0.455386
-0.107405 0.0381066 0.154005 0.065303 0.562566 -0.824169
-0.126411 0.126309 0.24126 -0.514143 0.72683 0.455386
-0.323105 -0.161969 -0.292908 -0.968282 0.235344 0.083921
-0.281153 -0.349205 0.163042 -0.625305 -0.282255 0.727548
-0.0295325 0.0187229 0.146944 0.065303 0.562566 -0.824169
-0.164843 -0.079796 0.206312 -0.284078 -0.187015 0.940386
-0.292576 -0.263409 -0.373337 -0.797972 -0.210679 -0.564673
-0.199254 0.160293 -0.167462 -0.142754 0.803612 -0.577779
0.130259 0.116769 -0.51583 0.394587 -0.123081 -0.910578
0.0131095 -0.0598994 0.26886 -0.344828 -0.0520042 0.937224
0.363086 0.0215607 -0.0636641 0.514142 -0.72683 -0.455386
-0.0519085 -0.351355 0.300543 -0.493397 0.418817 0.762333
0.46013 0.0897833 -0.177491 -0.763799 -0.62954 0.142445
0.298548 -0.136225 0.115309 0.514143 -0.72683 -0.455385
0.271134 -0.338239 0.307417 0.570156 -0.761911 0.307267
0.134067 -0.0346123 -0.0861811 -0.514143 0.72683 0.455385
0.279419 0.11001 0.151741 -0.855215 -0.394002 -0.336703
0.501702 0.0249757 -0.0372807 -0.851198 -0.49766 -0.166721
0.372464 0.205566 0.275751 0.827029 0.279384 0.48782
-0.11664 0.0229625 0.142936 0.065303 0.562566 -0.824169
0.281949 0.0682333 0.374893 -0.338512 -0.06721 0.938559
0.422536 0.107071 -0.279419 0.514142 -0.72683 -0.455385
-0.348831 -0.304689 -0.24202 -0.854335 -0.386958 -0.346952
-0.23956 -0.268738 -0.134333 -0.514143 0.72683 0.455385
-0.0408377 0.177273 -0.203808 -0.254616 0.885255 -0.389224
0.384267 0.286095 0.167096 0.857543 0.445907 0.256488
0.108932 -0.0663218 -0.0639485 -0.514143 0.72683 0.455385
0.505822 0.15033 -0.10368 0.813428 0.581582 -0.00987478
0.133838 -0.416332 0.31571 0.392878 -0.873987 0.285996
-0.0933608 0.0253784 -0.12657 -0.0653031 -0.562566 0.824169
0.418829 0.0535002 -0.0517069 0.514142 -0.72683 -0.455386
0.276085 0.0408919 -0.192745 0.514143 -0.72683 -0.455385
-0.0913152 -0.118276 0.0485354 0.065303 0.562566 -0.824169
-0.289622 -0.00837494 -0.337309 -0.968282 0.235344 0.0839202
0.336893 0.381096 0.0556068 0.401622 0.85358 -0.331816
-0.14414 -0.483783 0.0349908 0.643891 0.677829 -0.354896
0.279764 0.136218 -0.340738 0.514142 -0.72683 -0.455386
0.205269 0.113324 -0.388305 0.514142 -0.72683 -0.455385
0.0387033 0.0182253 0.152011 0.065303 0.562566 -0.824169
0.462908 -0.114974 0.254457 0.720141 0.0765403 0.689593
0.100588 -0.234759 0.0490744 0.514142 -0.72683 -0.455385
0.0549586 -0.440319 0.309818 -0.085699 -0.573492 0.814716
-0.224496 -0.230404 -0.178509 -0.514143 0.72683 0.455385
0.384985 0.135134 -0.335668 0.754057 -0.0281747 -0.656205
0.410448 0.0768811 0.276605 0.797993 0.210648 0.564655
0.122029 -0.309355 0.192343 0.514142 -0.72683 -0.455386
0.00103484 0.212523 -0.154364 -0.213211 0.859756 -0.464069
0.381972 0.0156483 -0.0329041 0.514142 -0.72683 -0.455385
-0.168163 -0.500196 0.0884721 -0.0713324 -0.996547 -0.0424955
0.15778 0.232085 -0.238646 -0.34188 0.91712 -0.204961
-0.139553 -0.20166 -0.128485 -0.514143 0.72683 0.455385
-0.146612 -0.0846251 -0.515581 -0.00207678 -0.399937 -0.91654
0.0372869 -0.123337 -0.0538369 -0.514143 0.72683 0.455385
0.348266 0.231194 0.302098 0.827029 0.279384 0.48782
0.156749 0.198728 0.369447 -0.116434 -0.140629 0.983192
0.366841 -0.0293769 0.34277 0.671541 0.0104229 0.740894
0.524901 0.0701368 0.0687406 0.857482 0.42145 0.295136
0.378637 0.230586 0.246292 0.845075 0.338499 0.413843
0.17693 0.128161 0.238004 0.065303 0.562566 -0.824169
-0.0529259 -0.151556 -0.11065 -0.514143 0.72683 0.455385
0.0216943 -0.190886 -0.110023 0.514143 -0.72683 -0.455384
0.371158 0.252462 -0.251546 0.613787 0.682277 -0.397195
-0.128988 -0.472815 0.0775324 0.584275 0.685488 -0.434429
0.308695 0.1014 -0.398897 0.514143 -0.726829 -0.455386
0.298091 -0.0305273 0.0934943 -0.614963 0.673134 0.410745
-0.236976 0.000687887 0.210865 -0.195172 -0.356817 0.913559
0.439796 0.0951538 -0.233713 -0.697109 -0.663434 0.271836
0.235827 0.0499045 -0.252582 0.514143 -0.72683 -0.455385
-0.351561 -0.330257 -0.162597 -0.514143 0.72683 0.455385
0.118281 0.203403 -0.347668 -0.41076 0.911446 -0.0232861
0.252278 0.221082 -0.400508 0.332136 0.657301 -0.676492
-0.150203 0.0826213 -0.0920012 -0.0653031 -0.562566 0.824169
0.51181 0.0843745 -0.106035 0.94764 -0.115951 -0.297546
-0.175798 0.00938453 0.128981 0.065303 0.562566 -0.824169
0.411137 -0.0215871 0.0594541 0.514142 -0.72683 -0.455385
0.133343 -0.244002 0.100809 0.514143 -0.726829 -0.455385
0.204502 0.178524 -0.458384 0.20398 0.615109 -0.761599
-0.0855969 0.147319 0.23028 0.065303 0.562566 -0.824169
0.512215 0.140361 -0.0621733 0.825998 0.562616 0.0344941
0.169379 -0.168305 0.351949 -0.455935 0.263105 0.850235
-0.0194192 0.116562 -0.0584708 -0.0653031 -0.562566 0.824169
-0.0941649 -0.271931 0.242857 -0.449819 0.241579 0.859827
0.0819092 -0.395851 0.341865 -0.0119044 -0.536533 0.843795
-0.240698 -0.331562 -0.325643 -0.227687 -0.730102 -0.644291
0.407259 -0.146854 0.306201 0.642313 -0.0256425 0.766014
0.479879 0.151521 -0.196368 0.889241 -0.0595191 -0.453551
-0.00796936 -0.125869 -0.100891 -0.514143 0.72683 0.455385
0.201324 0.088567 -0.353245 0.514142 -0.72683 -0.455385
0.24169 0.12976 -0.373417 0.514143 -0.72683 -0.455385
0.167159 -0.0578072 0.110291 0.065303 0.562566 -0.824169
0.426945 0.259537 -0.0619436 0.798883 0.599035 -0.0542559
-0.275053 -0.213533 -0.411059 -0.762694 -0.144543 -0.630401
0.315914 0.203608 -0.378974 0.448276 0.680349 -0.579805
0.0231154 -0.323713 0.103584 0.514143 -0.72683 -0.455385
0.276142 -0.0401773 0.0831079 -0.514143 0.72683 0.455385
0.204502 -0.179638 0.0784183 0.514142 -0.72683 -0.455385
-0.162435 0.0463493 0.155271 0.065303 0.562566 -0.824169
-0.211673 -0.0102139 0.112761 0.065303 0.562566 -0.824169
-0.265468 -0.27976 0.161509 -0.412191 0.123755 0.902653
-0.0202456 0.300565 -0.0260459 -0.0690954 0.730541 -0.679364
0.361436 0.348065 0.109154 0.842434 0.527675 0.108921
0.185247 0.367482 0.0235469 -0.0977513 0.760631 -0.641783
0.336728 0.00389317 -0.0652239 0.514142 -0.72683 -0.455386
0.23698 0.0783725 0.208777 0.065303 0.562566 -0.824169
