ply
format ascii 1.0
comment Created by Open3D
element vertex 512
property double x
property double y
property double z
property double nx
property double ny
property double nz
end_header
-0.273739 -0.0896462 -0.198052 0.418114 0.34841 0.838922
0.126613 0.122363 -0.369963 0.800247 -0.369924 -0.471975
-0.106151 0.26514 -0.205063 0.187828 -0.671382 0.716915
-0.0187973 0.385366 0.0658283 -0.435935 -0.899627 0.0251369
0.19964 0.339833 -0.293016 0.741251 0.0253377 -0.67075
0.373429 0.258794 0.206991 0.93155 0.343836 0.118289
-0.0868931 -0.237276 -0.24544 0.572676 0.571415 0.587815
-0.127089 -0.0539618 -0.306509 0.582383 0.142678 0.800295
-0.314235 -0.350675 -0.180848 -0.562598 -0.595495 -0.573471
-0.014162 -0.0855562 0.473775 -0.443975 0.11633 0.888456
-0.29604 -0.0381837 -0.40901 -0.285583 -0.216917 -0.933483
-0.0633292 0.132202 -0.487057 -0.241313 0.299597 -0.923044
-0.189344 -0.307223 -0.360085 0.26877 -0.607371 -0.747571
-0.0180718 0.165257 -0.479291 0.446667 -0.00362524 -0.894693
0.0542794 0.333532 0.113812 -0.658587 -0.75012 -0.0598598
-0.0976008 -0.448008 -0.128708 0.289378 -0.828004 -0.480282
-0.0235319 -0.35682 -0.123296 0.660551 0.728594 0.181174
0.142261 0.0835392 0.289741 -0.440317 -0.0663963 -0.895384
0.366534 0.0289861 0.276698 0.938598 -0.12841 0.320224
-0.050421 0.426985 -0.275994 0.079907 0.747807 -0.65909
-0.318597 0.0712249 -0.218435 0.330488 0.0588072 0.941976
0.358837 0.199375 0.0256144 0.765457 -0.274046 -0.582215
-0.204045 -0.25542 -0.388125 -0.658059 -0.508145 -0.55565
0.160333 -0.337223 0.15699 0.805627 -0.37469 -0.458882
0.0810864 -0.0922678 0.313815 -0.124368 0.305144 -0.94415
0.0833835 0.300353 -0.408125 0.626151 0.190495 -0.756073
0.00331091 -0.448821 0.24068 -0.112924 -0.849381 0.515558
-0.315556 -0.397444 -0.00949032 -0.368889 -0.902968 -0.220387
-0.138767 0.119649 -0.465789 -0.310336 0.264543 -0.913076
-0.0540326 -0.0622338 -0.468514 0.130963 -0.241324 -0.961567
0.0439778 -0.0942 0.491479 -0.247702 -0.298315 0.921766
0.063605 -0.356999 0.347861 0.10031 -0.747697 0.65642
0.309553 0.370682 0.123271 0.543748 0.724711 0.42324
0.205901 -0.304201 0.250571 0.717064 -0.66671 0.203264
-0.140845 -0.233645 0.216666 0.197202 0.83837 -0.50818
0.389774 0.194527 0.168735 0.99454 0.0896081 -0.0534878
0.115643 -0.319901 0.375073 0.350182 -0.601544 0.717995
0.0863008 0.0271917 -0.381293 0.860366 -0.431906 -0.270607
-0.342507 -0.318725 0.0388746 -0.589497 -0.701653 0.40022
0.109229 0.494793 -0.0349182 0.493944 0.852136 -0.17287
0.376536 0.170383 0.0761627 0.820967 -0.398077 -0.409325
0.126713 0.254371 -0.19778 -0.21823 -0.662236 0.716811
0.10766 -0.384383 0.0853718 0.821181 -0.403639 -0.403408
0.357369 -0.0368803 0.28674 0.867142 -0.311827 0.388367
0.217745 0.285324 0.353628 0.526664 0.507741 0.68178
0.0977656 0.247674 0.243428 -0.733358 -0.450371 -0.509267
0.348449 0.130698 0.351458 0.355696 0.414648 0.837584
-0.232253 -0.364923 0.237917 -0.782197 -0.287331 0.55282
0.0938012 -0.0472395 0.280464 -0.10746 0.11396 -0.987657
-0.00960167 -0.453431 -0.0552362 0.237636 -0.955996 -0.172045
0.253849 0.250647 -0.0341829 -0.506992 -0.860164 -0.0554732
-0.360071 -0.34001 -0.124536 -0.979008 -0.200957 -0.0340566
0.3376 -0.0306401 0.213427 0.831429 -0.308213 -0.46231
0.132486 -0.0754451 0.289338 -0.396546 0.212862 -0.892996
0.164089 0.25005 0.16243 -0.59958 -0.668311 -0.4403
0.213019 -0.134729 0.431313 0.454389 -0.28626 0.843555
-0.105307 -0.463777 0.162555 -0.354078 -0.86632 0.352304
-0.0293063 -0.264191 -0.318844 0.837472 -0.422175 -0.347
-0.242869 -0.225839 0.265208 -0.609202 0.759789 0.22714
-0.297927 -0.325704 0.15697 -0.846082 -0.326541 0.421327
0.174342 -0.294248 0.374552 0.510981 -0.718433 0.471968
-0.070795 -0.251226 0.421376 -0.487822 -0.256846 0.834302
-0.120127 -0.312279 -0.0635761 0.368022 0.926132 0.082705
-0.170561 0.348394 -0.198192 -0.78654 0.374823 0.490778
-0.349443 -0.371754 -0.0527736 -0.994897 0.054319 -0.085023
-0.179123 0.282305 -0.189575 0.208671 -0.601853 0.770863
0.195238 0.201378 0.415896 0.434981 0.363782 0.823683
0.0314951 0.32215 -0.382668 -0.204104 0.784928 -0.585004
-0.156241 0.0555533 -0.476026 -0.557112 0.195022 -0.807213
-0.0560435 -0.0849185 0.351342 -0.163643 0.432527 -0.886646
-0.034766 0.23837 -0.231971 0.172019 -0.807061 0.564855
-0.0693927 -0.0139304 0.388715 -0.759517 0.638726 0.123133
-0.224537 -0.423768 -0.162195 -0.537355 -0.790319 -0.294356
-0.108655 -0.0821286 0.369993 -0.80972 0.0105612 0.586722
-0.124645 -0.313792 -0.329614 0.173008 -0.816818 -0.550342
0.0527977 -0.399943 -0.02234 0.789357 -0.515966 -0.332709
0.0549973 0.374002 -0.326775 0.207861 0.686591 -0.696697
0.173124 0.457027 -0.103278 0.457422 0.845901 -0.274256
0.032345 0.352953 0.204224 -0.8225 0.403593 0.400758
0.254996 0.427028 -0.100448 0.107431 0.985238 -0.133288
0.129397 0.138213 0.293278 -0.436778 -0.363422 -0.822891
0.165029 0.309189 -0.340221 0.66325 0.256789 -0.702965
-0.0117194 0.437369 0.0540036 -0.853436 0.158798 0.496417
0.162804 -0.145597 0.445942 0.317044 -0.306962 0.897361
0.0359716 0.0627368 0.361763 -0.389725 -0.0547716 -0.919301
0.032645 -0.36006 0.0522725 -0.241629 0.926722 -0.287753
0.352964 0.0770476 0.13745 -0.783269 -0.50551 -0.361868
0.146024 0.273994 0.0491359 -0.830428 0.35414 0.430087
0.326919 0.288916 -0.111564 0.80291 0.478167 -0.355938
0.290503 0.0815831 0.40363 0.530271 0.170983 0.830408
0.275405 -0.203812 0.301835 0.706708 -0.465529 0.532773
0.108749 0.232604 -0.240532 -0.185721 -0.709506 0.679786
-0.099008 -0.277746 -0.183948 0.31114 0.89346 0.323915
-0.133162 0.191479 -0.440164 -0.313155 0.437607 -0.842872
0.239407 0.146905 0.41947 0.507021 0.306364 0.805649
-0.141881 -0.305683 0.354662 -0.595001 -0.270306 0.756907
0.137295 -0.210335 0.430265 0.283451 -0.519062 0.806368
0.084924 0.449236 0.100597 -0.29886 0.875154 0.380511
-0.357082 -0.273569 0.055567 -0.897821 -0.371012 0.237209
0.000608218 0.469946 -0.0940925 -0.3111 0.945372 -0.0974074
-0.130029 -0.282986 0.144067 0.328416 0.830583 -0.44975
-0.311687 -0.378387 0.056373 -0.821727 -0.469959 0.32234
0.169327 0.161324 0.174071 -0.544973 -0.568394 -0.616387
-0.288341 -0.324085 -0.241065 -0.591458 -0.657857 -0.466263
0.0728777 -0.438832 0.130306 0.445593 -0.891732 0.0791228
0.0497963 -0.00692235 0.348228 -0.458869 0.177911 -0.870509
-0.300547 -0.222006 0.0926255 0.335688 0.920163 0.201529
-0.139287 -0.07617 -0.24553 0.648216 0.156511 0.745198
-0.208158 -0.232332 0.20139 0.26575 0.834073 -0.483424
-0.146066 -0.010257 -0.48393 -0.453968 0.144335 -0.87925
0.152519 -0.36072 0.254447 0.494364 -0.824501 0.275321
-0.12321 -0.109434 -0.463176 0.176454 -0.29141 -0.940183
-0.274542 -0.389692 0.155487 -0.668349 -0.423916 0.611232
0.176297 0.263477 -0.126179 -0.391337 -0.873837 0.288554
-0.278061 0.115264 -0.405811 -0.809425 0.400487 -0.429467
0.319779 0.183929 0.0731411 -0.319878 -0.877169 -0.358124
0.136848 0.200198 -0.391204 0.568683 0.110698 -0.815074
-0.271658 -0.381593 -0.167321 -0.579209 -0.661745 -0.476036
0.393096 0.112337 0.192011 0.761634 -0.591514 -0.264622
0.0321512 -0.0234787 0.477777 -0.327135 0.160802 0.931196
-0.0441302 -0.478385 0.00387908 0.381811 -0.890066 -0.249004
-0.180917 -0.0813727 -0.4683 -0.467976 -0.0216503 -0.883476
-0.213897 0.0989301 -0.451612 -0.274807 0.13695 -0.951696
-0.0794403 0.0810918 -0.494516 -0.359468 0.220328 -0.906774
0.229247 -0.204764 0.410072 0.592731 -0.634649 0.495874
0.130533 0.298673 0.113962 -0.529619 -0.795491 -0.294445
-0.0477431 -0.363043 -0.233743 0.822077 -0.350685 -0.448564
0.171153 -0.0189867 0.294065 -0.498867 0.269813 -0.823609
0.121846 -0.403951 0.143435 0.820675 -0.410541 -0.397428
-0.166967 -0.403274 0.254915 -0.178921 -0.906228 0.383064
0.164278 -0.332212 0.324307 0.627241 -0.707165 0.326322
-0.189805 -0.468692 0.00671041 -0.740465 -0.66113 0.120908
-0.0221396 -0.358542 0.0138763 0.127871 0.955659 -0.265263
-0.301211 0.182502 -0.296221 -0.870965 0.338319 -0.356315
-0.174828 -0.396127 -0.242627 0.19117 -0.778271 -0.59812
-0.142637 -0.260336 -0.381258 0.195581 -0.753348 -0.627865
0.355955 0.0200315 0.330282 0.880408 -0.234991 0.4119
-0.231198 0.255441 -0.217941 -0.712547 0.256378 0.653106
-0.0536863 -0.490162 0.143951 -0.334554 -0.860478 0.384254
-0.186788 0.120771 -0.270867 0.357434 -0.24491 0.901255
-0.0719303 -0.186183 0.428461 -0.519287 -0.0440437 0.853464
-0.386146 -0.137684 -0.143919 -0.548681 0.200677 0.811589
-0.0197716 0.170663 -0.230772 0.434814 -0.604115 0.667818
0.273381 0.384838 0.184913 0.610322 0.732225 0.302248
-0.0384435 0.0517783 -0.337513 0.400679 -0.325191 0.856567
-0.0921722 -0.472606 -0.0700091 0.233691 -0.941779 -0.241745
-0.141616 -0.197012 0.278112 -0.00490811 0.95456 -0.297977
-0.251575 -0.113131 -0.411568 -0.379775 -0.271502 -0.88434
0.304938 0.400006 -0.0769198 0.942012 0.111875 -0.31638
0.103287 -0.372988 0.318661 0.628381 -0.763999 0.146432
-0.0129214 0.0249522 0.457198 -0.380747 0.258565 0.887793
-0.168793 -0.472459 -0.0712852 -0.548285 -0.830063 -0.101877
-0.328668 -0.178106 -0.0498281 0.588798 0.63592 0.498922
-0.142166 -0.152486 0.369119 -0.796306 0.475368 0.374062
-0.0535238 -0.455348 0.232326 -0.380935 -0.740591 0.553546
-0.247554 0.0841229 -0.24627 0.133316 0.287348 0.948503
-0.273476 -0.420182 0.0532628 -0.526035 -0.83035 0.183863
-0.337382 0.0245568 -0.331217 -0.854349 0.185148 -0.485601
-0.0806916 -0.0149845 -0.487384 0.395197 -0.293789 -0.870349
0.0870465 -0.000532095 0.490455 -0.367262 0.390782 0.844043
0.000458518 -0.164407 0.302778 -0.0956704 0.491681 -0.865504
0.34558 0.0720334 0.359849 0.935997 -0.153604 0.316726
-0.129267 0.311556 -0.169069 -0.133333 -0.673298 0.72725
0.0300647 0.246151 -0.161066 0.057641 -0.815966 0.575219
0.0496993 0.192971 -0.275344 -0.0725908 -0.656593 0.750744
-0.389876 -0.218055 -0.0627179 -0.936321 -0.32521 0.132446
-0.0274207 0.115777 -0.323545 0.324379 -0.461942 0.825462
0.200835 0.44386 -0.0343648 0.618845 0.743896 -0.252289
-0.0375021 -0.230483 0.199285 -0.804549 0.161404 0.571532
0.123832 0.453078 -0.156746 0.191433 0.959709 -0.2057
-0.254137 -0.233469 -0.361911 -0.737562 -0.488566 -0.46616
-0.246255 -0.246775 -0.0187446 0.660248 0.740095 0.127794
-0.274957 -0.225108 0.145539 0.175133 0.975452 -0.133495
0.0930785 0.440368 -0.215639 0.275183 0.823033 -0.496882
-0.0274493 0.280662 -0.181322 -0.0709428 -0.761359 0.644438
-0.0701224 -0.133096 0.316293 -0.355541 0.635579 -0.685296
0.357812 0.306395 0.0188927 0.954464 0.298283 -0.00517154
-0.0131167 0.38364 -0.316844 -0.0193623 0.761142 -0.648297
0.173962 0.24149 -0.350282 0.620978 0.269143 -0.736171
-0.148813 0.24803 -0.412074 -0.0678809 0.390056 -0.918286
0.0205927 0.0532148 -0.354077 0.411577 -0.291359 0.863547
-0.185614 -0.363944 -0.298874 0.269872 -0.611554 -0.743755
-0.129117 -0.29163 -0.13145 0.576304 0.777767 0.250902
0.0900053 0.279552 -0.0720474 -0.465347 -0.851547 0.241494
-0.105892 -0.25685 0.0768372 -0.809838 0.539454 0.230547
0.384651 0.0569363 0.207953 0.752444 -0.328874 -0.570674
-0.343186 -0.196288 -0.318406 -0.526597 -0.635543 -0.564607
0.30289 -0.149717 0.267796 0.809572 -0.571465 -0.134242
-0.0637729 -0.251924 0.128672 0.242258 0.874712 -0.419751
0.0283829 -0.162733 0.475945 0.407602 -0.646929 0.644471
0.376663 0.0888685 0.273601 0.968518 0.213883 0.127382
-0.369579 0.0310889 -0.25639 -0.790512 0.292307 0.538189
-0.159848 -0.248667 -0.144533 0.683765 0.587298 0.433065
-0.113658 -0.132058 0.422479 -0.064371 -0.404373 0.912326
0.0573787 -0.425903 0.0577554 0.823019 -0.418498 -0.384055
-0.166714 0.334587 -0.289324 -0.61506 0.726216 -0.307101
-0.0860682 -0.315248 -0.115529 0.73822 0.673399 0.0395567
-0.185735 -0.0722899 -0.270303 0.767194 0.172457 0.617796
-0.0477254 0.223266 -0.453974 -0.245435 0.524233 -0.81544
-0.193065 -0.433344 0.176854 -0.454605 -0.801351 0.388807
0.130734 0.279367 -0.373985 0.551805 0.275738 -0.787071
-0.129404 -0.348784 -0.299486 0.212106 -0.865701 -0.453402
0.318885 -0.0887437 0.326809 0.778843 -0.29619 0.552879
-0.375479 -0.160155 -0.0908814 -0.704325 0.702377 0.102922
0.0779702 0.047627 0.325622 -0.308073 -0.0217331 -0.951114
-0.0454784 -0.127316 -0.446323 0.232224 -0.522883 -0.820162
0.119527 0.205169 0.418728 -0.0983387 0.471427 0.876405
-0.290868 -0.28919 0.195579 -0.856271 -0.245616 0.454393
0.0560264 -0.131212 0.253126 -0.112109 0.442317 -0.889824
0.241338 0.20564 0.13704 -0.457909 -0.73271 -0.503443
-0.362139 -0.0989382 -0.340552 -0.991731 -0.127606 0.0136812
-0.229318 0.275361 -0.294101 -0.417125 0.575689 -0.70327
0.193 -0.293281 0.181861 -0.174451 0.68205 -0.710194
-0.0748805 -0.0692832 0.442599 -0.798558 0.482042 0.360472
-0.12174 -0.00365413 -0.268869 0.223026 0.148437 0.963445
-0.0193565 -0.387331 0.311485 0.0159114 -0.801574 0.597684
0.0148291 0.216261 -0.219258 0.845244 -0.479383 -0.236124
0.121189 -0.400727 0.214712 0.613388 -0.774175 -0.156227
0.0377553 0.457777 -0.201236 0.170398 0.91292 -0.370867
0.126881 0.197768 0.242021 -0.666561 -0.428243 -0.610168
-0.168912 -0.224328 -0.0947266 -0.845114 0.49217 0.20869
0.124201 0.339785 0.307101 -0.287195 0.601525 0.745444
0.25218 0.213456 0.384556 0.441775 0.415013 0.795361
-0.367107 -0.137652 -0.299833 -0.957449 0.105041 -0.26881
0.1309 0.0657778 0.487836 -0.251096 0.443125 0.860576
0.282667 0.223681 0.0111477 -0.496793 -0.838235 -0.224854
-0.313552 -0.263315 0.130205 -0.825165 0.206269 0.525886
-0.0305892 -0.29646 -0.251916 0.741898 0.600378 0.298553
-0.0223448 -0.315675 0.11945 0.233554 0.842144 -0.486052
-0.34619 -0.314566 -0.191184 -0.685918 -0.635696 -0.354128
-0.0413944 -0.170324 -0.412854 0.485976 -0.622899 -0.613045
0.225412 0.448174 0.0613507 0.465656 0.872756 0.146495
0.20571 -0.0589151 0.450869 0.38863 -0.0827717 0.917669
0.310117 0.346452 -0.110304 0.981452 -0.138709 -0.13233
-0.288193 0.0203198 -0.226383 0.348239 0.102702 0.931763
0.0153295 0.195515 0.357366 -0.802987 0.500791 0.32314
0.185595 -0.339719 0.207939 0.77319 -0.624506 -0.110313
0.273359 -0.0498949 0.422703 0.0132883 0.285257 0.958359
-0.0762526 -0.31025 0.0989645 0.116813 0.951423 -0.284868
-0.164472 -0.359337 0.315231 -0.767671 -0.0148422 0.640672
-0.363077 -0.285697 -0.0840238 -0.978914 -0.199737 0.0428169
-0.171494 -0.43321 -0.199107 0.222876 -0.937353 -0.267761
0.267043 0.346406 -0.192891 0.679588 0.457129 -0.573754
-0.185061 -0.139612 -0.449824 -0.691252 -0.35436 -0.629761
-0.0934692 0.290404 -0.396253 0.0672546 0.463292 -0.88365
0.0464023 0.0393287 -0.446031 0.296677 -0.00998382 -0.954926
-0.0665414 -0.0735418 -0.33844 0.448233 0.152496 0.880813
-0.0957112 -0.379313 -0.244285 0.283124 -0.881013 -0.379021
0.122101 0.440299 0.165483 -0.286564 0.746973 0.599927
0.0412312 0.134694 0.337916 -0.85374 0.1518 -0.498081
-0.0026166 -0.285235 0.180457 0.2666 0.52063 -0.811091
-0.368947 -0.246409 -0.245069 -0.66646 -0.453559 -0.591705
0.276563 0.335238 0.251203 0.615904 0.702343 0.356899
-0.141345 -0.231805 -0.204974 0.570528 0.631772 0.524749
0.0715709 0.207425 0.408628 -0.232169 0.521055 0.82134
-0.0197593 0.355074 -0.0487928 -0.351846 -0.864215 0.359635
-0.350488 0.00268784 -0.203041 -0.808149 0.354208 0.470566
-0.0744 -0.184371 -0.299625 0.512964 0.547108 0.661468
0.0488535 0.278294 0.351073 -0.756558 0.63694 0.148079
0.300232 0.21907 0.32747 0.73821 0.595952 0.31605
-0.119405 0.0788477 -0.303626 0.265718 -0.238468 0.934092
0.102336 0.135437 -0.430704 0.614708 -0.168306 -0.770589
-0.240858 0.169047 -0.238328 0.135065 -0.169507 0.97623
-0.00240621 -0.353935 0.355097 -0.209671 -0.66223 0.719368
-0.151187 -0.150989 -0.26439 0.64323 0.406232 0.649023
-0.126042 0.360954 -0.315007 -0.498201 0.798243 -0.338532
0.0159984 -0.0208008 -0.459668 0.309418 -0.160727 -0.937244
0.352563 0.268049 -0.054249 0.84143 -0.420509 -0.339364
0.104513 0.24974 0.38425 -0.145895 0.504173 0.85119
-0.0927016 -0.493941 0.0435129 0.42893 -0.851643 -0.301204
0.263611 -0.126168 0.236355 -0.262667 0.17632 -0.94864
-0.268334 0.235576 -0.283997 -0.832554 0.550013 -0.0658812
-0.26131 0.184644 -0.351686 -0.676688 0.458597 -0.576006
0.0658002 0.31133 0.173646 -0.557807 -0.748692 -0.358205
0.216333 0.0144857 0.262483 -0.283959 -0.218074 -0.933708
-0.0697398 -0.00116903 -0.341022 0.232174 -0.189719 0.953993
-0.170798 0.173508 -0.256079 0.0910633 -0.14468 0.985279
-0.106754 -0.280389 0.00589632 0.838751 -0.312196 -0.446128
0.361158 0.235652 0.267241 0.621407 0.523358 0.583052
-0.0424889 -0.137162 0.453595 -0.43402 -0.0106024 0.900841
-0.299272 -0.272328 -0.28958 -0.443243 -0.642278 -0.625312
0.0386621 0.349252 0.0604986 -0.405889 -0.896268 -0.178766
-0.243653 -0.319464 -0.299512 -0.297401 -0.899278 -0.320706
-0.333959 -0.0480204 -0.379361 -0.983254 0.065767 -0.169961
0.284193 0.412927 0.0467685 0.445299 0.886391 0.126573
0.0109389 -0.464792 0.144402 0.31798 -0.91972 0.230226
-0.0884447 0.420274 -0.209282 -0.42485 0.858236 -0.28798
0.276936 0.0239043 0.230779 -0.460016 -0.292528 -0.838339
-0.0820508 -0.325835 0.0347143 -0.0229071 0.997754 -0.0629429
0.0859099 0.329492 -0.0389243 -0.324204 -0.935338 0.141542
0.0873687 0.332195 0.0659 -0.191667 -0.930037 -0.313521
-0.278604 -0.181022 -0.111988 0.585957 0.647193 0.487643
0.0609565 0.32043 0.315906 -0.194375 0.719692 0.66653
0.287045 -0.124744 0.397011 0.88815 -0.335497 0.314055
0.0616588 -0.417595 0.275674 0.525172 -0.831736 0.180028
0.0833513 0.158788 0.310972 -0.550528 -0.415985 -0.723793
0.164198 0.221754 0.0811928 -0.414117 -0.856567 -0.307894
0.171707 0.121723 0.458083 0.240985 0.357007 0.902481
-0.206679 -0.224159 -0.128472 0.540224 0.790254 0.289235
0.364197 0.183534 0.300395 0.558938 0.276366 0.781799
0.00441745 -0.216873 0.447151 0.377093 -0.684357 0.624065
-0.104188 0.420416 -0.130545 -0.85831 0.121283 0.498592
-0.0941474 0.163608 -0.276282 0.274693 -0.453147 0.848057
0.31859 0.140424 0.11543 -0.622634 -0.615257 -0.483514
0.161858 0.475189 -0.0408274 0.521576 0.835458 -0.173116
0.100166 -0.343294 0.125664 -0.00174798 0.878928 -0.476952
0.0565492 0.261409 -0.429813 0.62021 -0.0125133 -0.784336
0.224468 0.0916869 0.433841 0.660894 0.241909 0.710421
-0.174139 -0.29029 0.00414649 0.522543 0.850405 0.0613194
-0.302733 0.143087 -0.255486 -0.822156 0.409178 0.395769
0.148627 0.289212 -0.062446 -0.402663 -0.899754 0.168242
-0.0626226 0.102651 -0.265775 0.371923 -0.436314 0.819331
0.202904 -0.0956299 0.259562 -0.351998 0.174049 -0.919676
0.280339 0.0903861 0.201246 -0.335596 -0.390405 -0.857297
-0.039064 -0.485439 0.0802315 0.384618 -0.909763 -0.156206
-0.368632 -0.016889 -0.293287 -0.978388 0.0611814 -0.197521
0.0576281 0.259414 -0.21737 -0.0891966 -0.823707 0.559957
0.0273376 0.336675 -0.0841996 -0.601977 -0.720639 0.343951
-0.122033 0.382166 -0.250135 -0.467278 0.807562 -0.359854
-0.110544 0.373823 -0.0815118 -0.764945 0.539243 0.352244
0.235174 0.427901 0.134997 0.475667 0.813614 0.334325
0.245924 0.245315 -0.108708 -0.318034 -0.93887 0.131824
0.00932385 -0.444625 0.00768462 0.250121 -0.967933 0.0233561
0.044615 0.481155 -0.0497035 -0.327309 0.942044 0.0736291
-0.0898839 -0.222975 -0.406423 0.189894 -0.571862 -0.798069
0.0243813 -0.0893571 0.333739 -0.375178 0.326017 -0.867729
-0.0190175 -0.209101 -0.321697 0.585546 0.12331 0.801206
-0.103924 -0.423675 -0.188809 0.269735 -0.686368 -0.675382
0.151988 0.0203253 0.257115 0.862156 -0.459858 -0.212646
0.00793258 -0.186214 0.239195 -0.0424667 0.539848 -0.840691
0.378802 0.280319 0.0724994 0.869879 0.462583 -0.171255
0.204213 0.0198305 0.449904 0.359188 0.00221707 0.933263
0.199886 0.392905 0.234278 0.600057 0.727712 0.332215
0.114615 -0.265341 0.415226 0.092274 -0.514414 0.852563
0.232354 0.40297 -0.203545 0.724926 0.470634 -0.502977
0.175109 0.423673 -0.207179 0.353093 0.830512 -0.430784
-0.119821 -0.431446 0.227333 -0.216832 -0.886802 0.408125
0.386032 0.228579 0.0607525 0.939558 0.312699 -0.13946
-0.0692871 -0.313311 -0.311486 0.15832 -0.813891 -0.559032
-0.240698 -0.166359 -0.170473 0.640659 0.627629 0.44231
0.343903 0.37578 0.0409666 0.898266 0.400944 -0.179893
-0.204544 -0.210807 0.306634 -0.819962 0.546679 0.169719
-0.153128 -0.475227 0.068533 -0.473365 -0.833443 0.285129
0.267432 0.290858 0.318292 0.585369 0.541991 0.602984
0.335008 0.0349081 0.172876 -0.649906 -0.357295 -0.670792
-0.0782523 0.404883 -0.305646 -0.212005 0.81713 -0.536052
0.386146 0.169596 0.222665 0.985657 0.100762 0.13538
-0.0925109 -0.376411 0.320403 -0.0388058 -0.822531 0.567395
0.0111621 0.142963 0.401119 -0.832777 0.52459 0.176883
0.0612372 0.423755 0.160112 -0.436908 0.589603 0.679323
-0.232049 -0.38124 -0.229709 -0.493365 -0.833499 -0.248736
-0.0677593 0.303087 -0.161277 -0.00251728 -0.847564 0.530687
-0.00234856 0.454149 -0.00552961 -0.339641 0.928908 0.147561
0.0762437 -0.432679 0.1995 0.311634 -0.925996 0.21311
-0.0231315 0.040907 -0.474688 0.338015 -0.129901 -0.932133
0.111324 0.280382 -0.136987 -0.0867354 -0.937071 0.338195
0.29674 0.217381 -0.145017 0.838416 -0.421843 -0.34512
0.00151009 -0.112083 -0.40826 0.817483 -0.478494 -0.320569
0.0764586 0.0986366 -0.345768 0.0509308 -0.403045 0.913762
-0.39454 -0.171716 -0.182886 -0.971705 -0.13999 -0.190243
-0.142162 0.326289 -0.361969 0.0415019 0.48713 -0.872343
-0.179837 -0.256379 0.344069 -0.545107 -0.326776 0.772059
-0.0209717 -0.292729 0.400525 0.161753 -0.723248 0.671378
0.161379 0.216773 -0.24509 0.0315461 -0.867775 0.495955
-0.226589 0.0244092 -0.446571 -0.684365 0.0591328 -0.726738
-0.107632 -0.257374 0.19113 -0.375478 0.837839 -0.396286
0.198096 -0.186815 0.246583 0.0321714 0.0784043 -0.996402
-0.023032 0.455961 -0.218751 -0.46964 0.869365 -0.153761
0.16899 0.314956 0.351488 -0.11747 0.535732 0.836177
0.0162208 0.000360449 -0.373756 0.265794 -0.258195 0.92881
-0.202877 -0.27227 0.0619598 0.623722 0.774123 -0.108191
-0.0570843 -0.318301 -0.173881 0.484659 0.798656 0.356729
-0.125906 -0.219324 0.396045 -0.725029 0.0197288 0.688436
0.157909 -0.254105 0.204661 -0.160135 0.591046 -0.790583
-0.0650182 -0.269029 -0.367266 0.199254 -0.638862 -0.74307
-0.0275115 0.377145 0.0142229 -0.337322 -0.922292 0.188657
0.23936 -0.224089 0.348803 0.628507 -0.576453 0.522189
0.070191 0.372369 0.253077 -0.183993 0.657097 0.731007
0.0288548 0.355765 0.00256885 -0.412074 -0.886235 0.211617
-0.136905 0.353512 -0.125753 -0.834493 0.540973 0.104732
0.324539 0.204612 -0.0457756 -0.778627 -0.622659 -0.0776902
-0.157132 -0.164622 -0.207004 0.802807 -0.321414 -0.502189
0.117723 0.269515 0.190045 -0.475336 -0.769954 -0.425707
-0.229599 -0.435269 -0.0929717 -0.410347 -0.899991 -0.147078
0.244369 0.232774 0.0585059 -0.377446 -0.800387 -0.465742
0.0870597 0.41019 0.215347 -0.206869 0.765587 0.609165
-0.336893 -0.207747 0.0122069 -0.819857 0.354077 0.449959
-0.148143 -0.202876 -0.431263 0.206441 -0.515667 -0.831546
0.311996 -0.0990182 0.223529 0.823204 -0.390506 -0.412117
0.198896 0.433359 -0.149708 0.304927 0.906479 -0.29209
0.164297 0.470448 0.117081 0.399898 0.907383 0.129376
-0.0272243 0.0438686 0.409147 -0.821387 0.405156 0.401461
0.298101 -0.142413 0.339813 0.789177 -0.386062 0.477657
0.194645 0.171899 -0.301534 0.756099 -0.545329 -0.361844
0.109542 0.178197 -0.293914 -0.0747891 -0.689833 0.720095
-0.245721 -0.249731 0.103033 0.294721 0.950277 -0.100566
-0.0558233 0.341367 -0.110027 -0.00116616 -0.920712 0.39024
-0.00628438 0.272995 -0.427609 -0.362298 0.605086 -0.708951
-0.375329 -0.187322 -0.276294 -0.893553 -0.0220866 -0.448415
0.125757 -0.279617 0.17937 -0.0700235 0.701228 -0.70949
-0.112636 0.21185 -0.250001 0.0271801 -0.446491 0.894375
-0.250439 -0.431675 -0.00101486 -0.655787 -0.752549 0.0601117
0.359139 0.320005 0.16949 0.50972 0.744011 0.432011
0.174044 0.0916555 0.218435 -0.661131 -0.516788 -0.543908
-0.285925 -0.214601 -0.0440738 0.418294 0.809867 0.411273
-0.304985 -0.174197 -0.359756 -0.623483 -0.33629 -0.705817
-0.176345 0.229233 -0.228814 0.161203 -0.510684 0.844521
-0.394722 -0.0756219 -0.209786 -0.827897 0.428696 0.361671
-0.285252 -0.415991 -0.0599867 -0.565503 -0.816462 0.116605
-0.322706 -0.138894 -0.114903 0.502568 0.674308 0.541048
0.282284 0.160561 0.380702 0.559477 0.366085 0.743617
-0.380849 -0.121936 -0.238429 -0.987092 -0.160128 -0.00283655
-0.370615 -0.265851 -0.0257465 -0.96427 -0.251208 0.0841339
0.0375295 0.425964 -0.268527 0.113832 0.812842 -0.571253
0.04248 0.271252 0.266771 -0.568639 -0.594769 -0.568243
0.0337149 0.13873 -0.321476 -0.142418 -0.460824 0.87599
-0.0320738 0.327197 -0.372933 -0.170306 0.73708 -0.653994
-0.00157327 -0.376942 -0.0695155 0.387991 0.921058 0.0333785
0.382552 0.263292 0.12756 0.987944 0.135926 0.0741015
0.213439 -0.271808 0.334258 0.6381 -0.634922 0.435549
0.240163 0.205561 -0.247764 0.729791 -0.369418 -0.57527
0.345225 0.354439 -0.0103708 0.919128 0.338125 -0.202174
0.177708 0.439105 0.196456 0.308809 0.822555 0.477536
-0.232998 -0.283424 0.278581 -0.710642 -0.308022 0.632543
0.0312769 -0.0581662 -0.38771 0.308223 -0.0422413 0.950376
0.0621597 -0.203823 0.453717 0.159536 -0.387927 0.907778
-0.0254966 -0.333989 0.0763 0.442946 0.759409 -0.476546
-0.31923 -0.048246 -0.18863 0.624149 0.346257 0.700389
-0.0289864 -0.136095 -0.350624 0.5398 0.237697 0.807537
-0.0618649 0.432193 -0.0507195 -0.829054 0.418821 0.370483
0.318933 0.290718 0.257763 0.601081 0.553786 0.576215
0.211383 0.332866 0.322554 0.429662 0.771126 0.469845
0.239284 0.226388 -0.192867 -0.475962 -0.781904 0.402599
-0.309884 0.0986933 -0.350043 -0.915503 0.292801 -0.275903
0.0553064 -0.318539 0.140502 -0.229443 0.791785 -0.566068
-0.0450031 -0.349564 -0.0472773 0.460747 0.886564 -0.0414341
0.132531 -0.183528 0.257307 -0.269397 0.507791 -0.818275
-0.0573498 0.445445 -0.109873 -0.564652 0.820427 0.0898241
0.269376 -0.205175 0.243292 0.825922 -0.438942 -0.353812
-0.0169805 0.100745 0.381256 -0.762305 0.561076 0.322623
0.113922 -0.00113466 0.318837 -0.326121 -0.0395644 -0.9445
0.289001 0.000736656 0.414128 0.460685 -0.0099432 0.887508
-0.227604 0.202361 -0.405134 -0.757948 0.515008 -0.400352
-0.216851 -0.0427311 -0.450092 -0.599924 -0.0598733 -0.797813
-0.177938 0.0569465 -0.28266 0.369236 -0.00834133 0.929298
-0.232766 0.236359 -0.363185 -0.853902 0.480336 -0.20032
-0.00555559 0.469123 -0.15405 -0.471958 0.829932 0.297437
0.0732387 -0.202559 0.26095 -0.264613 0.622611 -0.736434
0.19047 0.384153 0.283738 -0.152839 0.777183 0.610432
0.213642 0.126578 0.217696 -0.423971 -0.522047 -0.740078
-0.248381 -0.174208 -0.405178 -0.593555 -0.345165 -0.727017
0.0499996 0.160353 -0.45411 0.441203 0.249042 -0.862159
-0.122025 -0.0693776 -0.479554 0.233514 -0.240713 -0.942087
0.261329 0.404614 -0.154381 0.783417 0.451743 -0.426833
-0.195407 0.29267 -0.35102 -0.633658 0.657873 -0.407039
-0.178182 -0.167532 0.312029 -0.825212 0.393306 0.405383
0.129009 0.343853 -0.354526 0.188013 0.692462 -0.696525
-0.215405 -0.011461 -0.267405 0.515251 0.155081 0.842892
0.18952 -0.238687 0.408382 0.20563 -0.380313 0.901709
0.109949 0.268039 -0.0142046 -0.82125 0.413255 0.393406
0.0419678 0.0969366 0.444038 -0.261 -0.0512952 0.963975
0.192839 0.276366 -0.00736895 -0.676594 -0.736354 0.00195821
-0.383023 -0.238174 -0.130143 -0.983989 -0.159495 -0.079544
0.296728 0.410059 -0.0178849 0.325987 0.936509 0.129161
-0.286698 0.0588442 -0.417154 -0.447499 0.0476359 -0.893015
0.366854 0.339717 0.0942528 0.977128 0.212625 0.00335353
-0.25577 -0.223977 0.207972 -0.82191 0.409058 0.396404
-0.213013 -0.448103 0.0889105 -0.378655 -0.911048 0.163129
0.099616 0.148131 0.435817 -0.273548 0.466544 0.841135
0.00491051 0.365525 0.153474 -0.816172 0.36814 0.445349
-0.215691 0.313114 -0.244901 -0.796901 0.540877 0.269074
0.0844555 0.0839408 -0.424206 0.844314 -0.450036 -0.290863
0.00336378 0.311836 -0.137498 -0.0811675 -0.930416 0.357404
-0.104874 -0.122653 -0.308812 0.579562 0.148962 0.801198
0.174349 0.468467 0.0320892 0.390596 0.917943 0.0693886
0.0490526 -0.261091 0.4271 0.28015 -0.634496 0.720368
0.232249 0.260063 -0.301818 0.74138 0.25619 -0.62026
0.294875 0.263577 -0.185305 0.785668 -0.371882 -0.494398
0.277141 -0.0438736 0.237658 -0.499116 0.00338598 -0.866529
-0.139175 -0.487429 -0.00792477 -0.628279 -0.773703 0.0815395
0.11033 -0.125477 0.473284 0.185097 -0.316076 0.930503
-0.234514 -0.0753285 -0.235875 0.357551 0.305041 0.882671
0.112898 0.408095 -0.264682 0.122027 0.875695 -0.467191
-0.215558 -0.255367 -0.0559594 0.721342 0.677516 0.14366
-0.0272891 -0.450399 -0.118121 0.25298 -0.871711 -0.419667
0.0990331 -0.238933 0.223416 -0.113298 0.635334 -0.763881
-0.0517436 -0.408473 -0.192062 0.835422 -0.345756 -0.427226
0.00506103 0.105509 -0.467077 0.51847 -0.187703 -0.83424
0.1534 0.399904 0.247032 -0.163124 0.817515 0.552321
-0.0964366 -0.482988 0.108474 -0.225955 -0.920061 0.32005
-0.0656594 -0.418212 0.274022 -0.217912 -0.778702 0.588335
0.231081 -0.23704 0.198948 -0.244231 0.567491 -0.786324
0.252049 -0.258649 0.262143 0.873525 -0.195223 -0.445917
0.036229 -0.241884 0.228664 0.061278 0.578224 -0.813573
0.173845 -0.133206 0.266009 -0.467367 0.429029 -0.772983
0.0668803 0.0514304 0.470217 -0.377503 0.350769 0.857002
0.320461 -0.0581774 0.370435 0.863562 -0.298787 0.406187
-0.153879 -0.460744 -0.126381 0.318777 -0.852098 -0.415103
-0.16816 -0.19086 -0.153928 0.717476 0.273865 0.640489
-0.204777 -0.124177 -0.237827 0.405426 0.544352 0.734378
-0.321496 0.116613 -0.298917 -0.807818 0.365435 -0.462479
-0.0469273 -0.201642 0.274466 -0.0425995 0.692363 -0.720291
-0.184165 -0.265268 0.145837 0.221549 0.964194 -0.145757
0.141143 -0.0568902 0.481206 0.256463 -0.147064 0.955301
0.0065227 0.420002 0.114468 -0.831532 -0.0534288 0.552902
0.0723481 0.500135 -0.0994874 -0.326838 0.944667 0.0279521
0.162357 0.370744 -0.314108 0.149195 0.830609 -0.536498
0.0523103 0.222384 0.303409 -0.556719 -0.441858 -0.703438
0.260948 0.296942 -0.229839 0.712376 0.429507 -0.555018
-0.318735 -0.102127 -0.160217 0.601181 0.307599 0.737539
0.0648337 0.476689 0.045556 -0.330204 0.904677 0.269305
-0.0692503 -0.341516 0.371778 0.269862 -0.908712 0.318459
