ply
format ascii 1.0
comment Created by Open3D
element vertex 128
property double x
property double y
property double z
property double nx
property double ny
property double nz
end_header
0.370637 -0.23129 0.320116 0.868911 0.493825 -0.0336221
-0.210791 0.346327 -0.281675 0.868911 0.493825 -0.033622
-0.0937458 0.149225 -0.151769 0.868911 0.493825 -0.0336221
0.0149165 -0.0979034 -0.339601 -0.868911 -0.493825 0.0336221
0.0977573 0.193891 -0.487178 0.868911 0.493825 -0.0336221
0.0667342 -0.112669 0.149027 0.868911 0.493825 -0.0336221
-0.162925 -0.00326132 0.539959 -0.415272 0.764284 0.493376
-0.237119 -0.0424685 0.297711 -0.868911 -0.493825 0.0336221
-0.191458 -0.0493375 0.531388 0.269338 -0.414738 0.869166
0.128177 0.143504 -0.441091 0.868911 0.493825 -0.0336221
0.146981 0.220392 0.466129 -0.370492 0.693936 0.617405
0.0646045 -0.118092 0.0143241 0.868911 0.493825 -0.0336221
-0.223398 0.0537136 0.4008 -0.415272 0.764284 0.493376
-0.161671 -0.0417262 -0.087009 -0.269338 0.414738 -0.869166
0.0825816 -0.388328 -0.0144295 0.415272 -0.764283 -0.493376
-0.0964527 0.130184 -0.483256 -0.269339 0.414737 -0.869166
-0.0962705 0.272532 -0.415388 -0.269339 0.414738 -0.869166
-0.0894717 0.327204 -0.391408 -0.269339 0.414738 -0.869166
0.338111 -0.289549 0.332326 0.269338 -0.414738 0.869166
-0.230412 0.249724 0.0733632 -0.269338 0.414738 -0.869166
-0.0867824 -0.338661 -0.167398 -0.868911 -0.493825 0.0336221
-0.204281 0.292189 -0.274934 -0.868911 -0.493825 0.033622
-0.0357786 -0.396688 0.298446 -0.868911 -0.493825 0.0336221
-0.158747 -0.176446 0.355319 -0.868911 -0.493825 0.0336221
-0.122871 -0.254569 0.135048 -0.868911 -0.493825 0.0336221
-0.188916 -0.113039 0.500204 0.269338 -0.414738 0.869166
-0.174286 0.260717 0.0380165 -0.868911 -0.493825 0.0336221
-0.252081 -0.0164011 0.29391 -0.868911 -0.493825 0.0336221
0.0862946 -0.172751 -0.22792 0.868911 0.493825 -0.0336221
0.215356 -0.369155 0.222792 0.868911 0.493825 -0.0336221
0.139469 -0.462106 0.23188 0.269339 -0.414738 0.869166
-0.278831 0.0185567 0.116042 -0.868911 -0.493825 0.0336221
-0.210557 0.113623 0.318802 -0.415272 0.764284 0.493376
-0.023475 -0.423036 0.229426 -0.868911 -0.493825 0.0336221
0.183819 0.0582595 0.385242 -0.269338 0.414738 -0.869166
-0.0970046 -0.298824 0.15353 -0.868911 -0.493825 0.0336221
-0.0443513 0.0801974 0.11092 0.868911 0.493825 -0.0336221
0.314502 -0.2923 0.299208 0.415272 -0.764284 -0.493376
0.0489125 -0.160491 -0.380279 -0.868911 -0.493825 0.0336221
0.120211 0.146741 0.493163 0.0256176 0.0229694 0.999408
0.257954 -0.155772 0.26014 -0.269338 0.414738 -0.869166
-0.0202676 0.132296 0.398329 -0.44089 0.741316 -0.506031
-0.0549612 0.0738312 -0.256781 0.868911 0.493825 -0.0336221
0.101161 0.115764 -0.390514 0.269339 -0.414738 0.869166
0.0293479 -0.0202515 0.540212 0.868911 0.493825 -0.0336211
-0.139789 -0.213446 0.301814 -0.868911 -0.493825 0.0336221
-0.0342659 0.369235 -0.388459 -0.269339 0.414738 -0.869166
-0.143141 -0.199857 0.414797 -0.868911 -0.493825 0.0336221
-0.22658 -0.0522716 0.42611 -0.868911 -0.493825 0.0336221
-0.0521051 0.414752 -0.281492 -0.415272 0.764283 0.493376
0.246867 -0.297833 0.356648 0.269338 -0.414738 0.869166
-0.171853 0.360441 -0.350019 -0.269339 0.414738 -0.869166
-0.0688347 0.168538 -0.473513 -0.269339 0.414738 -0.869166
-0.137325 0.22238 0.211968 -0.415272 0.764284 0.493376
-0.0497494 -0.387442 0.0731917 -0.868911 -0.493825 0.0336221
0.295049 -0.10088 0.282061 0.868911 0.493825 -0.0336221
0.136237 -0.197469 0.438821 0.269339 -0.414738 0.869166
-0.0829573 0.0901568 -0.106856 -0.868911 -0.493825 0.0336221
0.198931 0.162281 0.475125 0.868911 0.493826 -0.033622
-0.124192 -0.0396575 0.515162 0.269338 -0.414738 0.869166
0.0860896 -0.141837 0.220831 0.868911 0.493825 -0.0336221
-0.0130462 -0.061732 -0.550385 -0.450777 0.817562 0.358317
-0.103353 0.201693 -0.286136 0.269339 -0.414738 0.869166
0.159216 -0.458986 0.227249 0.269339 -0.414738 0.869166
0.00191461 0.341947 -0.251832 0.269339 -0.414738 0.869166
-0.244808 -0.00297664 0.470597 -0.415272 0.764284 0.493376
-0.177032 -0.155009 0.197643 -0.868911 -0.493825 0.0336221
0.00614297 -0.0318984 -0.230546 0.868911 0.493825 -0.0336221
0.0654842 -0.112738 0.115698 0.868911 0.493825 -0.0336221
-0.00358232 0.0828167 -0.373777 0.269339 -0.414738 0.869166
0.0846536 -0.25448 -0.220027 0.415272 -0.764283 -0.493376
0.00399456 -0.404031 -0.0562504 0.415272 -0.764283 -0.493376
0.236686 -0.323681 0.282324 0.415272 -0.764284 -0.493376
0.101018 0.191816 0.470489 -0.353669 0.66695 0.655817
-0.0451659 -0.385351 0.222351 -0.868911 -0.493825 0.0336221
-0.026714 0.127361 -0.345354 0.269339 -0.414738 0.869166
0.215194 0.131155 0.438252 0.868911 0.493825 -0.0336255
-0.279267 0.0167601 -0.0226605 -0.269338 0.414738 -0.869166
0.171699 -0.0988445 0.474892 0.269339 -0.414738 0.869166
-0.214066 0.322072 -0.0889008 -0.868911 -0.493825 0.033622
0.080777 -0.0843051 0.510005 0.269339 -0.414738 0.869166
0.116025 -0.224145 0.419231 -0.868917 -0.493816 0.0336035
0.0428725 -0.0660532 0.217022 0.868911 0.493825 -0.0336221
-0.0544488 0.093484 0.0451117 0.868911 0.493825 -0.0336221
0.183017 -0.432133 0.137964 0.415272 -0.764283 -0.493376
0.199825 0.154551 0.384669 0.868912 0.493823 -0.0336199
-0.0392196 -0.410692 0.00383317 -0.868911 -0.493825 0.0336221
-0.0671151 -0.293876 0.37617 0.269338 -0.414738 0.869166
0.0937609 -0.50785 0.180131 0.415272 -0.764283 -0.493376
-0.228607 0.330294 -0.34392 -0.868911 -0.493825 0.0336223
0.0960936 0.0800008 0.477543 0.354993 -0.574409 0.737587
0.298177 -0.239837 0.207563 -0.269338 0.414738 -0.869166
-0.0226764 0.0448648 0.152125 0.868911 0.493825 -0.0336221
0.0939394 -0.159652 0.162026 0.868911 0.493825 -0.0336221
-0.0123115 -0.144389 -0.18228 -0.269338 0.414738 -0.869166
-0.0787546 0.078112 -0.175152 -0.868911 -0.493825 0.0336221
0.132121 -0.287203 0.317615 0.269339 -0.414738 0.869166
0.14549 -0.337619 0.289415 0.269339 -0.414738 0.869166
0.0700784 -0.107973 0.30442 0.868911 0.493825 -0.0336221
0.0301142 0.0390478 0.477235 0.371743 -0.606234 0.703056
-0.117706 0.15679 -0.0262012 -0.868911 -0.493825 0.0336221
-0.181589 -0.0237691 0.54053 0.269338 -0.414738 0.869166
0.0921105 -0.17932 -0.174109 0.868911 0.493825 -0.0336221
0.0145442 -0.427496 -0.011021 0.415272 -0.764283 -0.493376
-0.0451852 -0.266639 0.382371 0.269338 -0.414738 0.869166
0.182725 -0.368564 0.26311 0.269339 -0.414738 0.869166
-0.0849482 0.153091 0.132374 0.868911 0.493825 -0.0336221
-0.228487 -0.0410702 0.541348 -0.868911 -0.493825 0.0336221
0.0184538 0.323278 -0.265866 0.269339 -0.414738 0.869166
0.0132409 0.011015 0.413458 0.468892 -0.84299 -0.263644
0.0806247 -0.388351 -0.0160404 0.415272 -0.764283 -0.493376
0.0778006 -0.483215 0.128535 0.415272 -0.764283 -0.493376
0.0817823 0.125617 0.361473 -0.0502289 0.0203956 -0.998529
-0.0841741 0.155579 0.188928 0.868911 0.493825 -0.0336222
0.234156 -0.412038 0.149879 0.415272 -0.764284 -0.493376
0.0623989 0.197967 -0.500137 -0.269339 0.414738 -0.869166
-0.0877703 -0.0249535 -0.101906 -0.269338 0.414738 -0.869166
0.02513 -0.320729 0.334772 0.269339 -0.414738 0.869166
-0.221261 -0.0641177 0.389569 -0.868911 -0.493825 0.0336221
0.0268376 -0.121877 -0.383626 -0.868911 -0.493825 0.0336221
0.00732183 0.152414 -0.343946 0.269339 -0.414738 0.869166
-0.0232172 0.10864 0.485427 -0.262064 0.516614 0.815127
-0.0248479 0.313684 -0.257025 0.269339 -0.414738 0.869166
0.020195 0.116924 0.368151 -0.215616 0.316493 -0.923765
-0.0773731 -0.349019 -0.076354 -0.868911 -0.493825 0.0336221
0.0435031 0.117553 -0.532653 -0.269339 0.414738 -0.869166
-0.0960544 -0.302239 0.127939 -0.868911 -0.493825 0.0336221
-0.158491 -0.211431 -0.15189 -0.868911 -0.493825 0.0336221
