ply
format ascii 1.0
comment Created by Open3D
element vertex 827
property double x
property double y
property double z
property double nx
property double ny
property double nz
end_header
-0.295368 -0.112703 -0.145266 -0.480894 0.86786 -0.124738
-0.110398 -0.540363 -0.272318 -0.527848 0.848377 -0.0404051
0.381774 -0.223094 0.0606538 0.476228 -0.865365 0.156044
-0.245171 -0.0712576 -0.0467772 -0.554213 0.831292 -0.0424563
-0.019584 0.0424549 -0.192242 -0.633028 0.719069 0.286732
-0.17157 -0.0528897 -0.211976 0.467359 -0.85491 0.225177
0.0722683 -0.416433 -0.152232 -0.424065 0.895901 -0.132398
0.261538 0.246018 0.353884 0.365729 0.214282 -0.905718
0.11426 0.383653 -0.045641 0.40185 0.106148 -0.909532
-0.38377 0.104449 -0.0446945 0.464299 -0.00191425 -0.885676
-0.00781661 0.0573146 -0.0865231 0.392067 -0.907812 0.148869
-0.15179 -0.535455 -0.0526396 -0.493816 0.860223 -0.127132
0.599488 -0.057772 0.0392653 0.322689 0.182982 -0.928649
0.017742 -0.557532 -0.277349 0.371182 0.13011 -0.919399
0.241071 0.216366 0.021919 -0.497551 0.860336 -0.11075
0.252994 0.219655 -0.0300593 -0.513385 0.854402 -0.0802114
-0.0298275 -0.478614 -0.0828626 0.621687 -0.783265 0.00135274
-0.306867 -0.133105 0.0509325 0.412305 0.0729612 -0.90812
-0.383113 0.242157 -0.124511 -0.412566 0.889962 -0.194312
0.374951 -0.216912 0.09184 -0.49498 0.862227 -0.107516
-0.308039 -0.177715 -0.0535355 0.362177 0.167488 -0.916938
0.0614506 0.121974 0.082331 -0.504716 0.85827 -0.0929199
0.366422 0.288472 0.0670538 0.52301 -0.848382 0.0819046
-0.533926 0.206839 -0.0841034 -0.452359 -0.0506524 0.890397
-0.0543588 -0.593355 -0.306683 -0.369317 -0.152596 0.916689
0.131567 0.357532 0.120721 0.470338 -0.857968 0.206574
-0.250252 -0.009092 0.101568 -0.342424 -0.248721 0.906027
0.237172 0.247998 0.130306 0.313058 0.202696 -0.927852
0.0310607 -0.438528 -0.0530965 0.477702 -0.867503 0.138702
0.0810801 0.135349 0.101375 -0.636617 0.771179 -0.00104789
0.0714457 0.12671 0.105252 -0.495932 0.86155 -0.108552
0.318437 0.294642 0.280152 0.813633 0.472115 0.339276
-0.163306 0.373147 -0.0299372 0.575921 -0.815106 -0.0625966
-0.314527 -0.108167 -0.347102 -0.358517 -0.262027 0.895995
0.145247 0.384989 0.215001 -0.263839 0.824862 -0.499991
0.0279921 0.226342 -0.105115 0.417957 0.115954 -0.901036
0.330537 -0.216684 -0.106407 0.362444 0.14854 -0.920092
0.0868114 0.113468 0.0559885 -0.224804 -0.361254 0.904963
0.00445302 -0.45317 -0.0751442 0.446162 -0.858277 0.253574
-0.36335 -0.170096 -0.218035 0.580618 -0.813186 -0.0401369
-0.0271188 -0.468401 -0.0981259 -0.509847 0.8569 -0.076016
-0.352177 -0.134219 -0.0355066 -0.498653 0.854865 -0.143355
-0.431805 -0.170108 -0.014162 0.0241677 0.767297 -0.640837
-0.343445 -0.0923289 -0.0569586 0.371625 0.134064 -0.918652
-0.192201 0.36631 -0.128819 -0.450542 -0.0446624 0.891637
-0.300703 -0.0260491 -0.0210782 -0.442544 -0.0305125 0.896227
-0.0350404 0.0323775 -0.183538 -0.551821 0.833486 -0.02819
-0.15299 -0.0921086 -0.298543 0.30147 0.161624 -0.939677
0.539192 -0.108314 0.18998 -0.450386 0.87782 -0.163046
-0.0420052 0.0410634 -0.0525214 -0.547275 0.833981 -0.0704728
-0.401119 -0.126424 -0.191239 -0.564159 0.822778 -0.0689955
-0.276626 -0.0967922 -0.141708 0.436084 -0.00870402 -0.899864
-0.348229 0.0537812 -0.180309 -0.513433 0.855189 -0.0709846
-0.100691 0.202492 -0.0420665 0.524515 -0.8491 0.0625554
0.123287 0.360992 0.128283 -0.494939 0.860503 -0.120704
0.424038 0.240731 0.0136103 -0.408474 -0.115894 0.905382
0.258323 0.22561 0.357316 -0.358431 -0.130711 0.92436
0.554251 -0.145409 0.0203248 -0.428904 -0.0631618 0.901139
0.0169274 0.271467 -0.0498703 0.534873 -0.844715 0.0191731
0.331862 -0.335473 -0.103384 -0.345475 -0.224198 0.911253
-0.427127 0.00546616 -0.321707 -0.609714 0.0579702 0.790499
0.209394 0.582538 0.0768868 -0.391881 -0.130949 0.910649
-0.322765 -0.14208 -0.362053 -0.459999 0.042203 0.886916
-0.0584057 0.400281 -0.062492 -0.407956 -0.102869 0.907188
0.233044 0.257559 0.137967 -0.440102 -0.0834344 0.894063
0.281041 -0.272633 0.079279 -0.472026 0.871611 -0.13223
-0.412844 -0.179133 0.00890463 -0.379515 -0.164853 0.91038
0.380861 0.306092 0.118323 -0.496489 0.860938 -0.110837
0.435408 -0.180157 -0.0352345 -0.519244 0.244835 0.818805
0.240698 0.466202 0.0334054 -0.51886 -0.088545 0.850261
0.335807 0.281185 -0.0139857 -0.541735 0.165563 0.824083
0.2733 -0.301735 -0.104583 0.50943 -0.856059 0.0874271
0.365207 0.249104 0.184891 0.48868 -0.86468 0.116277
0.00296574 0.0280199 0.00665438 -0.360662 -0.183897 0.914388
-0.387553 0.0410454 -0.0441351 -0.458833 -0.0793264 0.884974
0.171959 0.19322 0.1398 -0.542445 0.839182 0.0390685
-0.170785 0.00712903 0.131508 0.360505 0.209251 -0.908983
0.510439 -0.226916 -0.0230427 0.380184 0.150003 -0.912666
0.153699 0.593362 0.0528943 -0.36091 -0.173894 0.916245
0.164126 0.382528 0.240744 -0.399764 -0.119142 0.908842
0.133911 0.577801 0.180571 -0.501396 0.859547 -0.098901
0.214266 0.610238 0.0716356 0.479829 0.073442 -0.874283
0.00577865 -0.461377 -0.252877 -0.618989 0.654587 0.434014
0.3428 0.275493 0.0189511 -0.439703 0.888602 -0.130569
-0.016538 0.471057 0.0856706 0.518851 -0.851149 0.0796189
0.037565 -0.459767 -0.198273 0.515235 -0.854599 0.0647594
-0.261546 -0.0639365 0.083327 0.0114835 0.610027 -0.792297
0.418236 -0.162378 0.261218 -0.0441909 0.708131 -0.704696
-0.424796 -0.00287945 -0.0677601 -0.466049 -0.0632348 0.882496
0.0712703 0.144978 0.0519483 -0.228946 -0.206904 0.951196
0.125367 -0.358718 -0.20556 0.367689 0.296723 -0.88134
-0.54179 0.111637 -0.103888 -0.345806 -0.23209 0.909149
-0.246456 0.323265 -0.0503055 0.531405 -0.845639 0.0500281
0.477472 -0.180091 -0.0122793 0.136225 -0.734401 0.664904
0.536848 -0.101788 0.26508 0.493878 -0.863104 0.105526
0.479449 -0.142606 0.267238 0.483985 -0.85717 0.176121
-0.242026 -0.148916 -0.0242192 0.390738 0.12715 -0.911678
-0.457076 0.0264425 -0.092011 0.514182 0.0166598 -0.857519
0.00548639 -0.484143 -0.273434 0.417253 0.114667 -0.901527
-0.0585339 0.0431787 0.184658 0.495014 -0.0565963 -0.86704
-0.162041 0.205576 0.0607353 0.375677 0.14089 -0.915979
-0.0470063 -0.531336 -0.304188 0.419921 0.115578 -0.900171
0.310451 -0.341984 -0.126705 0.33418 0.231803 -0.91356
0.155909 0.178028 0.117571 -0.402979 0.868716 -0.287995
0.0555211 0.243874 -0.0894092 0.446705 0.0828695 -0.890835
-0.650307 0.130229 -0.153141 -0.77171 -0.487455 -0.408475
0.140422 -0.354039 0.0713623 -0.447114 0.872423 -0.197403
-0.271008 -0.128397 -0.298609 0.488577 -0.861865 0.135944
0.128407 0.341065 0.208686 0.417877 0.0995152 -0.903037
-0.0804383 0.504096 0.140085 0.284187 0.288215 -0.914423
-0.235628 0.362631 -0.14906 -0.245726 -0.205198 0.947371
0.296318 -0.20925 -0.109814 0.535901 -0.0915361 -0.839304
0.237626 0.206324 0.0182314 0.450306 -0.876924 0.168014
0.362622 -0.146591 0.242315 0.405932 0.113556 -0.906821
-0.0398422 -0.44788 0.0281479 0.261264 0.344943 -0.901529
-0.0169042 0.26864 0.0850101 0.518656 -0.851219 0.080145
0.08093 -0.500236 -0.244326 0.42291 -0.0860242 -0.902079
0.106126 0.223669 0.290777 -0.369829 -0.181386 0.911222
0.147641 0.414823 0.227229 0.424161 0.101702 -0.899858
-0.0511641 -0.473193 0.00511457 -0.280331 0.903057 -0.325427
-0.152273 0.143044 -0.184153 -0.351851 -0.174262 0.919692
0.138229 0.307818 0.209197 0.547429 -0.836836 -0.00515458
0.304902 -0.155527 0.213728 0.42916 0.0791005 -0.899758
-0.421075 -0.249994 -0.103882 -0.217015 -0.391173 0.894365
0.470131 -0.0883689 -0.0167951 -0.501682 0.859806 -0.0951249
0.119553 0.34158 -0.00985252 -0.556164 0.831061 0.00435474
0.0429821 0.0266492 0.12543 0.408236 0.118516 -0.90515
-0.357583 -0.143241 -0.0610465 0.564102 -0.822591 0.0716461
-0.105587 0.212597 0.0975081 -0.386996 -0.139547 0.911461
0.259404 -0.302088 -0.0130754 0.459731 -0.87723 0.138257
-0.19156 -0.56357 -0.0724458 -0.389057 0.856654 -0.338791
-0.024143 0.0376015 -0.160082 0.533502 -0.844255 0.0510863
0.184436 0.386909 0.0717427 -0.489668 0.864588 -0.112752
0.131865 0.181527 0.253084 -0.487575 0.852099 -0.190257
0.187917 0.251046 0.108394 0.323648 0.178063 -0.929272
0.123999 0.555835 0.247339 -0.481021 0.0538188 0.875055
0.337179 0.27523 0.0192119 -0.635255 0.770608 -0.0511373
0.063216 0.535389 0.192328 -0.523122 0.851658 0.0319746
0.0142302 0.508717 -0.0300357 0.34916 0.187392 -0.918135
-0.414461 0.0204502 -0.324647 0.356453 0.174154 -0.917939
-0.32249 -0.115687 0.0233624 0.506366 -0.856794 0.0974606
-0.360709 0.0834999 -0.0365989 0.485332 0.0600734 -0.872264
-0.447113 0.239188 -0.0564343 0.413313 0.103029 -0.904742
0.0468178 0.36086 -0.0694301 -0.41013 -0.0978036 0.906768
-0.43718 -0.154172 0.000774017 -0.383889 -0.17468 0.906706
0.328249 0.271287 0.0445741 -0.631546 0.774033 -0.0449876
0.0289959 -0.0216373 -0.203995 0.520929 -0.85104 0.0660539
0.0384682 0.0878281 -0.113611 -0.374279 0.910456 -0.176025
-0.152157 0.419423 -0.0985087 -0.511071 -0.0501994 0.858071
0.0909409 0.321549 -0.0640605 0.292585 0.160097 -0.942742
0.123264 0.19091 -0.122244 -0.384803 -0.130384 0.913743
-0.330196 -0.152532 -0.235382 0.45716 -0.866044 0.202416
0.0185275 0.552348 0.194237 0.403667 0.0189913 -0.914709
0.284266 -0.174009 0.214387 -0.31612 -0.189572 0.929586
0.427657 -0.175758 0.256414 0.471554 -0.846631 -0.246684
0.0987036 0.361208 0.194069 0.0762911 0.599312 -0.796872
0.223979 -0.307381 0.135959 0.500807 -0.85995 0.0983771
0.0433991 -0.442775 -0.154032 0.50446 -0.858345 0.0936135
-0.295921 0.072949 0.00131194 -0.359111 -0.162269 0.91908
-0.0616118 0.199814 -0.13517 -0.372499 -0.151592 0.915568
-0.211448 0.133698 -0.220302 0.421707 0.112628 -0.89971
-0.137481 -0.044755 -0.0625017 -0.359683 -0.147432 0.921353
-0.360607 0.248956 -0.193909 -0.500458 0.860558 -0.094768
0.0194417 0.100955 0.164268 0.557801 -0.829969 -0.00309502
0.289536 -0.268654 0.207271 -0.356993 -0.149577 0.922053
-0.407193 -0.208933 -0.0898772 -0.47853 -0.0777114 0.874626
-0.380837 0.237031 -0.161582 -0.517432 0.852257 -0.0769554
0.52428 -0.115245 0.243435 0.480867 -0.862167 0.159484
0.603069 -0.0823415 0.0945017 -0.411082 0.88942 -0.199861
-0.212924 0.0857047 0.0320721 0.516926 -0.852818 0.0740896
0.608285 -0.0733918 0.145463 -0.532622 0.845543 -0.0370185
-0.0118142 0.024817 -0.00300162 -0.392111 0.0981071 0.914672
0.234559 0.202887 -0.0115634 0.556586 -0.83079 2.83586e-05
0.140689 0.180646 -0.127825 0.397903 0.120044 -0.90954
-0.0716993 0.435826 -0.0442715 -0.464051 0.859392 -0.214713
-0.393739 0.0205758 -0.300918 -0.589661 0.365457 0.720237
-0.0403767 0.0636592 0.151675 0.488315 -0.851342 0.191745
0.21084 0.225142 0.251584 -0.502263 0.859064 -0.0986919
-0.0453253 -0.497252 -0.164783 0.480501 -0.869504 0.114377
-0.540658 0.113937 -0.326573 0.332273 0.282157 -0.89999
-0.077566 0.00195412 -0.187182 0.412935 -0.900826 0.134152
0.283182 -0.294136 -0.0407149 0.406258 -0.874085 0.266326
-0.521815 -0.0332492 -0.128732 0.0487996 0.532988 -0.844715
0.0147191 0.0394855 -0.188611 -0.295882 -0.333051 0.895283
-0.242901 -0.148903 -0.0135526 -0.463136 -0.0939787 0.881291
-0.270649 -0.10914 -0.212535 -0.503633 0.85897 -0.0923294
0.0877756 -0.440541 0.08178 0.41648 0.0941554 -0.904256
0.252556 -0.254063 -0.126421 -0.370496 -0.163287 0.914369
0.103426 0.128972 -0.0812718 -0.5406 0.841038 -0.0201673
-0.378286 -0.175383 0.0226587 -0.41192 -0.0526022 0.9097
0.186446 0.160419 0.307034 0.47006 0.0294078 -0.882144
0.241512 0.247709 0.306847 0.63854 -0.768493 -0.0410509
0.227637 0.39437 0.258061 0.445442 0.0765192 -0.892035
-0.185148 -0.563732 -0.0983848 0.62837 -0.775718 -0.058415
-0.0906856 -0.516909 -0.109983 0.473888 -0.873317 0.112906
0.127829 -0.381149 0.116717 -0.386671 -0.143479 0.910988
-0.233164 -0.0751008 -0.00998 0.623856 -0.636221 -0.453902
0.101369 0.183798 0.0710579 -0.43926 -0.0765567 0.895092
-0.265915 0.0971194 -0.153782 -0.500868 0.861317 -0.0852341
0.0144519 -0.443234 0.0195773 0.399323 -0.881347 0.252526
0.0321732 0.305561 0.094851 -0.349775 0.920703 -0.173098
-0.117268 0.195591 -0.0182623 0.510048 -0.856029 0.084054
0.0510137 0.488747 -0.00261869 -0.168357 -0.422937 0.890382
-0.474353 -0.0330579 -0.236467 0.534963 -0.842771 0.059595
0.206635 0.297913 0.24628 -0.406925 -0.122546 0.905204
-0.260823 -0.098502 -0.137216 0.441596 -0.886734 0.136735
0.135461 0.222137 -0.109441 -0.443633 -0.0815476 0.892491
-0.0903175 0.217417 -0.0232694 -0.521084 0.85192 -0.0519857
0.165524 0.468371 0.246455 -0.463941 0.877081 -0.124451
0.230607 0.232641 0.140032 -0.51266 0.856437 -0.0607945
-0.0710801 0.0382859 0.0653867 0.500448 -0.860149 0.0984641
0.200939 0.400573 0.0804999 -0.465304 0.877263 -0.117907
-0.273231 -0.0601589 0.0788528 0.412219 0.0150395 -0.910961
0.537713 -0.0961524 0.303803 -0.529215 0.848045 -0.0274176
0.227498 0.212776 0.107781 0.541965 -0.838358 0.0585638
0.0456848 0.116936 0.169019 0.421983 -0.882501 0.207658
-0.219947 -0.0574244 -0.0415793 -0.533135 0.843566 -0.0645187
-0.334076 -0.212694 -0.0567106 -0.392535 -0.126742 0.910962
-0.321524 0.270542 -0.186008 -0.617141 0.667547 0.416555
0.411104 -0.20414 -0.0399903 -0.60862 0.730051 0.310816
-0.315305 -0.148497 -0.260023 0.494271 -0.86056 0.123018
0.297564 0.267888 0.263049 0.460837 -0.877581 0.132216
0.409564 -0.215351 -0.0672105 0.351294 0.176248 -0.919527
0.329229 0.325864 0.188897 -0.462987 -0.0670749 0.883824
0.453241 -0.174238 0.276383 0.352744 0.10214 -0.930128
-0.247458 0.106393 -0.142202 0.513096 -0.854863 0.0770839
-0.0649825 -0.46547 0.013173 0.0663182 0.535224 -0.842103
-0.158019 -0.00837189 0.137333 0.529708 -0.155572 -0.833791
0.0380969 0.108152 0.0748495 -0.429222 0.888041 -0.164777
-0.423176 -0.00559112 -0.266597 0.560226 -0.828296 -0.00855327
0.496962 -0.147107 -0.0164695 0.427511 0.100702 -0.898384
-0.00852314 -0.512463 0.0324384 0.476937 0.0651713 -0.876518
0.419815 -0.203139 -0.0285041 -0.503755 0.858815 -0.0930971
-0.320096 0.0420675 -0.26721 -0.122737 -0.541437 0.831734
0.152465 0.0578821 -0.125445 -0.37805 -0.146705 0.914087
-0.313072 0.327799 -0.18862 -0.471359 0.874258 -0.116161
0.27561 0.201487 0.265565 -0.443472 0.0695655 0.893584
0.0616424 0.097195 -0.153547 -0.527959 0.7054 0.472937
0.0024707 -0.441857 -0.00383616 -0.503235 0.860741 -0.0766747
0.242203 0.263002 0.259489 -0.438515 -0.0218514 0.898458
0.473334 -0.170229 0.0222112 0.517229 -0.855583 -0.0212653
-0.118865 0.391169 0.106207 0.441125 0.0890871 -0.893013
-0.251467 -0.0291914 -0.00971886 0.396412 0.120013 -0.910195
0.0175866 0.299113 -0.0889204 -0.489203 -0.0851287 0.868006
0.168962 0.183494 0.144898 -0.353877 0.918738 -0.175189
0.169692 0.194712 0.185048 -0.569542 0.818872 -0.0712083
0.00682894 0.490544 0.0854881 -0.519084 0.854201 -0.0298833
-0.21506 0.20437 0.0428499 0.514383 0.0481616 -0.856207
0.229378 0.182741 -0.0780315 -0.0347593 -0.471562 0.881148
-0.120011 0.402056 -0.0359313 -0.393787 0.895013 -0.209486
0.132613 0.171148 0.157411 -0.519245 0.849823 -0.0904717
0.202113 -0.372978 -0.1676 -0.400056 -0.120499 0.908535
0.107274 0.546834 0.0661071 -0.52879 0.848451 -0.0226489
-0.522001 0.151251 -0.184617 0.472949 -0.872905 0.11982
-0.375031 0.205839 -0.224871 -0.300297 -0.29928 0.905678
0.00708374 0.486828 -0.0014924 -0.462579 0.87954 -0.111489
-0.123247 -0.0464259 0.0451624 0.438717 0.0580681 -0.896747
-0.0177304 0.0762216 0.132014 0.532234 -0.844457 0.0601616
0.200886 0.545429 0.0648996 -0.427222 -0.105566 0.897963
-0.0836329 0.0636915 0.0870305 -0.506456 0.0642403 0.859869
0.240707 0.40569 0.0300703 0.335775 -0.839906 0.426395
0.150572 0.38061 0.165976 -0.407932 0.900926 -0.148066
0.000482102 -0.442119 0.000650682 -0.439131 0.862758 -0.250626
0.0948487 -0.430797 0.0876931 0.405676 0.0984801 -0.908696
0.392664 0.289663 0.0106165 -0.0724706 -0.54888 0.832754
-0.0791446 -0.481262 0.0112099 -0.458031 -0.0761494 0.885669
0.0690989 0.530916 0.154958 0.561622 -0.82369 0.0782012
-0.212671 0.349496 0.0701278 -0.430112 -0.0291507 0.902305
-0.0925242 0.0515789 -0.0307192 -0.368261 -0.147919 0.91788
0.254597 -0.250645 -0.135363 0.313293 0.23574 -0.919932
0.397278 -0.242146 0.244269 0.367669 0.189435 -0.910458
-0.226993 -0.0735355 -0.153046 -0.567009 0.822584 -0.0430906
-0.141985 -0.0149852 -0.00771861 0.527994 -0.846495 0.0683236
0.146882 0.446824 0.243297 -0.307052 -0.182802 0.933971
0.0704938 0.330675 -0.072436 0.374692 0.162145 -0.912861
-0.0362103 -0.476301 -0.0112031 0.505856 -0.859326 0.0752937
-0.138812 -0.556697 -0.165655 0.369276 -0.902996 0.219621
0.0994955 0.603506 0.242918 -0.418052 -0.0375094 0.907648
-0.272877 0.280896 0.0366248 -0.40084 -0.101415 0.910517
-0.339304 0.0577287 -0.0970438 0.546998 -0.835658 0.0496827
0.310167 0.270905 0.151432 -0.540473 0.840869 -0.0287792
0.338532 0.283917 0.116959 -0.544321 0.838781 -0.0127074
-0.395525 -0.175696 -0.114755 0.498046 -0.860808 0.104686
0.000444807 0.0702426 -0.0375836 -0.469394 0.873497 -0.129124
-0.408751 -0.0453189 -0.0780556 0.386374 0.1291 -0.913263
-0.4428 -0.194585 -0.0903617 -0.491877 0.863914 -0.10821
0.396533 -0.155017 -0.0646643 0.464696 0.0413214 -0.884505
0.417667 -0.141231 -0.0399281 -0.278256 -0.202827 0.938848
0.099022 0.563858 0.200406 -0.506949 0.859229 -0.0687567
-0.402311 0.206965 -0.0384056 0.341136 0.180204 -0.922579
0.108767 0.56927 0.219489 -0.514917 0.854875 -0.0636312
-0.475414 0.161136 -0.269934 0.344079 -0.868996 0.355606
0.549268 -0.110627 0.335603 0.78295 0.508382 0.358521
0.596025 -0.0865627 0.174312 0.479959 -0.86767 0.12957
0.17604 0.18539 0.0767791 -0.370413 0.918543 -0.138104
-0.20084 -0.0516815 -0.0567018 -0.525327 0.850087 -0.0371973
0.184691 0.134935 -0.106211 -0.41409 -0.0902932 0.905747
-0.49419 0.181675 -0.11895 -0.486405 0.864935 -0.123683
-0.22439 -0.0651352 -0.033621 0.51582 -0.85434 0.0635119
0.532865 -0.176129 0.00693396 -0.409611 -0.0504106 0.910866
-0.139263 0.165864 -0.158535 0.484072 -0.863337 0.142562
-0.329192 -0.114236 -0.0568642 -0.253564 0.794421 -0.551906
0.122426 0.601415 0.0398021 -0.418161 -0.0382599 0.907567
0.167472 0.176227 0.0717544 0.571946 -0.809807 -0.130732
0.149295 0.15198 -0.129703 0.459433 0.0727734 -0.885226
-0.211922 -0.0305367 -0.309527 0.403125 0.0793466 -0.911699
-0.178701 0.377644 0.0579137 0.406156 -0.896676 0.176093
0.203976 0.227994 0.277815 -0.497625 0.860924 -0.105731
-0.306927 0.236132 -0.195988 -0.393801 -0.126138 0.9105
0.079753 0.146654 0.243365 0.501856 -0.859618 0.0959007
0.0645407 0.0188173 -0.167801 -0.358414 -0.167943 0.918332
0.299839 -0.254271 0.128222 -0.566272 0.824138 -0.0115084
-0.208748 0.144656 0.0273112 0.598781 -0.593805 -0.537454
0.123658 0.155701 0.17452 0.593677 -0.778019 -0.205508
-0.120701 0.438925 0.115501 0.425327 -0.0560304 -0.903304
0.322085 -0.262144 -0.0707777 -0.490934 0.863316 -0.11692
-0.0517918 0.450445 0.160225 -0.361653 -0.150678 0.920056
-0.00956717 -0.414494 -0.259528 -0.433659 -0.0083433 0.901038
0.11299 0.121913 -0.101907 0.455018 -0.868061 0.198569
0.550352 -0.119802 0.0829375 0.594262 -0.804256 -0.00493986
-0.562859 0.0858444 -0.117804 -0.271754 -0.255739 0.927765
0.19843 0.220115 0.269995 0.545032 -0.836914 0.0501481
-0.137062 -0.0137443 -0.0297187 0.560432 -0.826005 0.0602645
-0.1021 0.292537 0.114697 -0.275387 -0.232853 0.932707
0.102546 0.275075 -0.0569923 -0.414297 -0.104254 0.904151
-0.0276444 0.260829 0.0924693 0.587041 -0.809354 0.0181179
-0.341183 -0.118149 0.0503538 -0.442131 -0.0536851 0.895342
0.154115 0.36887 -0.0315802 0.485424 -0.0328757 -0.873661
-0.185238 0.352249 0.0864496 -0.391162 -0.131089 0.910938
-0.232226 0.344198 -0.00269433 -0.562057 0.826786 0.0227408
0.000893746 -0.478786 -0.247301 0.471661 -0.87123 0.135992
-0.347366 -0.170562 -0.173849 -0.400379 -0.0814669 0.912721
-0.0491065 0.1433 0.104903 -0.461004 0.87478 -0.149114
-0.422854 0.199539 -0.218498 0.589363 -0.807583 0.0214745
0.0601561 0.326964 0.154499 -0.520504 0.849537 -0.0858034
-0.202802 -0.0537344 0.00431111 0.628633 -0.687574 -0.363404
0.115838 0.0560685 -0.143737 -0.297699 -0.189952 0.935571
-0.00035708 0.0260064 0.124579 -0.340996 -0.20503 0.917434
0.0607317 0.495822 0.00199564 -0.443414 -0.0735207 0.893297
0.163977 0.370911 0.0707247 0.574135 -0.816822 0.0563181
0.21842 -0.335667 -0.113203 0.523904 -0.847178 0.0883959
0.144812 0.158981 0.0893217 0.552103 -0.833001 0.0359425
-0.0635715 -0.485989 -0.0610096 -0.421686 0.895037 -0.145222
0.189903 -0.300291 0.145691 0.369421 0.153663 -0.916469
0.177511 -0.346653 -0.182239 0.333658 0.229638 -0.914297
-0.0750927 -0.509902 -0.22389 -0.472036 0.870851 -0.137114
-0.190952 0.360675 -0.0517794 -0.49997 0.860254 -0.0999618
0.533909 -0.118033 0.125556 -0.522388 0.849929 -0.0687905
-0.396152 0.189101 -0.027824 -0.486177 -0.0901931 0.869194
0.03535 0.514075 0.101277 -0.558363 0.82883 -0.0356549
0.0687755 0.206392 0.16307 0.459402 0.0612677 -0.886113
0.127701 0.146886 0.0596019 0.504434 -0.858031 0.0965918
0.174128 -0.357319 -0.0732261 0.508839 -0.857004 0.0814132
-0.482663 0.172489 -0.284123 0.36505 0.17773 -0.913866
0.0608068 0.133833 0.230575 -0.51038 0.857087 -0.0701079
-0.295343 0.293727 -0.0621583 0.464395 -0.872204 0.153612
-0.423505 -0.119051 0.00400368 0.548173 0.063714 -0.833935
-0.433189 -0.209971 -0.00906725 0.315652 0.187866 -0.930092
0.0153545 -0.390084 -0.250501 -0.4528 -0.00367342 0.891604
0.201031 -0.270007 0.153964 0.540052 0.0559967 -0.839767
-0.199449 -0.0207936 -0.0986057 0.404237 0.0957151 -0.909633
0.0862063 -0.409491 -0.150499 -0.496878 0.859753 -0.118058
-0.212943 -0.0865159 -0.268989 0.492343 -0.863885 0.106306
-0.0823165 -0.549747 -0.324839 0.336647 0.173002 -0.925602
0.0713194 -0.416942 0.0769325 0.461131 -0.00610189 -0.887311
0.235269 0.269241 0.244678 0.370977 0.27114 -0.888178
-0.14022 0.0380349 0.0603939 -0.464562 -0.050149 0.884119
-0.041723 0.0782099 0.103062 -0.4106 -0.105059 0.905743
-0.431809 0.249147 -0.257736 -0.551979 0.833437 -0.0264943
0.049411 0.0818531 -0.136092 0.486026 -0.866915 0.110621
0.526605 -0.128008 0.0831666 -0.550298 0.833705 0.045917
-0.159457 -0.0576903 0.124979 0.457183 -0.0322697 -0.888787
0.232212 0.281373 0.137757 -0.490202 0.863826 -0.116218
-0.192704 0.021666 0.130152 -0.40925 -0.0757749 0.90927
0.1967 0.238327 0.222816 0.462483 0.0615456 -0.884489
0.128806 0.143342 -0.0566474 -0.540129 0.841569 0.00467541
0.0525344 0.123633 0.143066 -0.581966 0.811055 -0.0592064
0.0687214 -0.461342 -0.244892 0.444646 0.0831358 -0.89184
-0.238394 -0.0596011 -0.0126856 -0.207362 0.783201 -0.586171
0.356336 -0.195364 0.230749 0.357967 0.198656 -0.912357
0.222255 0.420587 0.0153649 -0.500291 0.0940948 0.86073
0.216371 -0.334057 -0.103873 0.604991 -0.794785 0.0479894
0.225374 0.464959 0.0132363 0.483326 0.0076181 -0.875408
-0.188579 0.162922 -0.0604671 -0.312743 0.898722 -0.307394
-0.000236976 0.270107 -0.00577089 -0.500528 0.860038 -0.0990314
-0.274238 0.381592 0.0466286 -0.393104 0.878426 -0.271729
0.165297 0.174453 0.0901778 0.401884 0.116576 -0.90824
-0.427836 0.174918 -0.0460352 -0.485415 0.0263162 0.873888
0.0174653 0.49781 0.0659062 -0.408393 0.890943 -0.198584
-0.042716 -0.440206 0.0275627 0.443023 0.0729921 -0.893534
-0.0655532 0.18984 -0.13501 -0.377281 -0.194296 0.905488
-0.29821 -0.171574 -0.363957 0.548126 0.083599 -0.832207
-0.0773614 -0.513014 -0.13828 0.399934 -0.896522 0.19053
0.0482884 0.132427 0.236543 -0.173818 0.744857 -0.644186
-0.204437 -0.621779 -0.0569523 -0.415102 -0.104877 0.90371
-0.0886127 -0.560048 -0.326793 0.493895 0.0981423 -0.863965
0.178368 0.20796 0.205515 0.0257284 0.657787 -0.752764
-0.157042 -0.0698559 -0.0838202 0.409017 0.114582 -0.905304
-0.322602 -0.150616 -0.166145 0.455641 0.00359976 -0.890156
-0.109899 0.287788 0.101992 -0.550522 0.834766 -0.00956866
-0.577169 0.180738 -0.115511 0.381168 0.169482 -0.908838
0.58646 -0.0970835 0.127736 0.508389 -0.860458 0.0339607
0.574332 -0.0868316 0.192002 -0.403851 0.896178 -0.183763
-0.227709 -0.0156563 -0.305178 -0.417551 -0.0219509 0.908388
-0.162591 -0.0233299 0.0412626 -0.529182 0.00196964 0.848506
-0.0491004 -0.492898 -0.291163 -0.549058 0.143066 0.823449
0.127349 0.188914 0.180236 0.400174 0.0863991 -0.912358
-0.0729832 -0.518373 -0.310303 0.445141 0.0615483 -0.893343
0.0929654 0.581215 0.228058 0.474684 0.0782696 -0.876669
0.308716 0.279971 0.194623 -0.503123 0.858911 -0.0955944
0.238978 -0.304164 0.0665588 0.569384 -0.821774 0.0221119
0.159891 0.150807 0.196001 0.448027 0.0636131 -0.891754
0.084697 0.377513 -0.0618054 0.324145 0.213408 -0.921622
-0.213727 -0.0768616 -0.173953 0.498768 -0.860777 0.101457
-0.293683 -0.0809287 0.0664683 0.414693 0.170318 -0.89388
0.00498199 0.0418796 -0.202009 0.365461 0.147132 -0.919125
-0.418481 -0.142112 0.0030342 0.485355 -0.0259664 -0.873931
-0.280637 -0.103823 -0.0915033 0.510711 -0.855946 0.0808164
-0.0608626 0.227579 -0.0261612 0.523751 -0.849895 0.0579905
-0.314504 -0.116456 0.0655827 -0.409524 -0.0572074 0.910504
-0.342041 -0.157893 -0.172884 -0.129403 -0.495501 0.858914
0.247743 -0.314299 0.168629 0.403978 0.115824 -0.907407
-0.283051 -0.0342297 -0.0111293 -0.371661 -0.209354 0.904455
-0.244044 0.138532 0.0299683 -0.357381 -0.157502 0.920582
-0.0593178 0.290656 0.13304 -0.409018 -0.0396238 0.911666
0.318378 0.298223 0.179483 -0.436025 0.000599365 0.899935
-0.441074 -0.176959 -0.0142017 0.119524 0.642631 -0.756795
-0.295108 -0.213444 -0.372636 0.356105 0.169168 -0.919006
0.277788 0.256421 0.208153 0.405142 -0.901511 0.152111
0.227998 0.239106 0.306863 0.588972 -0.808035 -0.0138185
-0.251911 -0.0640211 0.0462848 -0.41717 0.89883 -0.134442
0.210289 -0.345306 -0.145451 0.480654 -0.864907 0.144598
-0.172597 0.400435 -0.114529 -0.438038 -0.0985237 0.893541
-0.186394 -0.0508021 -0.0806979 0.0754548 -0.66469 0.743299
-0.513158 0.166179 -0.0820536 -0.484175 -0.0248082 0.87462
-0.036413 -0.380927 0.0492472 -0.407202 -0.110743 0.906599
0.318164 -0.32469 -0.121242 0.311317 0.249375 -0.917003
-0.0081327 -0.45882 -0.103686 -0.535563 0.844493 -0.00199278
-0.0256152 0.0409229 -0.173491 -0.435168 0.888054 -0.148287
-0.415496 -0.176899 -0.0658814 -0.555348 0.826175 0.0949879
-0.11613 -0.00296485 -0.0268183 0.426464 -0.891278 0.15412
-0.075021 0.395514 -0.0743324 -0.326574 -0.205806 0.922493
0.358815 -0.212574 0.2131 -0.426879 0.866372 -0.259178
-0.0405738 0.0561408 -0.220949 0.344107 0.162462 -0.924769
0.190359 0.187402 0.0284109 -0.487457 0.853435 -0.184485
-0.0212047 0.0844515 0.201174 -0.378784 0.862395 -0.335853
-0.487845 -0.0327609 -0.169338 -0.436928 0.884694 -0.16251
0.236466 0.230534 0.132993 -0.587583 0.807039 -0.0585985
-0.359979 0.00714841 -0.0403234 -0.443106 -0.0429477 0.89544
-0.412498 0.171928 -0.259828 0.336398 0.325673 -0.883614
-0.3394 0.261151 -0.196627 -0.607534 0.656166 0.447603
-0.391465 -0.202895 -0.195314 -0.505927 0.0375631 0.861758
0.16064 0.144123 0.192205 0.395588 0.122142 -0.91027
0.077427 -0.445526 0.090647 -0.412219 -0.103568 0.905179
0.176987 0.183854 0.112929 0.109887 -0.725043 0.67988
-0.156059 -0.0985617 0.0245386 0.398768 0.120081 -0.909156
0.176151 -0.354981 -0.122173 -0.490114 0.865166 -0.106192
-0.153568 -0.62129 -0.0370991 -0.389754 -0.131977 0.911413
-0.363128 -0.151809 -0.128951 -0.399476 0.89464 -0.200096
-0.48061 0.111413 -0.291976 -0.34422 -0.171922 0.923014
-0.109518 0.00910567 -0.0156049 -0.47762 0.85383 -0.207013
0.246963 0.214551 -0.0250002 -0.553774 0.830174 -0.0643874
0.0781571 -0.446 -0.227709 -0.164223 -0.438087 0.883805
0.231901 0.421794 0.0244175 -0.584864 0.241453 0.774361
0.245262 0.27491 0.344736 0.451287 0.0739134 -0.889313
-0.0836142 -0.000544361 -0.171368 0.51827 -0.853389 0.0558871
0.115615 0.229527 0.183184 0.408134 0.109248 -0.906362
-0.112827 -0.00024928 -0.249644 -0.325608 -0.15368 0.932932
0.310102 0.246695 -0.00558299 0.499205 -0.860252 0.103731
-0.402517 -0.175009 -0.0687254 0.519653 -0.851267 0.0728414
-0.218295 0.102844 -0.232564 0.359359 0.182376 -0.915205
0.4165 0.228311 0.00654468 0.522884 -0.848577 0.0806791
0.146393 0.54258 0.0302665 0.399029 0.122607 -0.908704
-0.203157 0.359275 0.0112821 0.526311 -0.849024 0.0464237
0.212327 0.363731 0.00189952 -0.297738 -0.259326 0.91875
0.0553776 0.333737 -0.0670183 -0.399702 -0.123743 0.908254
0.187457 0.217483 0.258867 -0.429127 0.890111 -0.153467
0.428059 0.285942 0.0137741 0.335209 0.265189 -0.904052
-0.420668 -0.162046 -0.204624 -0.338092 -0.225485 0.913701
0.192349 -0.364358 0.150326 -0.439015 -0.0519607 0.896976
0.549601 -0.106896 0.126446 -0.60047 0.799501 0.0152713
-0.027144 0.501345 -0.049847 0.270337 0.165651 -0.948408
0.36998 -0.214884 0.181916 0.460006 -0.871659 0.169132
-0.186629 -0.0611648 -0.255966 -0.505851 0.857287 -0.0957763
0.290235 0.25359 0.0564134 -0.520845 0.851585 -0.0593625
-0.215691 0.299561 -0.147309 -0.424014 -0.0766156 0.902409
-0.229504 -0.0109708 0.0144535 -0.36228 -0.138069 0.921786
-0.115285 -0.0242278 -0.268588 0.461031 0.0552457 -0.885663
-0.108567 0.44883 -0.0783692 -0.42009 -0.0974823 0.902231
-0.108962 0.0821411 0.0793381 -0.422873 -0.0853682 0.902159
-0.354341 -0.138571 -0.00480057 0.418596 -0.885031 0.203707
-0.127104 0.183132 -0.12782 0.46388 -0.862864 0.200703
0.0453795 0.505904 0.205164 -0.45781 -0.0608693 0.886964
0.0834863 0.0761106 0.0455664 -0.409022 -0.110087 0.90586
-0.119751 0.0137484 0.127069 0.575116 -0.817936 0.0149272
-0.0876873 0.195555 -0.143821 0.0833347 -0.703407 0.705885
-0.117339 0.191781 -0.153647 -0.623564 0.712568 0.321581
0.0453121 -0.444861 -0.179971 0.361004 -0.9082 0.211774
-0.128478 -0.0106948 -0.0104628 0.462027 -0.862959 0.204529
0.111074 0.567599 0.226466 -0.447524 0.866423 -0.221433
0.29591 0.291585 0.268702 0.0739464 0.411777 -0.90828
0.128212 0.166619 0.149343 -0.555465 0.828213 -0.0743138
0.11829 0.361243 0.193453 0.555522 -0.828946 -0.0651408
0.00634157 0.280324 -0.0159433 -0.486639 0.85068 -0.198809
-0.069174 0.236531 -0.144132 0.435437 0.0824457 -0.896436
0.137724 0.178079 0.0783332 0.407337 0.108345 -0.906829
-0.204528 0.427637 0.0716634 -0.493005 0.859911 -0.132287
-0.313647 0.0635416 -0.201664 0.488209 -0.865727 0.110308
-0.412794 -0.263108 -0.11284 0.443585 0.073961 -0.893175
-0.275865 -0.0811855 -0.0272688 0.0622798 0.594425 -0.801735
-0.0553129 0.392313 -0.0639208 -0.413157 -0.103748 0.904731
-0.142654 -0.00767068 -0.000900538 -0.487921 0.864506 -0.120673
0.0418899 -0.421604 0.0247376 0.462603 -0.874175 0.147705
-0.0411865 0.260334 0.083377 -0.507459 0.859568 -0.0602335
0.109125 0.338194 -0.0176234 -0.463797 0.877697 -0.120587
0.0649847 0.324396 -0.0658806 -0.30475 -0.182687 0.934747
-0.0391517 0.250672 0.0302267 0.552637 -0.833391 -0.00719053
0.534213 -0.120872 0.170996 0.520782 -0.853667 0.00616341
-0.452592 -0.0207925 -0.248704 -0.506651 0.858968 -0.0740268
0.111787 0.198654 0.18196 0.38303 0.126792 -0.914993
0.0356533 0.134929 0.0346584 -0.419908 -0.0857495 0.903507
0.155685 0.168938 0.0961453 0.135112 -0.656857 0.741811
0.30969 0.271861 0.189587 0.503974 -0.85798 0.0994005
-0.48255 -0.039395 -0.252832 0.398378 -0.90573 0.144734
-0.346581 0.0492834 -0.295443 0.246166 0.249818 -0.936479
-0.132352 0.171469 0.0708712 0.401316 0.109054 -0.909424
-0.0465396 -0.468229 -0.302326 0.473819 0.0442481 -0.87951
0.383577 -0.214438 0.114419 0.555785 -0.830834 -0.028597
-0.258073 0.286457 -0.174093 0.259214 0.191715 -0.946601
0.0437508 0.0921079 0.245352 -0.38419 -0.135446 0.913265
-0.013618 0.215927 -0.123998 0.290974 0.195537 -0.936536
-0.443586 -0.001875 -0.0713007 -0.44105 -0.0769251 0.89418
-0.375402 0.0315722 -0.142253 0.430766 -0.884099 0.181132
0.503845 -0.127296 -0.00912433 0.39642 0.119471 -0.910263
-0.500011 -0.0426705 -0.188925 0.516953 -0.854028 0.058273
-0.355183 -0.144313 -0.115742 -0.499922 0.860283 -0.0999574
-0.0599936 -0.552621 0.0120252 -0.387257 -0.157726 0.90838
0.0139955 0.509097 -0.0191688 -0.286727 -0.253693 0.923811
-0.0946644 0.206467 -0.0621719 0.461164 -0.874278 0.151547
0.0129812 0.290449 -0.102492 0.326824 0.15567 -0.932176
0.00272106 0.492872 0.104571 -0.495351 0.862266 -0.105477
-0.257335 0.384685 0.0596169 -0.4542 -0.0245655 0.890561
-0.465733 -0.213019 -0.077277 0.494122 -0.857128 0.145515
-0.211549 -0.0601683 -0.027815 0.573954 -0.818795 0.0123004
0.0537123 0.0781338 0.139324 0.470399 -0.111934 -0.875326
-0.421266 0.013819 -0.130517 -0.543357 0.839439 -0.0102248
-0.0572615 0.0399336 0.075621 0.594951 -0.777269 -0.20466
-0.335916 0.259251 -0.187271 0.528414 -0.845017 0.0820031
0.430218 -0.180903 -0.0393327 -0.374137 -0.144437 0.916056
0.108432 0.16344 0.218597 -0.570584 0.820728 -0.0289846
-0.422968 -0.0107196 -0.275803 0.493456 -0.863624 0.103223
0.183264 0.420392 0.258472 -0.472802 -0.0229682 0.880869
-0.0556386 0.124123 0.10123 0.370136 0.155311 -0.915903
0.0773758 0.311751 0.0297039 0.510206 -0.854856 0.0944007
0.101409 0.333892 0.05602 0.516009 -0.856337 -0.0205223
-0.253852 -0.134773 -0.330398 -0.337028 -0.221649 0.915032
0.0639495 0.30631 0.0174645 0.51898 -0.85251 0.0623418
0.132306 0.170101 0.133103 -0.477582 0.860465 -0.177524
-0.170757 0.35595 -0.115762 0.0737763 -0.686944 0.722956
-0.180837 -0.534092 -0.0347523 -0.348999 -0.15246 0.924638
0.174556 0.168631 -0.0586827 0.51262 -0.852987 0.09815
0.0582543 0.100058 -0.114264 -0.555564 0.828898 0.0654023
-0.502746 0.142797 -0.0821953 -0.411215 -0.0635613 0.90932
0.502149 -0.154489 0.0642208 0.503448 -0.86064 0.0764103
-0.162613 -0.0284674 -0.0158013 0.507193 -0.858003 0.0811585
-0.0677578 -0.524712 -0.280677 0.47954 -0.869248 0.120205
-0.090223 0.206025 -0.097338 0.389736 -0.905424 0.168268
-0.285932 -0.156001 -0.0411782 0.391524 0.129221 -0.91105
-0.133148 -0.0452478 0.14128 0.374809 0.150689 -0.914774
-0.203634 -0.0417318 0.109067 0.615033 -0.303311 -0.727831
0.0916172 0.153514 0.271945 -0.307104 -0.26429 0.914242
-0.210473 -0.0803644 -0.274308 -0.494867 0.861312 -0.115102
0.158907 -0.345837 0.117736 0.574443 -0.773789 -0.266957
0.32933 0.259919 0.0156682 0.468504 -0.872988 0.135635
0.137793 0.113273 0.070391 0.530879 0.0524923 -0.84582
0.0799053 0.327252 0.112139 0.498505 -0.860949 0.101295
-0.150682 -0.0196301 -0.066029 -0.505495 0.857522 -0.0955546
-0.0444574 0.0553282 -0.00344864 -0.697835 0.450188 0.557096
-0.0593657 0.103018 0.189193 0.327898 0.219995 -0.918741
0.148976 0.094114 0.188765 0.389947 -0.895089 0.216236
0.320049 0.277466 0.0726577 -0.391548 0.908065 -0.148687
-0.417664 0.200806 -0.218876 0.511634 -0.857201 0.0586311
-0.251673 -0.0829141 -0.0604696 0.463472 -0.874281 0.144316
0.0699429 0.525814 0.147681 0.452468 -0.883394 0.122013
-0.498629 0.165142 -0.19012 0.51816 -0.851801 0.0771045
-0.257235 -0.101469 -0.244808 -0.455277 0.867924 -0.198571
-0.118481 -0.466414 -0.317312 -0.328623 -0.139241 0.934141
-0.459897 -0.195945 -0.117295 -0.782462 -0.538532 -0.31263
-0.00160982 0.219208 0.135542 0.292363 0.194387 -0.936343
-0.527966 -0.00796389 -0.123698 0.373711 0.157093 -0.914145
0.246555 0.443952 0.193846 -0.3467 0.886974 -0.305084
0.568 -0.135443 0.0306161 -0.360687 -0.197123 0.911618
-0.329185 0.212833 -0.211937 -0.447451 -0.0126479 0.894219
0.147377 0.586231 0.165581 -0.451163 0.881532 -0.139117
-0.125495 0.0352998 0.152563 0.411334 0.0847392 -0.907537
0.0106163 0.516916 0.191037 -0.411928 -0.0985424 0.905873
-0.042419 -0.490336 -0.295715 0.404598 0.109585 -0.907905
0.283111 0.235742 -0.0218508 -0.515034 0.852794 0.0864999
-0.114128 0.19044 0.0928019 -0.407866 -0.10004 0.907545
0.139124 0.188893 0.20253 -0.355067 -0.251642 0.900335
-0.381523 0.0278514 -0.156363 0.511089 -0.855014 0.087965
-0.0806143 -0.0386144 -0.0427117 0.466651 -0.862716 0.194827
-0.47187 0.152919 -0.285659 0.321183 0.260328 -0.910533
0.0451112 0.0946263 0.00847902 0.557889 -0.827341 0.0653211
0.0869634 -0.390699 0.0832532 0.60832 -0.540497 -0.581214
0.166245 0.167461 -0.0715818 -0.535507 0.843768 -0.0358949
0.446435 0.286497 0.0294242 -0.468473 -0.0775704 0.880066
0.29925 0.326471 -0.0259647 -0.421083 -0.0927962 0.902263
0.39911 -0.212925 -0.0299572 -0.529842 0.847414 -0.034012
-0.540142 0.0963423 -0.114667 0.346931 0.20766 -0.914613
0.0527494 -0.530603 -0.263358 0.375619 0.158803 -0.913067
0.258554 0.260024 0.339639 0.561177 -0.826362 -0.0469798
-0.0812429 -0.417388 0.0136226 0.283523 0.25558 -0.92428
-0.0558554 0.452629 -0.0586333 -0.520308 0.109023 0.846991
0.271717 0.248231 0.20299 0.565182 -0.824469 -0.0286422
0.208362 -0.246208 0.175014 -0.397342 -0.119161 0.909901
0.443312 -0.185073 -0.0448291 0.366828 0.189572 -0.910769
0.0598394 0.109274 0.00362004 -0.516658 0.85253 -0.0791092
-0.163997 -0.0169276 0.122001 0.617128 -0.734902 -0.281196
0.0751891 0.073078 0.158926 -0.498344 -0.0795451 0.863322
0.17664 0.233226 0.216723 0.580502 0.0104487 -0.814192
-0.262749 -0.0902518 -0.109061 -0.384442 0.908971 -0.161172
-0.339045 0.0680731 -0.087684 -0.528736 0.848783 -0.00228896
-0.152903 -0.557817 -0.0403723 0.493518 -0.111588 -0.862548
0.471035 -0.139575 0.269381 -0.486374 0.85465 -0.181697
0.573249 -0.130933 0.0167768 0.49816 0.00793391 -0.867049
-0.0673927 0.0523776 0.154883 -0.473969 0.862838 -0.175684
0.217194 -0.37404 -0.171465 0.337441 0.173491 -0.925221
-0.21223 -0.0678054 -0.12506 -0.451008 0.85492 -0.256328
-0.0303155 0.445032 0.162611 -0.383229 -0.137647 0.913339
0.243238 0.251667 0.278082 -0.673811 0.738608 0.0208912
0.0478858 0.120937 0.190096 -0.508162 0.861195 0.0107138
-0.212116 -0.556503 -0.0626776 0.350277 0.174284 -0.920289
0.42475 -0.19524 0.0464964 0.484891 -0.866271 0.120227
-0.399815 0.0289435 -0.101794 -0.543461 0.836577 -0.0692043
-0.32434 0.230867 -0.204699 -0.327508 -0.280868 0.902137
0.0932909 0.118225 0.173371 -0.334352 -0.202804 0.920369
0.238322 -0.393103 -0.165293 0.391479 0.172876 -0.903802
0.154269 -0.43842 -0.196951 -0.433877 -0.0972433 0.895709
0.251162 0.433274 0.173014 0.496124 -0.855888 0.146002
0.0821726 0.559753 0.219288 0.125457 0.486137 -0.86483
0.23915 0.295355 0.347088 0.442224 -0.00149237 -0.896903
0.115734 0.338666 0.0656967 0.417738 -0.893453 0.165038
-0.508521 0.15333 -0.216394 0.523624 -0.851251 0.0344974
-0.334812 -0.155386 -0.172647 0.389288 0.169882 -0.905315
0.0337704 0.0665882 -0.171365 -0.0422953 -0.606032 0.794315
-0.393701 -0.256369 -0.0982803 0.386604 0.139904 -0.911572
-0.154892 -0.0101053 0.0829486 0.452429 -0.872551 0.184293
0.146581 -0.297589 0.130715 0.375592 0.128064 -0.917894
0.394236 -0.164993 0.258054 0.415309 0.0920847 -0.905008
0.0373359 0.0645619 0.140632 -0.449163 -0.0808943 0.88978
-0.350219 -0.0727064 0.0413088 0.501201 0.11408 -0.857778
-0.394928 -0.137434 -0.187927 -0.317842 -0.229842 0.919864
-0.416357 -0.230434 -0.00392747 0.527136 -0.848855 0.0396601
-0.474505 0.190009 -0.117106 -0.520954 0.851044 -0.0658059
-0.26793 0.316097 0.0303839 0.632968 -0.656724 -0.409957
-0.222095 0.348936 0.00597578 -0.458211 0.879499 -0.128544
-0.136123 0.178308 -0.143626 -0.510436 0.854832 -0.0933679
0.228178 -0.298597 0.0971628 -0.499699 0.860319 -0.100755
-0.2739 0.100759 -0.114409 -0.554606 0.831301 -0.0367393
-0.0940415 0.127872 -0.164382 0.489377 -0.864643 0.113592
-0.42716 -0.0573023 -0.0767539 0.507498 -0.857003 0.0894002
0.0601191 0.298367 0.181111 -0.428546 -0.0877581 0.899248
-0.307247 -0.112037 -0.072256 -0.47569 0.871167 -0.121605
0.183693 0.416884 -0.0111074 0.4442 0.0271756 -0.895515
0.16535 0.374766 -0.0209541 0.440941 0.0975689 -0.892217
0.147486 -0.361386 0.0156137 0.54051 -0.840154 0.0446204
0.427255 -0.218015 0.274211 -0.446959 -0.0351398 0.893864
0.0166602 0.480224 0.19121 -0.564878 -0.100365 0.819048
0.103942 0.139114 0.123274 0.483475 -0.864901 0.134902
-0.0881519 0.418359 -0.0191062 0.57788 -0.816112 -0.00392758
0.274177 0.439638 0.0764656 -0.625464 0.778707 -0.0490909
0.342352 0.269133 -0.0292662 0.410341 0.119736 -0.904037
-0.0182756 0.0765004 0.157691 0.489219 -0.844706 0.21711
-0.408871 -0.211233 -0.105331 0.398921 0.0814213 -0.913363
0.160682 0.177495 0.122985 0.495112 -0.861066 0.115883
0.48393 -0.15314 0.0776271 -0.391814 0.896474 -0.206922
-0.388773 -0.170544 -0.103788 0.509805 -0.854969 0.0955317
0.235002 -0.369327 0.154967 0.515731 0.0608476 -0.854587
0.177696 0.0879021 -0.110936 -0.432394 -0.0976593 0.896381
-0.354077 0.0348113 -0.251877 -0.557347 0.828088 -0.0602859
0.273912 0.454982 0.155506 -0.45024 0.884897 -0.119337
-0.241821 0.288583 -0.158407 -0.521498 -0.0195568 0.853028
-0.307209 0.293964 -0.0409105 0.420502 -0.890744 0.172489
0.0845156 0.131935 0.0816944 0.413789 -0.896965 0.155669
-0.31714 -0.137768 -0.170238 0.560115 -0.82708 0.0470049
-0.0833805 0.394582 -0.0754458 -0.397551 -0.120078 0.909689
-0.247799 0.0795701 -0.241759 0.405203 0.0990104 -0.90885
0.192491 0.20467 0.204084 0.502296 -0.859272 0.0966994
-0.535932 -0.0224271 -0.132014 0.383411 0.168918 -0.907999
0.196967 0.39352 0.0385267 -0.514947 0.855802 0.0493234
0.149886 0.253421 0.218022 -0.41029 -0.0628751 0.909785
0.069834 0.332591 -0.0710175 0.376365 0.27195 -0.885659
0.0322945 -0.51019 0.0545739 0.438644 -0.886986 0.144387
-0.492668 -0.211118 -0.0348066 -0.353511 -0.160579 0.921545
0.402085 -0.0903425 0.27975 -0.561129 0.827722 0.00327433
-0.134819 0.19087 -0.17008 -0.354428 -0.241356 0.903398
-0.38344 -0.160187 -0.192897 0.396107 0.123542 -0.909855
0.135191 -0.434969 -0.201919 -0.403098 -0.105828 0.909017
0.266043 -0.228536 0.19966 -0.406901 -0.114825 0.906227
0.280164 0.249411 0.132191 0.499214 -0.860546 0.101221
-0.211948 -0.141343 -0.315234 -0.464021 -0.0491035 0.884462
0.18402 0.388591 0.123307 0.479395 -0.868138 0.128517
0.242671 0.213228 -0.0561616 -0.59973 0.778619 0.184598
-0.0618821 0.386983 -0.076261 0.33364 0.160273 -0.928976
0.273326 -0.288701 -0.137712 0.360274 0.194999 -0.912238
0.0357802 -0.432283 -0.0946507 -0.485671 0.858014 -0.16714
-0.0467607 -0.495554 0.0258489 -0.477791 -0.0447547 0.877333
0.0979816 0.566851 0.017682 0.416164 0.104475 -0.903268
0.293879 0.25504 0.0599256 -0.413887 0.866282 -0.279737
-0.320462 0.266129 -0.14067 0.515792 -0.852644 0.0834099
0.416163 -0.156821 -0.0439609 -0.406567 -0.106633 0.907377
0.424916 -0.120479 0.285147 -0.409443 -0.0918877 0.907697
-0.355616 -0.153877 -0.134927 0.530785 -0.84334 0.0839316
-0.371685 -0.209311 -0.19713 0.40476 0.0804551 -0.910877
0.437898 -0.189238 -0.00250475 -0.531873 0.842692 -0.0835575
-0.361197 0.119748 -0.0234682 -0.403766 -0.0567473 0.913101
-0.391092 0.00914493 -0.256759 0.614701 -0.788358 -0.0251863
-0.199455 0.132633 -0.167391 0.493587 -0.860141 0.128571
0.131266 0.357219 0.0933996 0.375271 -0.910922 0.171442
0.29531 0.190527 0.270376 -0.364882 -0.180735 0.913343
0.585834 -0.0879028 0.140667 -0.470932 0.866055 -0.167846
0.433177 -0.189465 -0.0146381 -0.528152 0.844408 -0.0896127
0.048927 0.305798 0.0183747 -0.543263 0.838268 -0.0466113
0.570599 -0.0923385 0.241228 0.463399 -0.874551 0.142903
-0.263813 0.303129 -0.175147 0.38528 0.145424 -0.911269
-0.202064 0.00543453 0.116195 0.408158 0.0766547 -0.909687
0.31464 0.265826 0.0843878 -0.487878 0.855828 -0.171851
-0.0835194 0.22167 0.00278365 0.455383 -0.87337 0.172775
-0.0271158 -0.492138 -0.244895 0.473894 -0.865178 0.163984
-0.0865669 0.435522 0.114749 0.598426 -0.801141 0.00764618
-0.145014 0.0185409 0.144128 -0.0158216 0.549863 -0.835105
-0.0387384 0.536444 0.165947 0.306218 0.305199 -0.901712
0.139675 0.182142 0.0785418 0.489328 -0.0352872 -0.871385
0.1143 -0.338799 0.107229 0.39875 0.103031 -0.911254
-0.372819 0.0324283 -0.255785 -0.508485 0.853903 0.110875
0.205798 0.220471 0.199165 -0.525713 0.846953 0.0793543
-0.00671524 0.153129 0.122175 0.381827 0.183562 -0.905822
0.463735 -0.119476 0.304431 -0.357871 -0.157303 0.920426
-0.180888 -0.0435841 -0.0696553 0.443761 -0.864678 0.235391
0.170196 0.210054 0.281804 -0.439106 0.870294 -0.223101
0.42384 -0.0895054 0.275488 0.263887 0.217256 -0.939768
0.339486 0.272055 0.0644357 0.534219 -0.842419 0.0702843
0.204248 0.193267 0.0148711 -0.568001 0.82261 0.0262124
0.0841777 0.121471 -0.160299 0.289441 0.165263 -0.942821
0.239264 0.284955 0.133651 0.448443 0.102803 -0.88788
-0.116077 0.0120744 0.0740544 0.538977 -0.839918 0.063573
-0.0126318 -0.477993 -0.114278 0.560615 -0.827711 0.0245976
0.483166 -0.157195 0.116873 0.503679 -0.858872 0.0929863
0.252497 -0.404744 -0.147437 0.429867 -0.89427 0.124484
-0.164795 0.396728 0.0833659 -0.441313 0.859839 -0.256748
0.521112 -0.107578 0.289503 -0.442725 0.882862 -0.156681
-0.156876 -0.0820282 -0.0792262 -0.400192 -0.106775 0.91019
0.0161169 0.0425617 0.130711 -0.39453 -0.126605 0.910119
0.141819 0.209179 0.191546 0.341463 0.188136 -0.920873
0.081091 0.395712 0.197399 0.360789 0.148921 -0.920681
0.141509 -0.363487 -0.0411307 -0.512125 0.855124 -0.0805643
0.0218996 0.00728102 -0.193558 -0.429001 -0.08506 0.89929
0.0196143 0.498114 0.131488 0.482236 -0.836811 0.259224
-0.173702 -0.572205 -0.219126 -0.753375 -0.510587 -0.4144
-0.252177 -0.0900055 -0.0959342 0.538608 -0.840571 0.0578091
-0.252709 -0.120328 0.0769383 0.33919 0.171059 -0.925035
0.566452 -0.0603522 0.0375048 -0.362085 -0.171827 0.916171
-0.0956501 -0.527983 -0.18315 0.491721 -0.863438 0.112629
0.0430911 0.140942 0.24932 -0.396334 -0.122743 0.909864
-0.209189 -0.0688214 0.00563761 0.458594 0.020774 -0.888403
0.234325 0.417407 0.266413 0.437207 -0.0143731 -0.899246
0.279624 0.238693 0.0149993 -0.55392 0.829262 -0.0741411
-0.189686 0.343765 -0.119365 0.325536 -0.843121 0.427986
-0.176559 0.0609996 0.0454265 -0.344341 -0.200888 0.917101
-0.0566583 0.0103004 -0.238245 0.459458 0.102085 -0.882313
-0.0461916 -0.490786 -0.176783 -0.490674 0.863554 -0.116253
0.093087 0.537092 0.0468125 -0.519225 0.853857 -0.0365313
0.137747 0.190986 -0.126275 0.394636 -0.067245 -0.916374
0.27596 0.232095 0.354545 0.33845 0.171019 -0.925313
0.224557 0.228252 0.33625 0.536971 -0.217737 -0.815017
0.232749 -0.402775 -0.155353 -0.396732 -0.122391 0.909738
0.0186958 0.484329 0.18121 0.376212 0.169104 -0.910971
-0.197017 -0.0846735 0.105355 0.41408 0.10926 -0.903659
0.324748 -0.257512 0.0199439 0.392196 -0.8946 0.214182
0.216159 -0.32802 -0.0350506 0.475655 -0.865394 0.157626
-0.0913365 0.437181 0.102781 -0.51685 0.855403 -0.0339333
-0.193216 0.358486 -0.0763257 -0.437561 0.882953 -0.170103
-0.415307 -0.0632419 -0.324156 -0.390015 -0.155738 0.907543
0.14361 0.122942 -0.116978 -0.360901 -0.194724 0.912049
-0.234499 -0.0829571 -0.151633 0.445786 -0.886256 0.1258
0.299269 0.249526 0.109319 0.487585 -0.863466 0.12918
0.370464 0.355251 0.00859577 -0.310584 -0.235745 0.920848
0.144161 0.375863 0.157841 -0.551906 0.829961 -0.0810288
-0.141688 0.357863 0.0963965 0.362356 0.151586 -0.91963
-0.166771 -0.033239 -0.0402738 0.473696 -0.856233 0.206098
0.0468411 -0.362905 -0.242024 0.194542 0.212254 -0.957654
-0.0123586 0.0655048 0.0301021 0.506396 -0.858867 0.0768827
-0.22548 -0.0240855 -0.10339 0.515181 0.0500022 -0.855622
-0.42137 -0.19089 -0.159328 -0.451145 0.880705 -0.144317
0.266859 0.154292 -0.0621678 -0.38009 -0.147139 0.913171
-0.124989 -0.494273 -0.332563 0.292031 0.244808 -0.924547
-0.284268 -0.0197517 -0.0191603 0.403434 0.122249 -0.906806
0.232682 -0.379359 -0.164378 0.405814 0.0859127 -0.909909
0.409618 -0.19124 0.273218 -0.417115 -0.0928868 0.904095
-0.162337 0.0338892 -0.267916 -0.42376 -0.0763799 0.902548
0.14262 0.139632 -0.0874038 0.479661 -0.865134 0.146521
-0.242775 -0.0726408 -0.06415 -0.512106 0.854463 -0.0874118
-0.405388 0.0587087 -0.316462 0.413609 0.10578 -0.904289
-0.00157245 0.251016 0.138571 0.326523 0.182615 -0.927381
0.128478 0.143891 0.0281237 0.396602 -0.867353 0.300677
-0.212094 -0.0812128 -0.287251 -0.498883 0.864221 -0.0650988
0.390966 0.274438 0.00560182 -0.486357 -0.0287035 0.873289
-0.115259 -0.523755 -0.0027191 -0.394846 -0.124901 0.910218
0.23009 0.231974 0.283019 0.33056 -0.932871 0.143114
-0.353968 -0.145063 -0.0549873 -0.36439 -0.16424 0.916649
-0.0552564 -0.409317 0.0223063 0.384337 0.133744 -0.913453
-0.277063 -0.137652 0.0638231 0.472028 0.0779948 -0.878127
-0.288633 0.0883091 -0.0975801 0.41854 -0.900708 0.116407
0.185485 -0.332023 0.113522 0.431689 -0.890052 0.146462
0.225609 -0.315028 0.0259963 0.474934 -0.866587 0.153182
0.078484 0.111707 -0.00158808 0.446428 -0.880154 0.16134
0.314811 0.304337 0.170086 0.341313 0.174332 -0.923642
-0.176089 0.322921 -0.136266 0.367029 0.137505 -0.91999
0.439728 -0.171728 0.19969 0.541587 -0.839212 0.0490632
0.014569 -0.380078 -0.253531 -0.428075 0.883105 -0.192034
0.353488 -0.225387 0.170984 0.470753 -0.84328 0.259366
-0.255046 -0.103365 -0.258314 -0.41081 0.893224 -0.182718
0.333465 0.314849 -0.0135251 -0.375929 -0.143894 0.915408
-0.233555 -0.0821246 -0.131877 0.516186 -0.855189 0.0469438
0.243928 0.251227 0.31339 0.532578 -0.846346 0.00765508
-0.143047 0.184219 0.0187823 0.52522 -0.850166 0.0368908
