ply
format ascii 1.0
comment Created by Open3D
element vertex 829
property double x
property double y
property double z
property double nx
property double ny
property double nz
end_header
0.0502496 0.0281107 -0.17214 -0.83319 -0.330453 -0.443391
0.0517721 0.0408539 -0.0610013 -0.768223 -0.409746 -0.491875
0.0552057 -0.241223 0.437981 0.176314 0.556259 -0.812089
-0.104436 -0.0487894 0.44238 -0.837391 -0.289685 0.463529
-0.0617984 0.137233 0.065408 0.799188 0.479897 0.361935
0.064208 -0.122509 0.3757 0.548736 -0.783786 -0.290805
-0.203001 0.291692 0.240112 -0.95365 0.298737 0.0361634
0.23239 -0.147533 -0.242432 0.235555 -0.799821 0.552086
-0.0952888 -0.106658 0.398668 -0.790761 -0.401422 0.462123
0.0822821 0.421646 -0.149613 0.777158 0.429314 0.460125
0.00882089 -0.208317 0.429775 -0.539924 -0.72428 0.428836
0.0122466 0.0934654 -0.183525 -0.13586 -0.534824 0.833969
0.248558 0.0254627 -0.288742 -0.268561 0.921099 -0.281873
-0.131292 -0.0658385 0.377856 -0.646014 -0.540559 0.538945
-0.139542 0.403303 0.257673 0.791671 0.377998 0.479974
-0.0483705 0.098539 0.249885 -0.540129 0.197674 0.818038
0.251761 -0.296447 0.0123795 0.296908 0.29236 -0.909049
-0.0161646 0.21878 0.0777266 0.534622 -0.825291 -0.181862
-0.168678 0.407218 0.192356 -0.957889 0.285827 0.0274036
0.222281 -0.320146 0.206025 -0.554081 0.183169 0.812061
0.26239 0.217572 -0.373002 -0.325194 -0.334481 0.884518
0.0549511 0.355977 -0.262482 -0.527703 0.314655 -0.789001
-0.185185 0.181745 -0.0443289 -0.442931 0.890451 0.104445
-0.045876 0.130479 0.242642 -0.58139 0.167583 0.796179
0.132491 0.357423 -0.301902 -0.429305 0.0744353 -0.900087
0.0299352 -0.216965 0.446736 -0.671959 -0.670002 0.315545
0.0541684 0.383159 -0.247985 -0.523416 0.325428 -0.787485
0.0502562 -0.138085 0.113773 0.795039 0.455212 0.400868
-0.0788429 0.283898 -0.167385 -0.497664 0.237458 0.834233
0.360938 -0.0652786 -0.323375 -0.15805 -0.404125 -0.900946
0.102726 0.296402 -0.0760223 0.640752 0.369828 0.672803
0.2806 -0.198639 0.0571868 0.804195 0.400352 0.439305
-0.223488 0.165841 -0.0634692 -0.390967 0.91777 -0.0695926
-0.131104 0.158295 0.00210309 0.491571 -0.857184 -0.153598
-0.219086 0.109828 -0.00475062 0.451034 -0.873904 -0.181272
0.0889619 -0.083029 -0.0157472 -0.802447 -0.408883 -0.434619
-0.0281657 -0.141257 0.470203 -0.724522 -0.554188 0.40981
-0.018632 0.487973 -0.11588 0.163371 -0.894278 0.416626
0.282541 -0.249561 0.101057 0.909492 0.295936 0.291969
-0.0394543 -0.171932 0.115492 -0.0527717 0.779759 -0.623852
-0.135001 0.136231 0.0673437 -0.818502 -0.366358 -0.442535
-0.0948967 0.412823 0.157994 0.228679 0.439527 -0.868632
-0.131853 0.429215 0.228068 0.793417 0.418542 0.441942
0.0405974 -0.0192086 0.00886392 -0.798297 -0.444117 -0.406794
-0.154607 0.412502 0.293873 -0.539174 0.737659 0.406388
-0.114851 0.280317 0.0909891 0.304552 0.296346 -0.905222
-0.0874139 -0.0177508 0.296796 -0.410353 0.902227 -0.132653
-0.115911 0.0809565 -0.258452 -0.810297 -0.472892 -0.346109
0.333314 -0.0208393 -0.200074 0.784892 0.480595 0.391118
-0.0367432 -0.0424192 0.504149 0.803221 0.279345 0.52612
0.0797336 -0.123557 0.238445 -0.036527 -0.674034 0.737797
-0.0825377 0.0361296 0.49493 0.180733 0.522933 -0.832993
-0.0158694 -0.268193 -0.113231 -0.05686 -0.856269 -0.513391
0.221582 -0.358533 0.313395 0.181643 -0.852699 0.489806
-0.129292 0.190006 0.202829 -0.0593946 -0.686564 0.724639
-0.119745 0.220849 0.23293 -0.0262766 -0.723472 0.689853
-0.0315693 0.202763 -0.017754 0.22484 -0.916384 0.33119
0.345136 -0.0161214 -0.226842 0.803955 0.445236 0.394236
0.08641 0.292951 -0.299542 -0.503581 0.261092 -0.823552
-0.150732 -0.213237 0.100872 -0.803772 -0.286751 -0.521271
-0.00943743 -0.0904517 0.180313 0.745579 0.45584 0.48613
0.368541 -0.0042703 -0.290313 0.799186 0.467698 0.377571
0.179496 -0.358745 0.0939946 -0.269491 -0.953544 -0.134645
-0.11291 0.0080823 0.143696 -0.804281 -0.410276 -0.42989
-0.0296664 -0.185844 0.169793 -0.0687645 -0.655369 0.752172
0.0294746 -0.0347108 -0.210113 -0.430317 -0.0506557 0.901255
-0.0822377 0.24251 -0.156438 -0.551828 0.258514 0.792878
0.000582857 0.228663 0.0534533 0.458497 -0.88713 0.0527417
-0.0352372 0.312566 -0.215573 -0.580174 0.369439 -0.725888
0.207292 0.305616 -0.351672 -0.317353 0.135099 -0.938635
0.141801 -0.210049 -0.0251793 0.600827 -0.606263 -0.521011
0.199832 0.127032 -0.108977 -0.271165 -0.320055 0.907763
0.0774504 -0.154549 0.118939 -0.2892 0.905026 -0.311915
0.028427 -0.00795209 0.233488 0.215364 0.386669 -0.896719
-0.0192442 0.276943 0.161878 0.793116 0.370926 0.483095
-0.0757315 0.298433 0.244516 0.789409 0.458498 0.408181
0.0680215 0.179597 -0.105543 0.100206 -0.739118 0.666081
-0.0530075 -0.288072 0.0397227 0.0328375 -0.597451 0.801233
0.279391 -0.103639 -0.0359273 0.78942 0.437626 0.430465
0.329181 -0.133333 -0.234396 0.168198 -0.860553 0.480788
0.0554862 -0.118544 0.0923921 0.808021 0.487899 0.330237
0.0513502 0.0148724 -0.0451524 -0.788003 -0.423244 -0.447119
0.277585 -0.308708 0.170254 0.820719 0.416597 0.390983
0.103688 -0.0853213 -0.0491609 -0.808594 -0.390268 -0.440304
0.0663546 -0.0935699 0.0479631 0.804549 0.422872 0.416989
0.168106 0.128043 -0.123496 -0.250403 -0.373245 0.893301
0.160637 0.187896 -0.0887909 -0.182315 -0.533334 0.826024
0.00400591 -0.295836 -0.0257377 -0.197173 -0.963902 -0.178929
-0.133951 -0.0391173 0.312203 -0.447431 0.894012 0.0234091
-0.0497023 0.176767 0.124641 0.582881 -0.689646 -0.429696
0.242062 -0.0933504 0.0104005 -0.654728 0.696498 0.293637
0.094258 0.413342 -0.171277 0.803975 0.397575 0.442219
0.00451805 -0.207852 0.0350927 -0.452672 0.854691 -0.254147
-0.251459 0.167701 0.0663869 -0.953237 0.286714 0.095572
0.00648221 0.285871 -0.110985 -0.569247 0.306894 0.762741
-0.0536818 0.254689 0.0204507 -0.483696 0.875184 0.0095792
0.303854 -0.258551 0.0675488 0.822655 0.373151 0.428949
-0.0486589 -0.168933 0.292158 0.575331 -0.739409 -0.349668
-0.00108117 0.19892 -0.281131 0.605464 -0.614202 -0.506133
0.0665376 0.455422 -0.223562 -0.4922 0.305147 -0.815245
-0.131196 0.467899 0.117671 0.561054 -0.786155 -0.259187
-0.159824 0.0284737 0.135834 0.561653 -0.269933 -0.782101
-0.266263 0.114887 0.0878854 -0.966713 0.187639 0.173945
0.212905 -0.368767 0.211161 -0.257749 -0.961576 -0.0945349
0.00213489 0.00402769 -0.273851 0.421116 0.211617 -0.881975
0.00667615 -0.146369 0.326002 0.569239 -0.73539 -0.367652
-0.172684 0.139504 -0.0108255 0.491754 -0.865872 -0.0918917
0.195794 0.0490664 -0.124693 -0.462136 0.0068695 0.886782
0.132745 -0.337271 0.0443375 0.0429642 -0.981829 -0.184841
-0.147877 0.209318 -0.0332736 -0.361801 0.925126 -0.115075
0.0325393 0.0438336 0.246239 0.466382 0.0499206 -0.883174
-0.144865 0.315337 0.355007 0.736941 0.463996 0.491554
0.0331114 0.500016 -0.156744 -0.148749 0.873076 -0.46434
0.10109 -0.112457 -0.0680069 -0.59741 0.65972 0.455929
-0.142824 0.472864 0.166579 -0.921788 0.376322 -0.0932141
0.0218219 0.113187 0.235117 0.550574 -0.119975 -0.82612
-0.0539775 0.280651 0.104499 0.296659 0.345299 -0.890372
-0.0700575 -0.00148567 0.377932 -0.470463 0.88171 0.0353856
-0.115091 0.13897 0.0136905 -0.747877 -0.471605 -0.467193
-0.147669 -0.00570858 0.207611 -0.447851 -0.0414815 0.893145
0.0208711 0.194378 -0.0818732 0.101903 -0.788175 0.606956
-0.0244045 -0.106108 -0.249842 -0.821402 -0.366566 -0.436954
0.0251292 -0.0153406 0.0395372 0.792944 0.40127 0.458499
0.292778 -0.01048 -0.34442 -0.107617 -0.39018 -0.914428
-0.16139 0.141164 0.0161571 0.499887 -0.848466 -0.173835
-0.157911 0.31858 0.385866 0.757781 0.437873 0.483771
0.292876 -0.366429 0.0331397 -0.139094 -0.935496 -0.324809
-0.035496 0.0119677 0.211544 0.463617 0.0345346 -0.885363
0.0980734 -0.164162 -0.245663 0.102432 -0.809534 0.578067
0.00545256 -0.174654 -0.17584 -0.601767 0.597558 0.529906
-0.126442 0.158807 -0.0508069 0.372515 -0.913596 0.16302
0.281768 0.0587028 -0.192266 -0.442208 0.88062 -0.170177
-0.096648 -0.22996 0.0434525 -0.161806 0.83417 -0.527237
0.138039 0.380074 -0.230942 0.83333 0.418222 0.361458
0.391365 -0.272521 -0.151298 -0.55298 0.724724 0.411082
-0.169431 0.403645 0.157739 -0.915131 0.389809 -0.102881
-0.0714667 0.271589 0.267019 0.803151 0.380182 0.458705
0.337843 0.0161051 -0.253958 0.801392 0.404432 0.440688
-0.0730345 0.382845 0.154781 0.318774 0.344069 -0.883176
-0.1858 0.162179 -0.159611 -0.252892 0.887175 -0.385962
0.0423169 0.0711675 -0.144484 -0.165442 -0.412825 0.895659
0.195079 -0.0360325 -0.10441 -0.590843 0.413689 0.692652
0.412807 -0.0795217 -0.319529 0.519684 -0.208078 -0.828633
0.00774971 0.0244277 -0.215681 -0.309236 -0.360877 0.879853
0.191951 -0.118045 -0.0146759 -0.528081 0.808715 0.259057
-0.210968 0.180973 0.0085868 -0.0745602 0.78953 -0.609166
-0.205413 -0.0973573 0.117168 0.321622 0.241522 -0.915547
0.0397938 -0.129764 0.158708 0.0258897 0.718471 -0.695075
0.0582059 0.16706 -0.189027 0.300511 0.199511 -0.932678
0.178898 0.0904028 -0.182521 0.463868 0.125429 -0.87698
0.176016 -0.0811193 -0.0857291 -0.599511 0.491938 0.631335
-0.0789641 0.0625174 -0.274641 -0.377881 0.200831 -0.90381
-0.0355488 0.168421 -0.0061135 0.807802 0.307124 0.503121
0.0384818 0.0635979 -0.191141 -0.843393 -0.385938 -0.373818
-0.201395 -0.0678209 0.185601 -0.53037 0.706147 0.46911
0.0743547 -0.00238197 -0.0689559 -0.831313 -0.459388 -0.312859
-0.0193741 -0.0678226 0.198728 0.30151 0.379114 -0.874851
-0.186345 -0.161574 0.163306 -0.823509 -0.40396 0.398309
1.42211e-05 -0.0236587 0.0886375 -0.796735 -0.432034 -0.422564
-0.0944831 0.141235 -0.0129505 0.440418 -0.891708 -0.10435
-0.0197636 0.0976778 0.0170151 -0.760785 -0.471846 -0.445609
0.0752368 -0.0435809 -0.162315 -0.777043 -0.283138 -0.562172
0.06267 0.371336 -0.0954172 -0.640169 0.414623 0.646739
0.357477 -0.130137 -0.237027 0.0815918 -0.813616 0.575649
0.10988 -0.0839014 0.205301 0.00193829 0.69233 -0.721579
-0.00425657 0.101732 0.279051 -0.560871 0.416903 0.715273
-0.155927 0.191841 -0.114061 -0.244072 0.903503 -0.352293
-0.179169 0.372276 0.162226 -0.925436 0.371688 -0.0735934
0.363169 -0.104249 -0.201893 0.0739815 -0.802805 0.591634
0.175084 0.353349 -0.277102 0.765457 0.365399 0.529678
0.109872 -0.238671 0.114536 -0.525945 0.149294 0.837313
0.125662 0.322503 -0.1491 0.77808 0.459939 0.427842
-0.147453 0.0822907 0.186332 -0.582794 0.347749 0.734453
-0.14078 0.112253 0.0958669 0.579369 -0.534472 -0.615363
0.187703 -0.359372 0.291941 -0.246211 -0.965269 0.0873866
0.000514459 0.174913 -0.239678 0.580407 -0.670992 -0.461409
0.128693 -0.165628 -0.249584 0.106255 -0.806713 0.581313
0.0394368 -0.156639 -0.25078 0.0354339 -0.627106 -0.778127
-0.0591025 0.255329 0.0857913 -0.131683 0.836487 -0.53193
-0.0218532 0.0416686 0.270466 -0.639037 0.107494 0.761628
0.277629 -0.0319551 -0.103418 0.776216 0.453331 0.438155
0.412618 -0.0439714 -0.332605 0.579236 -0.387621 -0.717103
-0.0668436 -0.0139919 0.156784 0.452796 0.045254 -0.890465
0.101592 -0.0510102 -0.121034 -0.521567 0.27906 0.806284
-0.130537 -0.0920134 0.350056 -0.777771 -0.462058 0.426116
-0.0131561 -0.0630182 0.476952 0.800068 0.440077 0.407705
0.0795498 -0.142794 -0.0273469 -0.510171 0.846045 0.154705
0.0582161 -0.0977901 0.0711245 0.808438 0.434813 0.396693
-0.0306065 0.198245 -0.0496365 0.807348 0.418038 0.416453
-0.0694606 0.187399 0.048431 0.515145 -0.839546 -0.172594
-0.093673 0.085752 -0.265562 -0.536612 0.32183 -0.780047
0.15309 -0.143175 0.0974554 -0.306922 0.876365 -0.371193
0.117641 -0.112819 0.167846 -0.101448 0.805946 -0.583232
-0.175271 0.266266 0.283483 0.0401416 -0.730022 0.682244
-0.170586 0.257604 0.0668418 0.246074 0.423662 -0.871755
-0.0590611 0.198901 0.0319893 0.44681 -0.894145 -0.02942
0.270381 -0.0991838 -0.299799 -0.0961047 -0.47256 -0.876043
0.0538112 -0.219805 -0.157271 0.651764 -0.462166 -0.601337
0.0571401 0.48199 -0.195906 -0.0326457 0.814765 -0.578872
-0.026607 -0.151993 0.289101 0.57086 -0.741923 -0.351665
-0.0272875 0.0624741 0.0715792 0.743945 0.448536 0.495339
-0.00338713 -0.200194 0.0592651 -0.224347 0.880669 -0.417241
-0.17453 0.3242 0.3615 -0.963249 0.176363 0.202599
-0.0637438 -0.00842711 0.306052 -0.471682 0.880203 -0.0525283
-0.103007 -0.0275806 0.458339 -0.799468 -0.40586 0.442865
-0.230951 -0.10746 0.149224 -0.790279 -0.436958 0.429565
-0.10855 0.222955 -0.200803 -0.613229 0.393373 -0.684987
-0.107481 0.182939 0.196748 -0.0160473 -0.710957 0.703052
0.055911 -0.04144 -0.197375 -0.516003 0.140327 0.845014
0.250857 -0.245311 0.154552 0.794876 0.429767 0.428337
-0.0733563 -0.084136 0.457701 -0.810892 -0.354888 0.465306
-0.147029 0.35536 0.333224 0.819218 0.391561 0.419001
-0.0522712 -0.191156 0.339968 0.557192 -0.765019 -0.322931
0.0236371 0.243444 0.0598316 0.435017 -0.899533 0.0400167
-0.155087 -0.0440753 0.351505 -0.853267 -0.240852 0.46252
0.0319278 0.0910682 -0.135112 -0.288954 -0.487224 0.824086
0.101805 -0.221998 -0.0705511 0.463702 -0.869669 -0.169284
-0.124034 0.10457 -0.184644 0.162254 -0.833316 0.528449
-0.0415124 0.0331861 0.263243 -0.448135 -0.00989239 0.893911
-0.200383 -0.156549 0.139168 -0.748187 -0.526706 0.403481
0.0987639 -0.268021 0.118942 -0.561102 0.201546 0.802835
-0.121756 0.206215 -0.0973662 -0.223793 0.89535 -0.385053
0.103861 -0.0270457 -0.303524 -0.407578 0.89101 -0.199955
0.154342 -0.325316 -0.0120345 -0.128768 -0.968858 -0.211502
0.224854 -0.112673 0.0390311 -0.550131 0.809748 0.20412
0.106385 0.0308288 -0.227668 0.437872 0.124596 -0.890362
0.227567 -0.156236 -0.00511644 0.530976 -0.822348 -0.204469
0.0530075 -0.103005 0.394562 0.802428 0.437198 0.406162
-0.0204099 0.173848 0.157814 0.520057 -0.562228 -0.642993
0.227446 0.00954995 -0.102612 -0.491892 0.0493872 0.869254
-0.0144463 0.118363 -0.225687 0.480818 0.0979944 -0.871327
-0.00239647 0.281469 0.0665132 -0.490135 0.870273 0.0489148
-0.157567 -0.141852 0.246417 -0.683091 -0.587933 0.433268
0.0912159 0.453074 -0.242875 -0.579774 0.341063 -0.739958
-0.00519928 0.414192 -0.183697 -0.726103 0.410692 -0.551459
0.421361 -0.182424 -0.227062 0.781948 0.417799 0.462603
-0.0326501 -0.28824 -0.0547262 -0.131422 -0.971601 -0.196773
0.128532 -0.26194 0.129814 -0.517647 0.139801 0.844096
-0.0287461 0.142392 -0.136539 -0.811042 -0.407263 -0.419938
-0.0198894 0.0708431 0.270556 -0.393009 -0.0265912 0.91915
0.312186 0.107052 -0.378755 -0.0528479 -0.209283 -0.976426
0.420988 -0.206678 -0.227599 0.601336 -0.610374 -0.515595
0.125217 0.298289 -0.119848 0.791119 0.428921 0.436071
0.255037 -0.0373584 -0.329019 0.0388129 -0.274166 -0.960899
0.284561 0.0172269 -0.15481 0.786284 0.427245 0.446341
0.192618 -0.155715 -0.250063 0.0809893 -0.769254 0.633789
0.157892 -0.192081 -0.0354387 0.540938 -0.817049 -0.199542
0.137012 -0.279264 0.412751 0.820878 0.354235 0.447969
-0.181316 0.358936 0.249768 -0.960683 0.266388 0.078262
0.1431 -0.347382 0.0841903 -0.182956 -0.969897 -0.160706
0.333757 -0.0590968 -0.326558 -0.0913477 -0.415879 -0.904821
0.188732 -0.0639294 -0.0903407 -0.585264 0.557756 0.588535
0.187229 0.351716 -0.303242 0.136161 -0.871557 0.471007
-0.13827 0.0694145 0.125039 -0.799432 -0.430638 -0.418878
0.201467 -0.3611 0.325613 0.305127 -0.843808 0.441458
0.0314906 -0.137065 0.464806 0.830634 0.418155 0.367687
-0.180599 0.139029 0.151573 -0.236158 -0.469393 0.850823
-0.163808 0.143249 -0.0499907 0.301482 -0.928117 0.218418
-0.00357367 -0.30639 0.0469323 -0.288529 -0.95735 -0.0152521
0.114172 -0.220212 -0.0435094 0.552448 -0.604523 -0.573893
0.00134261 0.507452 -0.0927509 0.819764 0.391598 0.417896
-0.104977 0.395252 0.148754 0.266288 0.40111 -0.876471
-0.162141 0.174207 -0.16998 -0.466578 0.880023 0.0886837
0.0250145 0.121016 -0.221069 0.12793 0.560072 -0.818507
0.0333433 0.0552242 -0.0380122 -0.711053 -0.482231 -0.51172
-0.00896829 -0.0129333 0.415185 0.790521 0.382915 0.477967
-0.0318321 0.211893 0.0181013 0.431364 -0.901574 -0.0330038
-0.000996755 0.229293 -0.271883 -0.414151 0.284491 -0.864606
0.00205645 0.205775 0.143588 0.574614 -0.714097 -0.399855
-0.0265336 0.389718 -0.180599 -0.638734 0.406775 -0.65311
0.100706 -0.139015 -0.110121 -0.762575 -0.459686 -0.455157
-0.0642196 0.499642 -0.0298402 -0.79818 0.455887 -0.393796
-0.000748565 -0.250621 -0.150586 -0.0439958 -0.849661 -0.52549
0.0226378 0.417512 -0.206727 -0.594321 0.37913 -0.709255
-0.194776 0.30163 0.283957 -0.966169 0.207028 0.153809
0.0982525 0.118048 -0.20264 0.18025 0.485948 -0.855199
-0.0312061 -0.207335 0.060678 -0.217698 0.855321 -0.470142
-0.083621 0.505965 0.069601 0.806101 0.41676 0.420134
0.123472 0.0597975 -0.158971 -0.427087 -0.141008 0.893148
0.0912357 0.218058 -0.0600378 0.139957 -0.827522 0.543709
0.349646 -0.00433012 -0.352362 -0.170591 -0.323872 -0.930594
0.305899 -0.345504 0.152681 0.822266 0.353658 0.445875
0.0391101 0.0885819 -0.0884421 -0.841347 -0.402435 -0.360806
-0.174039 0.128381 -0.192568 -0.845545 -0.382303 -0.37269
0.163691 0.0430261 -0.195226 0.391186 0.182754 -0.901983
0.0573045 0.0734902 -0.237266 0.437887 0.315885 -0.841708
-0.0535 0.0733383 -0.208556 -0.027859 -0.589184 0.807518
0.180039 -0.0519023 -0.1139 -0.488926 0.289209 0.822988
-0.147329 0.135238 0.159221 -0.452656 -0.0670881 0.889158
0.231634 0.113716 -0.154514 0.807018 0.423225 0.411828
0.0288499 -0.100517 -0.276264 -0.061431 -0.317165 -0.946379
-0.119987 -0.0325974 0.293417 -0.407294 0.899808 -0.156385
0.0170299 0.172881 0.199791 0.797699 0.420028 0.432728
-0.054598 -0.266706 0.0564183 0.192794 -0.867221 0.459084
-0.229058 0.22763 0.154855 -0.931212 0.361477 0.0466777
0.14378 -0.119543 0.154084 -0.274188 0.867956 -0.414093
-0.100079 -0.124267 0.357784 -0.726547 -0.570567 0.382862
0.0560187 -0.177922 0.177828 0.0823339 -0.801175 0.59274
-0.0298025 -0.00399954 0.445462 0.776419 0.349298 0.524561
0.167523 -0.0281871 -0.321392 -0.0872115 -0.294107 -0.951785
-0.017014 0.133825 0.198263 0.609649 -0.456593 -0.647959
-0.0459811 -0.133502 0.453051 -0.645141 -0.634432 0.425781
-0.163637 0.142255 -0.0917452 0.319578 -0.913513 0.251723
-0.0578547 0.0275821 0.162351 0.625511 0.40995 0.663835
0.291651 -0.0678252 -0.318582 -0.12251 -0.574891 -0.809007
0.17186 -0.131421 -0.128095 0.598135 -0.614838 -0.514012
0.201305 -0.116516 0.129663 0.79515 0.408636 0.448055
0.263946 -0.174455 0.0504105 0.46111 -0.00814708 -0.887306
-0.0500675 0.0204493 0.1408 -0.790636 -0.461382 -0.402519
0.0509028 -0.0924914 0.192631 0.116472 0.597641 -0.793259
0.0376587 -0.108452 0.420641 0.807795 0.420031 0.413571
0.0650075 -0.129959 -0.158295 -0.602196 0.536398 0.591301
-0.115241 -0.180804 0.260413 -0.751028 -0.483565 0.449578
-0.00599691 0.240142 0.176865 0.799908 0.433356 0.415151
-0.181078 0.113325 -0.146795 0.198707 -0.883606 0.423975
0.422468 -0.241052 -0.199659 0.593753 -0.594199 -0.542573
0.179964 -0.114045 -0.0420226 -0.560584 0.776392 0.28803
0.218549 -0.366643 0.0738053 -0.185539 -0.93827 -0.291934
0.0358459 0.110308 -0.103325 -0.829679 -0.404199 -0.385039
0.136067 0.137911 -0.125219 -0.287551 -0.408603 0.866232
0.0362374 0.465363 -0.190549 -0.692779 0.358247 -0.625873
-0.238957 0.199095 0.0501406 -0.861627 0.491796 -0.125442
-0.172707 0.251933 0.3991 -0.947715 -0.0238961 0.318221
0.257833 -0.335627 0.236061 0.813746 0.404118 0.417739
-0.268513 0.114962 0.0286652 -0.956328 0.290342 0.0337462
0.192988 0.0358321 -0.198224 -0.103019 0.74185 -0.662606
-0.22223 0.142988 -0.118741 -0.806657 -0.397885 -0.437026
-0.0100664 -0.232559 -0.0306967 -0.348096 0.894271 -0.281264
-0.0910112 0.293794 0.104873 0.314175 0.37386 -0.872653
0.078467 -0.0210152 -0.188778 -0.798951 -0.456484 -0.391536
0.0124969 -0.0110483 0.383186 0.798524 0.457316 0.391436
0.094261 0.165196 -0.117413 -0.0028118 -0.681149 0.73214
-0.207741 0.118442 -0.0597621 0.459619 -0.888116 0.000981507
0.0210233 0.287957 -0.265724 -0.543414 0.287882 -0.788559
-0.00528407 -0.198381 0.414787 0.593264 -0.460978 -0.659953
-0.036858 0.0814936 0.202734 0.572336 -0.241945 -0.783514
-0.0345444 -0.0495251 -0.277115 -0.803062 -0.435639 -0.406583
0.127621 0.229423 -0.0640074 0.837449 0.290538 0.462889
0.393363 -0.311533 -0.107991 0.0464208 -0.832563 -0.551982
0.0470028 -0.216955 0.472738 -0.100498 -0.601206 0.792749
-0.0945538 0.208337 -0.127573 -0.459593 0.888046 -0.0122005
-0.142986 0.121833 -0.226303 -0.577949 0.350225 -0.737101
0.00704106 -0.277629 0.0636109 -0.406837 -0.153925 0.900439
0.152858 -0.120523 -0.0743071 -0.573765 0.58975 0.568321
0.0993757 -0.205819 -0.110518 0.647678 -0.658584 -0.383119
0.267621 -0.0744884 -0.0818923 0.511624 -0.418932 -0.750158
-0.0480268 0.0330967 0.2095 0.472348 -0.0100628 -0.881355
0.00304347 0.269554 -0.0341584 -0.303611 0.906584 -0.29313
0.0152131 0.314112 -0.254754 -0.54293 0.335339 -0.769919
0.03051 -0.045865 0.0554783 -0.869442 -0.34499 -0.353627
0.139938 0.263444 -0.1112 0.819435 0.375916 0.432682
-0.196246 0.243909 0.257039 -0.0870748 -0.66744 0.739555
-0.209707 0.293414 0.107992 -0.916678 0.395176 -0.0594709
-0.0265574 -0.0346508 0.157604 0.798697 0.426542 0.424434
0.135211 0.144245 -0.177915 0.216869 0.484524 -0.84747
-0.0308195 -0.189288 0.386722 -0.743281 -0.5834 0.32738
-0.0669719 -0.17162 0.35602 -0.584081 -0.720123 0.374529
-0.231699 0.0145478 0.150393 -0.559243 0.245741 0.791744
0.0100043 0.315874 -0.118427 -0.558545 0.287052 0.778222
0.340496 -0.319715 0.0337535 0.163501 0.533655 -0.829747
0.0137406 -0.139695 -0.201308 -0.614292 0.468242 0.635133
0.130898 -0.111608 -0.285089 0.00270771 -0.567844 -0.823132
-0.151793 0.235339 0.249737 0.0659544 -0.803557 0.591563
0.0204671 -0.215631 -0.014057 -0.423789 0.905022 -0.0365732
0.312576 0.0111989 -0.19681 0.75224 0.405374 0.519429
0.0480942 -0.203023 -0.0171478 -0.436387 0.894692 -0.0953535
0.133579 -0.0389865 -0.312459 -0.0637982 -0.33235 -0.940996
0.116637 -0.0665553 -0.0714298 0.815511 0.414722 0.403668
0.251418 -0.107759 0.0248796 0.920532 0.246064 0.303437
0.154743 -0.178238 -0.0804223 0.58177 -0.715343 -0.387076
0.110113 -0.091046 -0.0823696 -0.597391 0.564122 0.569992
-0.0422434 0.293394 0.191702 0.854706 0.386265 0.34681
-0.0135289 0.0573611 -0.259259 0.272598 0.392332 -0.878502
-0.0281675 -0.0272568 0.473278 0.791995 0.358899 0.493899
-0.0259695 0.119486 0.261981 -0.510774 0.151356 0.846287
0.0116505 -0.187679 0.0789397 -0.170222 0.866444 -0.46936
0.0243552 -0.122539 0.316529 0.621568 -0.643566 -0.446626
0.00523793 0.0301565 0.307235 -0.499664 0.848521 0.174207
0.141627 -0.224311 0.1318 -0.425837 0.0147648 0.90468
0.138988 0.0627179 -0.206704 0.394495 0.173657 -0.90234
0.135213 -0.0660713 -0.115344 0.768863 0.478476 0.424159
0.2263 -0.0866688 -0.148134 0.347152 -0.914057 0.209727
0.00650033 -0.135388 0.51071 -0.163104 -0.52645 0.834415
0.106458 0.168841 -0.17496 0.255042 0.514128 -0.818917
0.363779 0.0157736 -0.296238 0.769348 0.462509 0.440669
-0.0557951 0.0678207 -0.264755 0.168648 0.516815 -0.839321
0.26125 -0.127252 -0.216313 0.250132 -0.851944 0.460028
-0.171997 0.107874 0.0526738 0.588202 -0.69325 -0.416441
-0.190195 0.180493 0.186147 -0.0472978 -0.68939 0.722845
-0.197836 0.322658 0.199027 -0.943321 0.330351 -0.0318365
-0.13547 0.36513 0.301308 0.792379 0.494859 0.356721
0.0355829 0.136296 -0.123363 0.790726 0.425341 0.44027
-0.0578748 0.162761 0.0380506 0.802819 0.431026 0.411943
0.221412 0.2785 -0.35871 -0.469799 0.232092 -0.851717
-0.127333 -0.234557 0.0732562 -0.793902 -0.320372 -0.5168
0.136318 -0.302854 0.409329 0.0328265 -0.746931 0.664091
-0.0896565 -0.183883 0.256771 0.495902 -0.817564 -0.292696
0.367603 -0.3681 0.0137609 -0.141688 -0.929956 -0.339272
-0.0156742 0.0118236 0.220567 0.433769 0.0785731 -0.897592
-0.125913 0.454251 0.146077 0.553402 -0.511697 -0.6572
0.0136849 0.0243215 0.0221884 -0.801021 -0.511073 -0.311722
0.25166 -0.354241 0.256589 0.784852 0.410417 0.46429
0.0706232 -0.324592 0.0333944 -0.228126 -0.951223 -0.207684
-0.174737 -0.0222713 0.19127 -0.481941 -0.170828 0.85939
0.409072 -0.290814 -0.101363 -0.58572 0.70643 0.397351
0.25824 0.278003 -0.362462 0.300658 0.379238 -0.87509
0.190039 -0.127407 -0.277363 -0.0430538 -0.548819 -0.834832
0.0255565 0.340697 -0.249035 -0.490531 0.327956 -0.807356
0.0457709 -0.0933789 0.262024 0.296941 -0.895707 0.330961
-0.0631423 0.254033 -0.144923 -0.559386 0.273613 0.782447
0.261176 0.0435226 -0.243271 -0.360925 0.910374 -0.202366
0.0831371 -0.111357 -0.153537 -0.565055 0.537789 0.625696
-0.24636 0.134564 0.144896 0.142498 -0.720954 0.678173
0.111708 -0.212509 0.118702 -0.427353 -0.294425 0.8548
0.161329 0.334455 -0.27085 0.630438 -0.63965 -0.439767
0.0721163 -0.10842 -0.170401 -0.594155 0.273469 0.756435
0.231263 -0.375376 0.276418 0.15617 -0.784916 0.599599
-0.168868 0.271313 0.41465 -0.613157 0.494157 0.616318
-0.0351446 0.219829 -0.257877 -0.403568 0.285582 -0.869239
0.134803 0.281593 -0.222886 0.608892 -0.715014 -0.34352
0.236234 -0.0670024 -0.040389 -0.621074 0.668513 0.409094
-0.132359 -0.116336 0.137868 0.193614 0.434336 -0.879696
0.102573 -0.103675 -0.0087787 0.812782 0.386945 0.435499
-0.112969 0.169004 -0.227453 -0.719297 0.360072 -0.594104
-0.0869385 -0.0490949 0.146372 -0.816454 -0.317626 -0.482199
0.1579 0.282632 -0.196477 0.590177 -0.616188 -0.52154
0.135331 -0.272507 -0.0271457 0.360926 0.249745 -0.898532
0.0314694 -0.034373 0.221762 0.270026 0.366995 -0.890169
0.0104736 0.153959 -0.0827669 0.700475 0.581627 0.413575
0.0289742 -0.043219 -0.278526 0.0929142 0.629709 -0.771255
0.267988 -0.253775 0.0263777 0.377367 0.228976 -0.89731
0.366607 -0.3598 0.0474805 0.727672 0.514997 0.453068
0.325632 0.0397477 -0.250477 0.79842 0.373816 0.472004
0.0816403 -0.184844 -0.0425405 -0.46518 0.873372 0.144321
0.288688 -0.325413 0.0173076 0.296765 0.297945 -0.907281
0.102272 -0.179349 0.163832 0.135852 -0.792673 0.594318
0.0344097 -0.158689 -0.156715 -0.592329 0.648354 0.478313
0.103063 -0.159578 -0.176876 0.673052 -0.345255 -0.654064
0.162557 0.00718071 -0.243426 -0.250416 0.925622 -0.283753
0.155745 0.069662 -0.145576 -0.500345 -0.127486 0.856389
0.0194041 -0.19973 0.463895 -0.560815 -0.733494 0.384023
0.0593767 -0.138968 0.419462 0.801944 0.410672 0.43386
-0.23638 0.192452 0.147033 -0.962605 0.269689 0.0256763
0.0704094 -0.0280308 0.283021 0.795133 0.476669 0.374901
-0.0772666 -0.17661 0.330931 -0.651001 -0.650134 0.391821
-0.0597704 0.521079 -0.00315339 -0.369412 0.913411 -0.170925
0.363604 -0.0418188 -0.233483 0.871984 0.232358 0.430875
0.145243 0.117668 -0.135628 -0.218608 -0.395905 0.891891
0.0295824 0.164787 -0.122165 0.0546062 -0.723246 0.688428
0.0392184 -0.149024 0.396201 0.569781 -0.646765 -0.506995
-0.153794 -0.10078 0.135712 0.435198 0.173385 -0.883482
-0.00915701 -0.0419476 0.143712 0.782993 0.450011 0.429433
-0.108039 0.314034 0.111113 0.23468 0.419141 -0.877067
0.389518 -0.351728 -0.0276886 0.528252 -0.824133 -0.204337
0.287965 -0.242592 0.0756761 0.834724 0.344622 0.429503
-0.0524173 0.335034 0.167623 0.801456 0.444019 0.400645
0.129441 -0.24017 -0.0245125 0.550832 -0.148551 -0.821289
0.0508766 0.254173 0.0511428 0.459131 -0.886029 0.0644299
-0.0809963 -0.259095 0.00296855 -0.850933 -0.360726 -0.381825
0.0020237 0.0877952 -0.00334874 0.815125 0.38473 0.433075
0.105786 -0.155773 0.195226 0.159222 -0.834841 0.526962
0.050228 -0.221837 0.116391 0.147173 -0.86925 0.471958
0.383118 -0.0709011 -0.251992 0.777651 0.418217 0.469419
-0.114506 -0.0261958 0.43658 -0.703949 -0.512179 0.492066
0.266251 -0.0660281 -0.114029 0.509662 -0.859898 -0.0286514
0.0812494 -0.0945912 0.330406 0.56444 -0.750922 -0.342818
-0.0251962 -0.222925 0.0235147 -0.171146 0.889341 -0.424007
0.00950845 0.230459 0.0824054 0.495565 -0.868331 -0.0204204
-0.113607 0.224125 -0.0149001 -0.402664 0.91291 -0.0667677
-0.0382421 0.334038 0.144867 0.801634 0.398692 0.445452
-0.0535417 -0.0217293 0.200929 0.789765 0.405826 0.459974
-0.122257 0.134804 0.1717 -0.492061 0.0616831 0.868373
-0.0837654 0.166564 0.0843641 0.607097 -0.713319 -0.350156
-0.138813 -0.17986 0.2219 -0.664176 -0.669457 0.332713
-0.0757093 0.145046 -0.0356506 0.418657 -0.905243 0.0725348
0.027214 0.146178 -0.208605 0.40399 0.170894 -0.898659
-0.217737 0.26233 0.105799 -0.921638 0.385187 -0.0470597
-0.0727695 0.522289 0.0336759 -0.395113 0.913173 -0.100006
-0.138057 0.19724 0.469554 0.799122 0.419681 0.430432
-0.230152 0.0629894 0.0482266 0.515918 -0.533855 -0.669946
-0.0796499 -0.0452371 0.483299 -0.810026 -0.381788 0.44508
0.0666521 -0.0768551 0.343995 0.817734 0.408097 0.405917
-0.233201 0.140642 -0.0917372 -0.829092 -0.38399 -0.406398
0.349394 -0.338262 0.0167081 0.0234953 0.731251 -0.681704
-0.0649492 0.0169437 0.500185 0.803566 0.40001 0.440764
0.138788 -0.128192 -0.0523072 0.787513 0.311247 0.53193
-0.120317 0.0680522 0.0995119 -0.809943 -0.42129 -0.408053
0.0745472 -0.0889836 0.199242 0.143217 0.574209 -0.806085
-0.0966591 0.357574 0.234834 0.801884 0.501941 0.324095
-0.0545233 0.287032 -0.153743 -0.565112 0.270859 0.779284
-0.0453158 0.251898 -0.0175441 -0.439521 0.890265 -0.11937
0.061632 0.425634 -0.128063 0.786222 0.355784 0.505245
0.351979 0.0507144 -0.307057 0.735256 0.520397 0.434265
0.0570274 -0.153582 -0.145225 -0.613219 0.629736 0.476859
0.394545 -0.225413 -0.213664 -0.587753 0.604287 0.537944
-0.121794 0.074837 0.199355 -0.559658 0.296168 0.773995
-0.131867 0.184382 -0.15358 -0.561737 0.808162 0.176991
0.303149 -0.391888 0.128944 -0.0870088 -0.981225 -0.172127
-0.0623142 -0.150877 0.132023 0.134762 0.619531 -0.773318
-0.0883688 0.278451 0.292203 -0.0425077 -0.706209 0.706726
0.148847 0.393249 -0.260685 0.700016 0.492334 0.517286
0.0558695 0.0247736 -0.196097 -0.47926 -0.176695 0.859703
0.124305 0.426849 -0.275141 -0.0408026 0.735579 -0.676209
0.212456 -0.0108618 -0.10827 -0.546975 0.187659 0.815845
-0.197813 0.272856 0.0628755 0.272154 0.393223 -0.878241
0.321975 -0.374006 0.141434 0.793847 0.412274 0.447031
0.19456 0.170734 -0.132012 0.789947 0.457546 0.408211
0.291257 0.21981 -0.356656 -0.315867 -0.314159 0.895283
-0.103258 -0.015072 0.38424 -0.431062 0.899993 -0.0647976
0.103291 -0.304925 0.120089 -0.535398 0.166153 0.828095
0.347398 -0.0461488 -0.208979 0.712173 0.489187 0.503494
0.00281504 0.0472889 0.233637 0.476318 -0.0614911 -0.87712
0.100431 -0.051455 -0.0593243 -0.806789 -0.403028 -0.432042
0.153838 0.339668 -0.325644 -0.479727 0.371681 -0.794805
0.314674 -0.0628076 -0.141379 0.810348 0.457947 0.365541
0.066486 0.282371 -0.00487783 0.835929 0.365556 0.40938
-0.107174 -0.124811 0.142427 0.301458 0.38174 -0.873726
-0.0533705 0.358545 0.148967 0.857294 0.411323 0.309612
-0.00028848 0.0208892 0.0573168 0.812062 0.395541 0.429073
0.421907 -0.135934 -0.263369 0.831694 0.428708 0.352837
-0.0162059 -0.272201 0.0532827 -0.212929 -0.463545 0.860109
0.0855555 -0.0418758 -0.139198 -0.579472 0.318533 0.750166
0.191613 -0.0863839 -0.0649116 -0.466175 0.764992 0.444375
-0.0956358 0.0272188 0.230027 -0.422923 -0.0640185 0.903901
-0.105715 0.0864884 0.50226 0.806162 0.410757 0.42589
0.331073 0.0661724 -0.346673 -0.581025 0.718986 0.381404
-0.182003 0.0780833 0.0872331 0.594029 -0.549045 -0.587945
-0.0963654 0.232642 0.0428128 -0.367717 0.919787 -0.137022
-0.0526573 -0.198275 0.0852897 -0.152495 0.823952 -0.545755
-0.00667806 -0.127442 0.110702 -0.0133451 0.733753 -0.679285
0.29286 -0.0169325 -0.139471 0.760327 0.504078 0.409644
0.124003 0.275381 -0.0976142 0.83856 0.215615 0.500327
-0.109371 0.474734 0.147414 0.743369 0.439916 0.503861
0.290812 -0.332319 0.165966 0.803627 0.41222 0.429253
0.173543 -0.155541 -0.0993976 0.54497 -0.67015 -0.503891
0.214281 -0.373914 0.158504 -0.113409 -0.992033 -0.0548571
0.324743 0.165254 -0.36894 0.845873 0.288686 0.448507
-0.00724671 0.214493 -0.0355154 0.250321 -0.906375 0.340328
-0.0654397 0.0272758 -0.237746 -0.339797 -0.325176 0.882495
-0.0651719 -0.154005 0.218234 0.509353 -0.850271 -0.132661
-0.0374483 0.516274 -0.0284265 0.800177 0.408653 0.438999
0.415816 -0.296735 -0.127977 0.572942 -0.734833 -0.362985
-0.00613282 -0.217979 -0.132051 -0.537412 0.728137 0.425446
0.189129 -0.156839 -0.0690657 0.54023 -0.777357 -0.322286
-0.0791329 -0.125292 0.403465 -0.722945 -0.543143 0.42702
-0.183359 0.225624 0.232063 -0.0632313 -0.703683 0.707695
0.0552258 -0.188213 0.461606 0.804933 0.419822 0.419323
0.135455 0.0360154 -0.212229 0.431396 0.101957 -0.896383
-0.104111 -0.214906 0.0648323 -0.100424 0.810045 -0.577704
0.163185 -0.141269 -0.00860634 -0.495209 0.860187 0.121848
-0.100086 0.22364 -0.049218 -0.364451 0.909823 -0.198489
0.178513 -0.130604 0.110747 -0.339156 0.910812 -0.235361
-0.0152165 0.261587 -0.021478 -0.315093 0.925178 -0.21157
-0.0544472 -0.00895253 -0.277662 -0.808965 -0.354091 -0.469249
-0.185038 0.311315 0.0828993 0.26577 0.409936 -0.872536
0.0639359 0.0939813 -0.124934 0.742666 0.439074 0.505629
-0.0460216 0.270837 0.218262 0.914194 0.26597 0.305793
0.26777 -0.388543 0.222192 -0.288655 -0.95726 0.0182026
-0.142505 -0.189701 0.17912 0.473526 -0.864751 -0.167268
0.289031 -0.380616 0.101872 -0.254251 -0.955543 -0.149309
0.0764495 -0.0759026 -0.136336 -0.796639 -0.319021 -0.513412
0.0123555 0.136728 0.235057 0.653792 0.5582 0.510852
0.0148751 0.278733 -0.00720259 -0.262694 0.918869 -0.294401
0.0420166 -0.282811 0.0801684 -0.560121 0.188257 0.806737
-0.11301 -0.0571608 0.414792 -0.807924 -0.401376 0.431458
0.166645 -0.355509 0.139687 -0.203218 -0.966993 -0.153709
-0.202854 0.118712 0.134997 -0.336536 -0.278093 0.899671
-0.123378 -0.14535 0.303627 -0.721294 -0.556217 0.412744
-0.0800024 0.234429 -0.0254751 -0.323359 0.93373 -0.15358
-0.0416668 0.241919 -0.0539672 -0.272564 0.913624 -0.301662
-0.0508856 0.155918 -0.125639 0.114377 -0.817979 0.563763
-0.242507 0.103635 -0.041057 -0.839256 -0.367345 -0.400883
0.234986 -0.170378 0.113559 0.821838 0.398545 0.407116
0.163949 -0.276418 0.161843 -0.578245 0.239121 0.780034
0.0994156 0.0250491 -0.126722 0.80429 0.411812 0.428403
-0.145639 -0.136338 0.277596 -0.786385 -0.477132 0.392355
0.0781192 -0.163593 0.0910341 0.803909 0.408921 0.431873
0.0601694 -0.154296 0.0310656 -0.400805 0.907341 -0.126841
0.316781 0.0153334 -0.353971 0.025665 -0.319952 -0.947086
0.160738 0.373056 -0.265369 0.78699 0.403562 0.466674
0.383657 -0.299035 -0.127243 -0.571228 0.752982 0.326676
-0.0206123 -0.195342 0.0861185 -0.276877 0.81096 -0.515445
0.0145133 -0.174547 0.487994 -0.75188 -0.54439 0.371908
-0.136692 0.206223 -0.060418 -0.418356 0.900655 -0.117464
-0.00934767 0.327351 -0.22764 -0.668844 0.415449 -0.616482
-0.00174237 -0.060794 0.446648 0.807996 0.410783 0.422374
-0.136312 -0.212619 0.0697756 -0.0319395 0.731372 -0.681231
0.0100153 0.0652616 -0.0161137 -0.818 -0.382821 -0.42933
-0.106792 0.22352 -0.165668 -0.580254 0.336582 0.741632
-0.154528 -0.102781 0.284528 -0.687057 -0.483218 0.542635
0.327328 -0.0387087 -0.181205 0.80261 0.546297 0.239535
-0.243527 0.187395 0.10361 -0.97258 0.18528 0.140569
0.013129 0.0478327 0.00643626 0.807672 0.406515 0.427097
0.0360356 -0.304022 -0.0415413 -0.169432 -0.956411 -0.237847
0.0504564 0.0536239 -0.246361 0.412512 0.216007 -0.884972
-0.0810268 0.49294 -0.0109247 0.393274 -0.903994 0.167724
0.3229 0.12927 -0.368497 -0.481653 -0.0532118 0.874745
0.264856 -0.280953 0.166186 0.736531 0.462247 0.493812
0.1467 -0.0955451 0.191491 0.0210407 0.784993 -0.619148
0.137171 -0.17579 -0.11617 0.594745 -0.651307 -0.471251
-0.0226597 0.0196608 0.332288 -0.475337 0.879134 -0.0343075
0.113861 0.192061 -0.159922 0.399228 0.179549 -0.899099
0.0400817 -0.029502 0.330147 0.803441 0.410219 0.431512
0.112264 -0.113957 0.238929 -0.0152 -0.763162 0.646028
0.0469248 0.0248496 -0.25151 0.40538 0.16923 -0.898347
-0.0555527 0.225143 0.234702 -0.0345112 -0.710188 0.703165
-0.0047068 -0.299995 0.0158962 -0.298182 -0.95428 -0.0209285
0.0150273 -0.162332 0.194608 -0.0677379 -0.684993 0.725393
-0.125581 -0.178608 0.191137 0.502987 -0.856687 -0.114414
-0.244912 0.149186 -0.0541404 -0.954366 0.292201 -0.061676
-0.17688 0.225367 0.409849 0.578165 -0.371313 -0.726534
0.153074 0.369044 -0.313834 -0.503066 0.239551 -0.830385
-0.185052 0.356378 0.108546 -0.901964 0.390689 -0.183909
-0.0908469 0.125944 0.0566604 0.480513 -0.841669 -0.246376
-0.0226303 0.144073 -0.0110029 0.825942 0.296769 0.479321
0.211434 -0.257726 0.186354 -0.588291 0.221971 0.777588
0.406541 -0.159418 -0.241786 -0.4302 -0.106031 0.896485
0.0144156 0.2857 0.0393306 -0.375021 0.918242 -0.127245
-0.0625343 -0.00870061 -0.254433 -0.267039 -0.326897 0.906548
-0.071475 0.0164988 0.245599 -0.421814 -0.0963144 0.901552
0.304748 -0.107761 -0.198499 0.124875 -0.81037 0.572457
-0.187362 0.342208 0.281849 -0.974519 0.110759 0.195052
-0.0813033 0.116522 0.120996 0.690801 0.394443 0.605977
-0.186061 0.320786 0.310475 -0.968617 0.179616 0.171813
-0.0707367 -0.191933 0.306518 0.568163 -0.773597 -0.280604
0.0245873 0.239467 0.0336271 0.338197 -0.930039 0.143705
-0.191258 0.339277 0.160495 -0.950708 0.304632 0.0579073
-0.0908408 -0.150623 0.350091 -0.753085 -0.508167 0.417887
-0.271732 0.0762029 0.0979247 -0.955055 0.080439 0.285307
0.0222944 -0.141776 0.086615 0.0240014 0.806366 -0.59093
-0.22079 0.257865 0.0528643 -0.844359 0.450002 -0.290785
0.170488 -0.182546 0.15097 -0.392178 -0.241216 0.8877
-0.181969 0.159058 0.168354 -0.00410575 -0.725427 0.688287
0.0746414 -0.158325 -0.121177 -0.583543 0.662731 0.469325
0.261629 -0.261522 0.152575 0.761282 0.500816 0.411867
0.057327 -0.188636 0.0192847 -0.823511 -0.376926 -0.423977
0.0912975 -0.131737 -0.0561603 -0.558146 0.77015 0.308775
-0.0729976 0.134521 -0.147432 0.132712 -0.831408 0.539582
0.0681001 0.246427 -0.268812 0.589521 -0.610264 -0.529191
-0.0657731 0.140503 0.220383 -0.530533 0.227185 0.816653
-0.0333743 -0.0467048 0.18464 0.801538 0.409077 0.43611
-0.0286398 0.0528228 0.214755 0.546627 -0.172723 -0.819369
0.313358 -0.285289 0.0355289 0.316882 0.301137 -0.89939
0.217021 -0.348084 0.0134867 -0.171689 -0.948154 -0.267444
0.0747031 0.347734 -0.280628 -0.499469 0.298159 -0.813408
-0.0706471 0.307952 0.229214 0.794554 0.409884 0.447972
-0.0657994 0.26693 -0.214481 -0.633722 0.363573 -0.682796
0.119956 0.166036 -0.115196 -0.126731 -0.581671 0.803491
-0.117463 -0.196886 0.0875181 0.00895182 0.71712 -0.696893
0.0776938 -0.26475 0.0999609 -0.526123 0.156339 0.835914
0.352544 -0.0318777 -0.343336 -0.119423 -0.354957 -0.927224
-0.0861412 0.142305 0.102314 0.763038 0.476391 0.436834
-0.00362461 0.508904 -0.117794 -0.771929 0.421126 -0.476212
0.246007 -0.315787 0.218254 -0.576208 0.206378 0.790817
-0.0668928 0.347301 0.193703 0.802198 0.410548 0.433507
0.001205 -0.193686 0.156369 0.0822585 -0.780406 0.619839
-0.158988 0.342238 0.107033 0.304183 0.321247 -0.896813
-0.0594933 -0.167767 0.117791 0.0204823 0.722717 -0.690841
0.00794817 -0.0472796 -0.22864 -0.45603 -0.0246474 0.889623
-0.18702 -0.0563692 0.129607 0.410335 0.184704 -0.893034
0.195418 -0.0988606 -0.166738 0.309211 -0.909598 0.277526
-0.220228 0.165469 -0.08811 -0.343873 0.92529 -0.159966
-0.130567 0.178268 -0.208643 -0.569707 0.380494 -0.728463
-0.0725251 -0.230124 0.036455 -0.251157 0.875574 -0.412663
-0.24248 -0.0783725 0.149771 -0.848681 -0.308948 0.429292
0.173892 -0.177504 -0.0527064 0.519528 -0.847015 -0.112504
0.250767 -0.196806 0.109798 0.737159 0.487127 0.468298
0.236677 -0.087165 -0.302141 -0.0779582 -0.438643 -0.895274
-0.24304 -0.026346 0.0953469 0.529115 -0.203165 -0.823869
0.192332 -0.118289 -0.190869 0.015528 -0.784511 0.619921
0.047364 -0.124669 -0.178933 -0.556796 0.381545 0.737835
0.237655 0.014387 -0.327499 -0.448962 0.875675 -0.177836
-0.0339156 0.0135355 0.359714 -0.48284 0.874798 0.0399167
0.10663 -0.0455975 -0.0885552 -0.79749 -0.372346 -0.474729
0.0941317 0.395168 -0.152042 0.801068 0.432738 0.413555
0.350982 0.0971876 -0.354772 -0.489987 0.132514 0.861599
0.173148 -0.0636898 -0.311439 -0.200439 -0.302557 -0.931817
-0.155965 0.432842 0.195876 -0.937678 0.34747 0.00497616
-0.0796513 -0.107921 0.155352 0.136624 0.455992 -0.879435
-0.0981186 0.492179 0.020609 0.351089 -0.926008 0.138733
-0.074644 0.0337733 0.186037 0.803854 0.400033 0.440218
-0.00419011 -0.16114 -0.231355 -0.736568 -0.423795 -0.52713
-0.0263355 0.269034 0.190128 0.76784 0.341565 0.541992
-0.221904 0.228572 0.200657 -0.955821 0.265302 0.126578
0.179688 0.064162 -0.184769 0.404133 0.120965 -0.906666
0.0528015 -0.104876 0.313956 0.591356 -0.698501 -0.402983
-0.0313909 -0.226982 0.124437 -0.0336404 -0.743398 0.668003
-0.245869 -0.00371828 0.083737 0.429793 -0.16838 -0.887088
-0.137418 0.0859634 -0.224172 -0.805693 -0.38082 -0.45369
0.159169 -0.134682 0.217791 0.0773707 -0.798733 0.59669
-0.0137891 0.110549 -0.144203 -0.865412 -0.378054 -0.328842
-0.0934033 -0.0198715 0.137898 0.398714 0.160343 -0.902949
0.0614444 -0.237747 0.0933687 -0.203291 -0.465163 0.861566
0.207092 -0.172799 -0.0141278 0.510302 -0.845346 -0.158057
0.0792378 -0.103637 -0.284738 -0.0851582 -0.453228 -0.887317
-0.220738 -0.112993 0.130961 -0.756293 -0.525921 -0.389139
-0.118693 0.107244 0.0589261 0.580157 -0.71593 -0.388409
-0.0670385 0.123507 0.162546 0.631052 -0.500338 -0.59282
-0.116262 0.498157 0.119838 -0.491277 0.864526 0.106032
0.0205438 -0.11419 0.236675 0.108242 -0.813278 0.571718
0.121939 -0.039259 -0.111702 0.810451 0.40027 0.42773
0.235949 0.0743851 -0.158495 0.235761 0.608378 -0.757822
0.0316562 0.280017 -0.0244769 -0.353744 0.907597 -0.226124
-0.0667524 0.168735 0.109389 0.576446 -0.67992 -0.453232
-0.0323406 -0.256402 0.0758537 0.158279 -0.837491 0.523027
0.00074873 -0.043589 0.119669 0.808336 0.433261 0.398595
0.282082 -0.385704 0.145527 -0.177024 -0.924849 -0.336626
0.223278 0.320244 -0.330232 -0.108491 -0.577683 0.809019
0.242314 -0.36372 0.0570552 -0.172621 -0.959333 -0.223341
0.0560546 0.0712101 -0.0985169 -0.708881 -0.389202 -0.588226
-0.0671981 0.303961 0.117783 0.283471 0.385029 -0.878292
0.00968842 0.121747 0.258983 0.762745 0.453198 0.461337
-0.143634 0.219594 0.444478 0.832048 0.320072 0.453044
0.332401 -0.103556 -0.195861 0.1783 -0.853365 0.489874
0.212629 -0.125618 -0.204384 0.124889 -0.804828 0.580219
0.0339886 -0.101278 0.0971436 -0.813486 -0.477836 -0.331531
-0.0152431 0.213402 0.217272 0.793281 0.357956 0.492517
0.223825 -0.145786 -0.034076 0.579336 -0.736962 -0.348221
0.000880283 -0.0378095 0.417938 0.828916 0.391857 0.399182
-0.0729994 0.163884 -0.104594 0.27231 -0.871618 0.407589
0.0308816 0.095522 -0.236151 0.33894 0.322431 -0.883831
0.0463083 -0.0674881 0.041232 -0.798335 -0.420464 -0.431129
-0.0743577 -0.00910018 0.277526 -0.38019 0.917455 -0.117186
0.0382417 -0.0322599 0.0335804 -0.821801 -0.408389 -0.397317
-0.0816825 0.159977 0.198642 -0.551683 0.30274 0.777171
0.0492633 -0.263081 0.0811486 -0.479411 0.0201359 0.877359
-0.110602 -0.257962 0.0836498 -0.492075 -0.825816 0.275482
0.098545 0.341669 -0.293965 -0.487357 0.240818 -0.839339
0.122703 -0.0649024 0.222123 0.239459 0.557951 -0.794575
0.296694 0.0586663 -0.222452 -0.266578 0.915762 -0.300526
-0.188147 0.178039 -0.107029 -0.332405 0.903862 -0.269331
0.0850833 0.376524 -0.119952 0.770126 0.403012 0.494457
0.00840186 0.101964 -0.0287466 0.814919 0.311798 0.488559
-0.206666 0.271593 0.211648 -0.97654 0.0139501 0.214885
-0.028857 -0.24028 -0.0472358 -0.396564 0.912483 -0.100555
0.0693007 -0.121988 0.0452964 -0.820448 -0.455455 -0.34558
-0.116414 -0.216366 0.133908 -0.0878239 -0.536193 0.839514
0.199643 -0.313727 0.188987 -0.520229 0.100837 0.848053
-0.0589242 0.0537881 0.193749 0.543543 -0.225754 -0.808453
-0.124278 0.0136193 0.217478 -0.506189 0.222942 0.833109
-0.0790972 -0.131568 0.144541 0.263326 0.511557 -0.817905
-0.0161154 -0.0714645 0.152843 0.191925 0.497706 -0.845845
-0.0113444 0.146559 -0.053845 -0.799331 -0.37898 -0.466309
-0.182902 -0.0834777 0.132822 0.328712 0.185475 -0.926039
0.270579 -0.0694281 -0.0472704 0.735982 0.494462 0.462425
-0.27462 0.0623803 0.0700499 -0.959722 0.169403 0.224135
-0.259368 0.112895 -0.00592242 -0.801107 -0.455364 -0.388421
-0.0421102 0.12484 -0.247865 0.56403 -0.25917 -0.784029
0.0958067 -0.191686 -0.148313 0.61568 -0.582459 -0.530735
0.0999171 0.356965 -0.138712 0.786364 0.375079 0.490863
-0.159667 -0.0486327 0.322662 -0.383645 0.918921 -0.0916595
-0.0883705 0.228909 -0.216201 -0.659762 0.320803 -0.679558
0.156667 -0.253341 -0.0141026 0.176064 0.417797 -0.891318
0.105545 0.421571 -0.200591 0.825224 0.490386 0.280227
-0.101275 0.110095 0.20469 -0.509501 0.254223 0.822058
0.20988 -0.118132 0.0834631 -0.37843 0.912121 -0.15756
-0.0737454 0.152186 0.00745759 0.472959 -0.878417 -0.0685133
-0.0507979 0.100951 -0.186269 -0.0838986 -0.629874 0.772153
0.132107 -0.195394 -0.0895621 0.57142 -0.765089 -0.296846
0.0513848 0.00191388 0.284394 0.813403 0.430888 0.390783
-0.12825 -0.145784 0.127079 0.102513 0.515988 -0.850439
0.296254 0.0353161 -0.355088 -0.0897062 -0.328054 -0.94039
-0.00551553 -0.15019 0.0938634 -0.855422 -0.224192 -0.466895
0.0261283 0.209279 -0.0574692 0.218764 -0.871907 0.438088
-0.0998853 -0.170087 0.301466 -0.724528 -0.557199 0.405695
-0.0397703 0.263152 0.0388769 -0.431317 0.902124 -0.01176
-0.219592 -0.127969 0.14888 -0.787963 -0.438352 0.43239
-0.0460507 0.189913 -0.260801 -0.580264 0.249458 -0.775283
0.182162 0.0674397 -0.131816 -0.362329 -0.23953 0.900746
0.363104 0.0811301 -0.373424 0.392467 0.151071 -0.907275
-0.0227345 0.266571 0.0658437 -0.482808 0.871707 0.0838063
0.0097271 0.416527 -0.155436 -0.539921 0.298865 0.78687
0.398741 -0.203034 -0.236761 -0.0283811 -0.802427 -0.596075
0.0728629 -0.136483 0.145938 -0.219393 0.817824 -0.532006
-0.065638 0.102449 -0.251233 0.417939 0.115067 -0.901159
-0.187268 0.129767 -0.0989395 0.378266 -0.911646 0.160675
-0.0748555 0.212156 -0.23455 -0.550208 0.347161 -0.759441
0.237266 -0.0954395 -0.170612 0.110851 -0.805812 0.581704
0.0813839 -0.0505859 0.293466 0.791304 0.323759 0.518669
-0.135215 0.152941 0.025801 0.531647 -0.838896 -0.116642
-0.175621 0.365381 0.305285 -0.972235 0.119309 0.201308
0.29843 0.0397728 -0.316157 -0.350304 0.912288 -0.212173
0.28508 -0.126633 -0.220568 0.254717 -0.846935 0.466713
0.196432 0.00997511 -0.121547 -0.467982 0.0543152 0.882067
-0.0501304 -0.196582 0.156214 0.00690748 -0.726838 0.686774
0.164097 -0.00365806 -0.276922 -0.282466 0.912654 -0.295424
-0.0192741 -0.0805788 -0.276513 -0.829363 -0.36105 -0.42638
-0.0969249 -0.255381 0.0335574 -0.782716 -0.393886 -0.481882
0.382358 -0.339316 -0.00422014 -0.443712 0.896102 -0.0110482
-0.0535256 0.042779 -0.283763 0.325052 0.381163 -0.86548
0.0807175 -0.105267 0.0296166 0.812737 0.381994 0.439931
-0.110032 0.164501 -0.0718268 0.272216 -0.924052 0.268377
0.295062 -0.225841 0.047763 0.362028 0.176397 -0.915325
-0.0616201 -0.134241 0.423992 -0.658855 -0.641276 0.393287
0.119415 -0.320857 -0.029159 -0.140591 -0.955497 -0.259346
0.0762708 0.402971 -0.256282 -0.49528 0.276865 -0.823434
0.232065 -0.196559 0.148589 0.759653 0.518207 0.392923
0.229042 -0.00727064 -0.0886679 -0.558925 0.433803 0.706695
0.160122 0.167406 -0.162413 0.233602 0.40621 -0.883416
0.254044 0.251212 -0.355912 -0.37476 -0.295086 0.878908
-0.17588 0.294387 0.377175 -0.95768 0.27537 0.0837844
-0.131494 0.132287 -0.130774 0.225136 -0.881061 0.415988
-0.0868449 0.394861 0.17487 0.794897 0.409475 0.447739
-0.0432018 -0.0151574 0.492812 0.806754 0.403157 0.431987
0.0764612 -0.169232 -0.0968319 -0.577243 0.726157 0.373479
0.0298581 -0.125873 0.107232 -0.0247431 0.779668 -0.625704
0.138625 0.38939 -0.302124 -0.41951 0.222605 -0.880033
-0.0170976 -0.0820692 0.501132 0.789864 0.412653 0.453687
0.0746046 -0.00861024 0.262775 0.830596 0.310589 0.462217
0.02795 -0.255214 -0.117409 0.478019 -0.784192 -0.395652
-0.131512 0.217273 -0.182653 -0.572939 0.246224 0.781738
0.0793017 0.209112 -0.200548 0.599094 -0.605725 -0.523625
-0.0711259 0.196154 0.209829 -0.249274 -0.450181 0.857437
0.271261 -0.366178 0.232794 0.904286 0.340934 0.256965
-0.0790725 0.229626 -0.0715618 -0.21435 0.913025 -0.347043
0.392848 -0.32441 -0.0355809 -0.549648 0.785309 0.284916
0.0279773 0.377484 -0.124821 -0.546244 0.256825 0.797282
-0.0481763 0.506477 -0.055991 -0.725426 0.439689 -0.529557
-0.0518608 0.0186406 -0.289197 -0.30936 0.0650554 -0.948717
-0.21289 0.205444 0.218019 -0.0465682 -0.692962 0.719468
-0.0798159 0.0184558 -0.256678 -0.791664 -0.418016 -0.445569
-0.124686 0.47898 0.0987543 -0.882153 0.421938 -0.209224
-0.177432 -0.0985963 0.250822 -0.843863 -0.34238 0.413124
-0.188203 0.134391 -0.0364738 0.548042 -0.826425 -0.12912
-0.106564 0.495147 0.0491593 -0.838931 0.428199 -0.335916
-0.0589584 0.186771 0.0863231 0.550738 -0.786284 -0.280081
-0.0782797 -0.00602565 0.40223 -0.30221 0.940722 -0.153983
0.2597 -0.13188 -0.0190343 0.596022 -0.733141 -0.327508
0.132163 -0.0889002 -0.291414 0.042184 -0.503564 -0.862927
