ply
format ascii 1.0
comment Created by Open3D
element vertex 128
property double x
property double y
property double z
property double nx
property double ny
property double nz
end_header
0.0402635 0.0248482 0.311588 -0.0801826 -0.0679118 0.994464
-0.0346272 0.239147 -0.0106497 0.866546 0.491197 0.0884545
-0.0901074 0.0778617 -0.146701 0.125989 -0.0355596 -0.991394
0.0561034 -0.275809 0.0234485 -0.85254 -0.517504 -0.0732443
0.108369 -0.262597 -0.310365 0.444958 -0.844482 0.298099
-0.181931 0.278813 -0.0792009 0.851489 0.514956 0.0989268
0.00627299 -0.238176 0.250267 -0.833919 -0.546415 -0.0775164
-0.0175262 0.11053 0.0414223 0.508533 -0.809603 -0.293152
-0.245445 0.318517 0.200551 -0.417158 0.709908 -0.56746
0.022176 0.106291 -0.150067 -0.25338 0.557726 -0.790405
0.168566 -0.326485 -0.11959 0.436814 -0.722272 -0.536206
0.0954033 -0.292181 -0.219998 -0.839079 -0.537198 -0.0858246
0.160545 -0.104235 0.124711 0.842161 0.535738 0.0612282
-0.114934 -0.0528319 0.330958 -0.871128 -0.478931 -0.108447
-0.0587917 0.0171318 0.0973144 0.303951 -0.317628 -0.898179
-0.176496 0.149495 0.354551 0.169823 -0.467421 0.86757
-0.124912 0.140807 -0.392797 0.376124 -0.446444 -0.811922
0.206688 -0.214734 0.099112 0.461428 -0.823466 0.330133
-0.0991082 0.240461 0.170649 -0.494053 0.669947 0.55415
0.21543 -0.154685 -0.0894515 0.826656 0.556298 0.0846889
0.101247 -0.0146567 -0.29136 0.213567 -0.147944 -0.965661
-0.0557957 -0.0385258 -0.271918 -0.828409 -0.551393 -0.0985097
0.173242 -0.245581 0.0464581 0.521314 -0.847994 0.0955936
0.0421608 -0.260624 0.291111 0.425044 -0.828623 0.364309
-0.129227 0.248604 0.126775 -0.503975 0.794675 0.33838
0.194829 -0.356842 -0.012013 0.183514 -0.463493 0.866889
-0.0192849 -0.102251 -0.0871419 -0.417948 0.528386 0.739005
-0.0850948 -0.071084 0.142018 -0.847791 -0.5209 -0.0995662
0.0508713 -0.254773 -0.0641938 -0.830738 -0.553098 -0.0629094
0.0224019 0.114507 0.0795821 0.456597 -0.645786 -0.611948
0.0957696 -0.0183123 0.186274 0.469449 -0.832796 0.293374
-0.0278628 0.047058 -0.48333 0.497232 -0.716038 -0.489948
-0.210051 0.297793 -0.229426 -0.491594 0.705495 0.510502
0.221189 -0.385863 -0.0433799 0.85672 0.505694 0.101509
-0.00627944 0.17675 0.081938 0.861222 0.496798 0.107181
0.0511101 -0.266282 0.0158005 -0.826291 -0.547502 -0.13223
0.0258106 -0.146251 -0.389405 -0.860667 -0.499454 -0.0989851
-0.0294615 0.0176388 0.107226 0.249636 -0.246942 -0.936323
-0.0669387 0.0548907 -0.158479 -0.220404 0.599174 -0.769684
0.0158934 -0.25384 0.250208 -0.847891 -0.519194 -0.107321
-0.014931 -0.174881 0.107315 -0.812291 -0.573025 -0.108748
0.141884 -0.105902 -0.148001 0.221975 -0.497518 0.838572
0.120666 -0.360957 -0.0850987 -0.905489 -0.41484 -0.0894324
0.104085 -0.35046 0.0228338 -0.840183 -0.532411 -0.103104
0.00650876 0.0319117 -0.40779 0.860552 0.506248 0.0562407
0.191796 -0.225367 0.0892064 0.470306 -0.827089 0.307793
-0.104265 0.126957 0.258501 -0.337472 0.405746 0.849402
-0.116046 -0.054456 0.332852 -0.860886 -0.495638 -0.11497
0.0231557 -0.139533 -0.411564 -0.847647 -0.526336 -0.0668218
-0.177533 0.0411923 0.338865 -0.847169 -0.522167 -0.0982163
-0.116966 0.0590642 0.452596 0.729673 0.533529 0.427697
0.15734 -0.367602 0.282807 0.899636 0.282712 0.332759
-0.0330455 -0.103223 -0.138594 -0.846554 -0.52251 -0.101636
-0.229579 0.288212 0.112348 -0.448469 0.684088 0.575239
0.063123 0.126678 -0.248646 0.850761 0.516555 0.0968318
0.176579 -0.115336 -0.154907 -0.0689286 -0.11403 0.991083
0.00605111 -0.163143 -0.162072 -0.808502 -0.570615 -0.143954
-0.275703 0.292705 -0.133036 -0.854292 -0.509696 -0.101961
-0.239856 0.305534 -0.269589 -0.491215 0.672286 0.553841
-0.118527 0.0859426 0.396791 0.846817 0.522879 0.0974608
0.0385675 -0.0318011 -0.337552 0.857555 0.502529 0.109833
0.0214136 -0.253331 0.196427 -0.906272 -0.416881 -0.0698698
-0.244697 0.205491 0.0628337 -0.797758 -0.594763 -0.0991927
0.143662 -0.0740158 0.12014 0.855884 0.505703 0.108287
0.184002 -0.110973 -0.228765 0.389223 -0.439736 -0.809406
-0.00642199 0.152182 0.220933 0.817838 0.561926 0.124016
-0.11456 0.212952 -0.320053 0.850518 0.516909 0.0970758
0.0452758 -0.192193 -0.330177 -0.843031 -0.530337 -0.0896782
-0.00706012 0.149822 -0.140021 0.273238 -0.204628 -0.93993
-0.062982 0.261386 0.120417 0.811266 0.57491 0.106425
-0.0179251 -0.137465 0.368424 0.403794 -0.754771 0.516982
0.0319629 -0.0179576 -0.303853 0.149496 -0.0567366 -0.987133
0.120454 -0.0750461 -0.273104 0.248952 -0.259763 -0.933031
-0.187805 0.146131 -0.115683 -0.822951 -0.562394 -0.0804032
-0.246858 0.354151 0.0769906 0.832968 0.539207 0.124175
-0.107951 -0.0417401 0.204689 -0.849227 -0.518378 -0.100484
0.149657 -0.226552 -0.263912 0.860451 0.496842 0.113014
-0.108899 -0.0738982 0.370122 -0.867709 -0.48659 -0.101546
0.0723726 -0.305413 0.273229 -0.222649 0.180919 0.957964
-0.0783101 0.291085 0.088009 0.85723 0.510785 0.0652415
0.150453 -0.0818405 -0.0791201 0.504676 -0.707797 -0.494292
-0.110414 0.0965103 0.274854 0.845443 0.523678 0.104825
0.0275064 0.0159854 0.11319 0.0888903 0.0673546 -0.993761
0.20161 -0.161 -0.100707 -0.498168 0.860201 -0.109012
-0.238099 0.34648 0.0403292 0.844852 0.526571 0.0945983
0.0431522 0.011541 -0.107468 -0.208873 0.090869 0.973712
-0.0121248 0.171117 0.156256 0.847101 0.522431 0.0973917
-0.0532691 -0.0712179 -0.131416 -0.79727 -0.589458 -0.130001
-0.0933638 0.0400618 -0.386393 -0.850501 -0.522827 -0.0574501
-0.131015 0.0798499 -0.251027 -0.858332 -0.504537 -0.0933205
0.199845 -0.152993 0.0445812 0.851782 0.513561 0.103548
0.238162 -0.211422 0.0352256 0.512383 -0.854074 0.0895602
-0.127222 0.117576 0.315754 0.856221 0.507813 0.0949334
-0.0113851 -0.168635 0.0489643 -0.848217 -0.5204 -0.0985509
0.0208714 0.166093 -0.23147 0.12943 -0.412183 0.901861
0.0712803 -0.323556 0.157539 -0.843288 -0.528283 -0.0989045
-0.296779 0.396719 0.0729545 -0.503303 0.74224 0.442454
0.0408658 0.13767 -0.130787 0.85787 0.501608 0.11157
-0.171157 0.0293469 0.36914 -0.876768 -0.478305 -0.0500278
0.0910846 -0.306575 -0.121002 -0.849999 -0.517636 -0.0977455
0.0135736 0.148442 0.0454421 0.825325 0.557177 0.0916129
-0.105291 0.0426241 -0.295884 -0.855593 -0.508041 -0.0992743
0.0463587 -0.0440606 -0.339079 0.838342 0.538572 0.0843969
-0.105212 0.210107 -0.380929 0.86486 0.492755 0.0959698
-0.323257 0.346298 0.0507723 -0.970106 -0.238205 -0.0463995
0.0647199 -0.149839 0.201302 -0.423353 0.851441 -0.309548
-0.0213219 -0.162872 0.108028 -0.874104 -0.477791 -0.08751
-0.186954 0.177513 -0.290155 -0.837074 -0.53748 -0.102092
0.0103036 -0.141712 -0.289161 -0.839531 -0.533942 -0.100464
0.00678858 -0.144413 -0.232526 -0.870191 -0.474839 -0.131511
0.161845 -0.0447009 -0.2076 0.84874 0.523515 0.074647
0.1171 -0.0610042 0.265782 0.863914 0.4918 0.108555
0.159222 -0.252256 -0.360546 0.461948 -0.834303 0.300902
-0.0695194 -0.105061 0.200462 -0.815366 -0.578352 -0.0262354
0.113578 0.014419 -0.0928008 0.847003 0.523549 0.0921002
-0.125459 0.00556111 0.414269 0.344847 -0.72141 0.60054
-0.152084 0.2578 -0.0608217 -0.459383 0.850214 -0.257104
0.201806 -0.224951 -0.0565438 0.497048 -0.850122 -0.173883
0.0214074 -0.15733 0.224939 -0.256448 0.558422 -0.788923
-0.232373 0.231875 -0.205403 -0.837297 -0.546621 -0.0117569
-0.17515 0.0571152 0.255289 -0.873882 -0.481652 -0.0658968
-0.049295 -0.142539 0.408658 0.511849 -0.83253 0.211906
-0.0558923 -0.0130881 -0.393638 -0.854423 -0.506579 -0.115498
-0.0231466 -0.0868505 0.180112 0.471834 -0.87041 0.140571
-0.0407596 -0.0706246 -0.243846 -0.847496 -0.519457 -0.109157
-0.2271 0.300543 -0.251672 -0.499246 0.68791 0.526815
-0.211516 0.326951 -0.307656 0.239307 -0.194121 -0.951341
-0.125872 0.272718 -0.0597445 -0.459731 0.860222 -0.220604
