ply
format ascii 1.0
comment Created by Open3D
element vertex 128
property double x
property double y
property double z
property double nx
property double ny
property double nz
end_header
-0.381552 -0.00173788 -0.259964 -0.441319 0.834515 -0.329881
0.171115 0.427616 0.381207 0.620851 0.37582 0.68797
-0.348111 0.144685 0.2284 -0.549691 0.831209 -0.0832571
0.0803403 0.419901 0.530221 0.627947 -0.189853 0.754744
0.281676 0.328848 -0.236784 0.778537 -0.52699 -0.340824
-0.243597 0.158741 0.017991 -0.50486 0.842206 -0.189224
-0.197842 -0.0419606 0.286905 -0.174404 -0.643485 0.745326
0.0289644 -0.204204 -0.261643 -0.530453 0.154562 0.833505
-0.168613 0.0787942 -0.59322 -0.502241 0.844113 -0.187691
0.0111989 -0.0477021 -0.255069 -0.0152716 -0.50428 0.863405
-0.0863249 -0.153693 0.31565 -0.159253 -0.263743 0.951356
0.326243 0.0648346 0.134862 0.894298 0.137982 0.425666
-0.0762449 -0.2819 -0.103267 0.888014 0.366042 0.278288
0.153327 -0.126374 -0.21462 -0.343132 -0.177563 0.922351
-0.273833 -0.0677916 -0.62543 0.123724 -0.301294 -0.94547
-0.381445 0.0736385 0.0434315 -0.865666 0.37745 0.328867
0.274945 -0.0547778 0.365408 0.36448 -0.896713 0.251119
0.330626 0.223315 -0.170687 0.998383 0.0428899 0.0373046
-0.0892665 0.146347 -0.0212191 0.365877 -0.855377 0.366694
-0.0124322 0.297283 0.51211 0.767189 -0.50708 -0.392799
0.388773 0.37358 -0.372833 0.472627 -0.556485 -0.683336
-0.180895 0.244076 0.244596 -0.332376 0.837877 -0.432999
-0.082122 -0.292292 0.26178 -0.161193 -0.556358 0.815158
0.177483 -0.254386 -0.254679 0.626865 -0.747686 -0.219102
0.327909 -0.0164178 0.0405557 -0.694247 -0.644744 -0.319883
0.259763 -0.0452329 -0.242571 0.257083 0.174421 -0.950519
-0.227198 0.104823 -0.239642 -0.43225 0.854404 -0.288365
0.353299 0.442578 -0.0447513 0.878064 0.134875 0.459143
0.344321 0.129439 0.0127704 0.851672 0.40989 0.326564
0.3174 0.0759151 -0.139572 -0.647699 -0.504648 0.570803
-0.0401184 -0.147181 -0.375461 0.254925 0.167576 -0.95233
-0.353157 -0.167322 0.184057 -0.835768 0.00259685 0.549076
0.194853 0.0643665 0.186671 -0.822263 -0.458829 -0.336688
-0.254622 0.154808 0.424805 -0.556801 -0.744482 0.368401
-0.177442 -0.154617 -0.356135 -0.673338 -0.541149 -0.503759
-0.160423 0.115023 -0.365452 -0.553874 0.811346 0.186925
-0.366715 -0.0304884 -0.489187 0.0182482 0.726273 -0.687164
0.158203 0.401941 0.0475063 -0.00146283 0.81603 -0.578008
0.0699254 0.0871388 -0.310508 0.399183 -0.176977 -0.899629
-0.389464 0.157757 0.377753 -0.678628 0.712208 0.179511
-0.117863 0.187058 -0.204146 -0.882245 0.31065 0.353751
0.0365588 0.125416 -0.466134 -0.0149402 -0.780885 0.624497
0.0691823 0.150702 0.305853 -0.0521273 -0.438518 -0.897209
0.359841 0.428253 -0.039173 0.624379 0.603125 0.496377
-0.488723 -0.100837 -0.218648 -0.565935 -0.0488365 -0.823002
0.139276 0.238137 -0.483197 0.486408 -0.249924 -0.837224
-0.055145 0.266707 0.41866 0.19552 -0.620938 0.759084
0.236896 0.179401 0.0766992 0.344465 -0.817214 0.462066
-0.0444425 0.00893235 0.264476 -0.770508 -0.623891 0.13068
-0.306607 -0.0544906 0.0207864 0.115973 0.0696969 0.990804
-0.296404 -0.0724921 -0.609624 -0.193761 0.498188 -0.845142
-0.14385 -0.371388 -0.0470179 -0.580889 -0.636462 -0.507429
0.187623 0.222574 0.209958 0.692848 0.484068 -0.534453
0.261255 0.110786 -0.244397 0.613131 -0.449961 -0.649312
0.392144 -0.0832343 -0.195874 0.363598 -0.833101 -0.41682
0.00542417 0.368222 0.335349 -0.213037 0.796288 -0.566163
-0.265502 -0.319356 0.154511 -0.627611 -0.76979 0.11631
-0.55828 -0.076263 -0.0781409 -0.954715 -0.0539822 -0.292585
0.113865 -0.115125 0.396509 -0.0366336 -0.64762 0.761083
-0.427641 -0.0600671 0.138707 -0.0653324 -0.984233 0.164369
-0.0646463 0.29127 0.0678732 -0.186546 0.939955 -0.285804
0.244904 0.330462 -0.431372 0.34338 -0.616115 -0.708867
-0.261329 -0.0265681 -0.126581 0.525111 0.851014 0.00578494
0.0909159 -0.30763 -0.331785 0.772958 -0.521555 -0.361271
-0.0723636 0.150818 0.313495 -0.363895 0.379062 0.850818
-0.290082 -0.0724531 0.0324898 0.768216 0.550448 -0.326881
0.29587 0.465853 0.0978762 0.348904 0.931852 0.0995856
0.0173517 0.210226 0.00999163 0.361439 -0.873465 0.326223
0.0743272 0.314645 -0.0841994 -0.0363187 0.858842 -0.510951
-0.539912 -0.00939846 0.13727 -0.510634 0.859404 0.0260179
-0.589162 -0.103665 0.0204098 -0.60366 -0.134807 -0.785762
0.102966 0.256327 0.101576 -0.788875 -0.613654 0.0332443
0.100332 0.287497 0.306457 0.934085 0.216073 0.284249
-0.00258114 0.239882 0.202775 0.314557 -0.805848 0.501659
0.0676384 0.448402 0.535074 0.624647 0.366773 0.689415
0.0910198 0.0257532 0.37917 -0.396294 0.0122278 0.918042
-0.00365929 0.165896 -0.470414 -0.540704 0.780837 0.312942
-0.185431 -0.171427 -0.0156744 0.0910769 0.466088 -0.880038
-0.085226 -0.298287 0.242623 0.487546 -0.866697 0.105519
-0.605523 -0.124766 0.172071 0.351638 -0.891635 0.285197
0.21728 0.462817 0.227042 0.891388 0.221242 -0.395575
0.142519 0.331158 -0.217888 0.0735427 0.872485 -0.483076
0.176725 0.394765 0.402426 0.481169 -0.8505 0.212429
0.216678 0.187793 -0.100061 -0.90135 -0.402372 0.160203
-0.0281735 -0.360489 -0.316016 -0.465618 -0.0849845 -0.880896
0.260243 -0.0527315 0.420765 0.659086 -0.209703 0.72224
0.223837 0.290321 0.0213257 0.907307 -0.00121033 0.420466
-0.164363 0.0929408 -0.110699 0.350573 -0.825088 0.44309
-0.394003 -0.114232 -0.344922 0.761575 -0.63244 -0.141503
0.153462 0.0373488 -0.201984 -0.504044 0.111537 0.856446
0.0542791 -0.198099 0.29611 0.647988 -0.760115 -0.0483479
-0.221924 -0.182194 0.125945 0.463773 0.709114 0.531104
-0.269172 -0.0628424 -0.265188 -0.609328 -0.784071 -0.118116
-0.485279 0.0140583 0.0145768 -0.552615 0.830565 -0.0691304
0.192403 0.194458 -0.272284 0.433965 0.180069 -0.882751
-0.10705 0.0447198 -0.457588 0.729556 -0.660309 -0.178158
0.295599 -0.0592004 0.196178 -0.876101 -0.390635 -0.282581
-0.286436 0.0430582 0.150548 0.225076 0.244759 -0.943098
0.106559 0.2506 -0.49735 -0.0768988 0.282037 -0.956317
0.220853 0.40681 -0.113893 -0.514892 0.847144 -0.131277
-0.425309 0.0759965 0.165804 -0.814888 0.57942 -0.0151941
0.0427362 -0.0515546 0.285808 0.193469 0.484534 -0.85311
-0.0514686 -0.37395 -0.184304 0.0606674 -0.997849 -0.0248537
-0.578309 -0.0162682 0.291562 -0.344085 -0.170422 0.923343
-0.567457 -0.0259936 0.293325 -0.457675 0.0926892 0.884275
0.308304 0.447969 -0.179558 -0.637991 0.769595 0.0263031
-0.246943 -0.0465434 -0.399961 0.45254 -0.802759 -0.388311
-0.115716 0.00604164 -0.315327 -0.538261 0.075542 0.839386
-0.132103 -0.266457 -0.284583 -0.75575 -0.608421 -0.242212
-0.383229 0.0522634 -0.0934932 -0.71004 0.703862 0.0205179
-0.164798 -0.370198 0.10527 0.513937 -0.841815 0.164976
-0.417046 0.0249188 0.29199 0.518158 -0.840911 0.156145
0.0272264 0.184284 -0.212692 0.562355 -0.823304 -0.0769876
0.452257 -0.0202536 -0.0412494 0.893924 0.375326 0.245009
-0.205867 -0.221341 0.252333 -0.575498 0.255018 0.777025
0.0286657 0.371392 0.21126 -0.599248 0.799498 -0.0412981
-0.146005 0.148591 0.129215 0.822533 -0.479799 -0.305339
0.414539 0.47611 -0.27078 0.876981 0.469643 0.101686
0.203824 0.11263 0.342492 0.810799 0.483739 0.329547
-0.253137 0.0537979 -0.465136 -0.747905 0.658579 -0.0831345
0.254456 0.338781 -0.425582 0.189725 0.111293 -0.975509
0.0841036 0.285094 -0.353097 -0.899657 0.405432 0.161996
0.207912 0.472627 0.249311 -0.585163 0.79611 -0.154253
-0.229582 -0.0726362 0.256012 -0.428163 0.0372362 0.902934
-0.151259 0.231314 0.475892 0.222336 -0.375475 0.89977
-0.1644 0.270317 0.305817 -0.237394 0.883848 -0.403059
0.385188 -0.0861674 -0.146517 0.638105 -0.752806 -0.16157
-0.217126 -0.159447 -0.172204 0.0520576 -0.406748 0.912056
