ply
format ascii 1.0
comment Created by Open3D
element vertex 128
property double x
property double y
property double z
property double nx
property double ny
property double nz
end_header
0.112763 0.249369 -0.225775 0.123648 -0.716719 -0.686313
-0.0826573 0.00654086 0.118269 0.165836 0.00339368 -0.986147
0.110601 0.0477276 -0.0381134 -0.246006 -0.459228 0.853575
0.0661286 0.428147 -0.267105 -0.262353 0.640945 -0.72136
-0.130281 0.0932259 -0.113875 -0.974601 0.167107 -0.149088
-0.111147 0.115252 -0.18937 -0.8937 0.289494 -0.342772
-0.132087 -0.0230731 -0.191729 -0.803885 0.476019 -0.356615
0.213833 0.237141 -0.21628 0.352157 -0.595472 -0.722079
-0.0661668 0.0520524 -0.211424 0.422085 -0.631162 -0.650752
-0.161178 -0.0836988 0.0296504 -0.971974 0.10639 -0.209637
0.0114834 -0.0816241 0.0525363 0.141784 0.822953 -0.550133
0.0555959 -0.520241 0.0294963 -0.239618 -0.86488 0.441097
-0.156632 -0.162579 -0.0687796 -0.995499 0.0768051 -0.0555248
0.0721724 0.24266 -0.145369 0.0275434 0.152012 0.987995
-0.0293971 0.106602 0.133536 0.353806 0.246277 0.902313
0.0894565 0.10862 0.0198644 0.0329549 -0.958898 -0.281829
0.101449 -0.531209 -0.0192194 0.930091 -0.22391 0.291195
-0.0784521 -0.369805 0.00247452 -0.0908668 0.0253021 0.995542
-0.142501 -0.166981 -0.0200703 -0.165965 -0.479186 0.861879
0.0942992 -0.125646 -0.146731 0.14733 -0.395679 -0.906494
0.0110226 0.0765684 -0.0267017 -0.196356 -0.793682 0.575772
0.0246879 -0.0266551 0.157892 -0.2317 -0.0968029 0.967959
0.0620445 -0.419293 -0.0620719 0.022202 -0.173211 -0.984635
-0.0546642 0.148869 -0.0577707 -0.228369 0.713684 0.662195
0.183974 0.121686 -0.186769 0.151852 -0.757059 -0.635455
-0.00150996 -0.0670921 0.118899 0.287496 0.397724 -0.871299
0.0744122 0.0222863 -0.186251 0.0234142 -0.504256 -0.863237
0.190278 0.138512 -0.12354 0.991712 0.126603 0.0218656
-0.135085 0.158372 -0.0195837 -0.682909 0.620739 -0.385121
0.0925968 0.155757 -0.197757 -0.138109 -0.0362204 -0.989755
-0.0404281 -0.324741 -0.0743882 0.216518 -0.964662 -0.150156
0.170272 0.0775039 -0.106213 0.663622 -0.147053 0.733472
0.0389687 -0.251388 -0.00596553 0.175177 0.0351696 0.983909
-0.0849808 -0.120076 0.0928836 -0.312151 -0.730639 0.60723
0.139283 0.405974 -0.168559 0.0417368 0.0871598 0.99532
-0.104362 0.0721053 0.149977 0.173923 0.192614 0.965738
-0.0922314 0.17503 -0.231288 -0.0545078 0.105148 -0.992962
0.118581 -0.422813 -0.0277395 0.897748 0.334039 -0.287169
0.027525 0.24064 -0.244476 0.355246 -0.379421 -0.854306
-0.074724 0.437205 -0.198021 -0.804876 0.223395 0.549791
0.0342599 0.149941 0.0964155 -0.0271942 0.920052 0.390852
0.00291158 0.257552 -0.145728 -0.128543 0.280419 0.951232
-0.103802 0.235733 -0.24455 -0.997421 0.0573621 -0.0431442
0.153467 0.448456 -0.245667 0.00245636 0.97662 -0.214957
0.202855 0.367712 -0.240304 0.448612 -0.571924 -0.686768
-0.0268617 -0.193625 -0.00284287 -0.185403 -0.331648 0.925006
-0.0549265 -0.142776 0.022305 -0.365374 -0.685579 0.62967
-0.0636288 0.199171 -0.113702 -0.0443169 0.476602 0.878002
0.134787 -0.197086 -0.0207646 0.639548 -0.550428 0.536663
-0.157378 0.134143 0.0583998 -0.883942 0.415472 0.214543
-0.116662 -0.512102 -0.0421219 -0.0219517 -0.985317 0.169316
0.000637422 0.416099 -0.17923 0.104099 0.0622494 0.992617
0.071766 -0.0774818 0.158193 -0.346247 -0.507313 0.789143
-0.111952 -0.37202 -0.0858343 0.225759 -0.295387 -0.928321
0.168417 -0.0363101 -0.142426 0.0656988 -0.557064 -0.827867
-0.0151807 -0.120937 0.115066 -0.0181556 -0.845162 0.534202
-0.151883 -0.200571 -0.130856 -0.397682 0.398032 -0.826692
-0.0561127 0.115946 -0.000717039 -0.42751 -0.899582 0.0893754
-0.0154555 0.437764 -0.274045 -0.324426 0.762165 -0.560225
-0.0586763 -0.283862 -0.00578482 0.466091 0.443329 0.765649
-0.0577706 0.0863735 -0.0673393 -0.202044 -0.604468 0.770582
0.00970125 0.368681 -0.267514 0.10777 -0.293618 -0.949828
-0.148056 -0.0985346 -0.141263 -0.933676 0.249944 -0.256472
0.0984045 -0.290455 -0.00314963 0.784398 0.284158 0.551339
-0.0559438 0.269139 -0.159008 -0.194747 0.341256 0.919575
-0.0381316 0.0385321 0.167502 -0.0609563 -0.19086 0.979723
0.131032 -0.0134385 0.180421 0.951403 0.0491716 0.303996
-0.187391 -0.485249 -0.0676344 -0.768807 0.446676 -0.45762
0.0473547 -0.191098 -0.125825 0.0453049 -0.0847193 -0.995374
-0.123977 -0.469405 -0.0607785 -0.315286 -0.163204 -0.934858
0.08466 0.104958 0.136698 -0.0259213 0.726555 0.686619
-0.0616474 0.0994493 0.0722752 -0.0511717 -0.626576 -0.777678
0.152873 -0.0985889 -0.0200667 0.27508 0.952203 0.132814
0.03636 0.0921581 -0.199096 0.144222 -0.252544 -0.956777
-0.105138 -0.283432 -0.115113 -0.147738 -0.02866 -0.988611
-0.148735 -0.28932 -0.0142232 0.0790597 0.0659568 0.994686
-0.0309939 0.34135 -0.167887 -0.0732403 0.135958 0.988004
0.0615991 0.0230452 -0.0540251 -0.895531 0.268998 0.354491
-0.139659 -0.0663241 -0.0816735 -0.894702 0.39269 -0.212842
-0.165154 -0.0456355 0.0907273 -0.968254 -0.221213 0.1164
0.0772768 0.0180271 0.126944 0.356236 -0.625003 -0.694598
0.0118818 -0.0715339 -0.162785 0.0845482 -0.545007 -0.834158
0.179684 0.328319 -0.148271 0.25197 0.347968 0.903011
0.131008 -0.00682962 -0.0549007 -0.249379 -0.434317 0.865551
0.132483 0.202296 -0.10508 -0.389323 0.529432 0.753743
0.216154 0.419419 -0.199581 0.473474 0.863338 0.174553
-0.15904 -0.299594 -0.0860196 -0.958194 0.206182 -0.198377
0.140868 0.142595 -0.00895156 -0.162193 0.969847 0.181907
-0.170545 -0.402654 0.0138659 -0.531272 0.355143 0.76917
0.0505822 -0.334502 -0.0843568 -0.278409 0.0505397 -0.959132
0.137223 0.350425 -0.259485 -0.415502 0.586827 -0.694976
-0.169481 0.0574851 0.0952545 -0.00394743 -0.00769743 -0.999963
-0.0111554 -0.437738 0.0411312 -0.59869 0.315191 0.736359
0.0678 -0.381085 0.0361884 0.0711121 0.0772237 0.994475
-0.0386132 -0.427823 -0.0579727 0.272929 0.877843 -0.393574
0.13137 -0.356674 -0.0478197 0.956114 0.276353 -0.097338
-0.156665 -0.233238 -0.052542 -0.986592 0.0164472 0.162378
-0.0399572 -0.0181043 -0.185569 0.270662 -0.693742 -0.66743
0.0953585 -0.452179 0.0434782 0.780499 0.163566 0.60338
0.139393 0.121686 0.0782214 0.868681 0.358095 0.342289
0.122483 -0.100002 0.101338 0.773269 -0.335066 0.538318
0.0478166 0.194362 -0.130226 -0.0436475 0.568981 0.821191
-0.100787 0.334001 -0.20051 -0.855751 0.514419 -0.0553522
-0.183782 -0.377414 -0.091144 -0.997923 0.0433638 -0.0476287
0.158169 -0.126175 -0.060375 0.996791 -0.0479601 -0.0640912
0.111927 -0.220542 -0.103997 -0.421766 -0.0397089 -0.905835
0.188703 0.246312 -0.128749 0.57364 0.019251 0.818881
-0.186865 -0.473002 0.00960983 -0.326472 -0.500968 0.801528
-0.0339993 0.304312 -0.258561 0.0765617 -0.0452558 -0.996037
-0.112167 -0.0859396 -0.0238653 0.0753642 0.974515 0.211283
-0.0104763 -0.528137 -0.0501495 -0.125632 -0.962344 0.24106
-0.00290929 0.158112 0.0253509 0.0284783 0.997935 0.0575769
0.0601961 -0.190761 0.0114382 -0.309228 -0.299702 0.902528
0.0483223 -0.0579906 -0.0474524 -0.0482531 0.552472 0.832133
-0.0559914 -0.149428 -0.154814 0.117705 0.0401306 -0.992237
-0.0857258 0.36534 -0.27917 -0.800678 0.423009 -0.424238
-0.00930855 -0.325569 0.0063474 -0.582926 -0.812053 0.0276854
0.0693129 -0.143302 0.107309 -0.502705 -0.557282 0.660852
-0.123046 0.00450568 -0.0878211 -0.0761872 0.026407 0.996744
-0.0215436 -0.0118704 -0.0779328 0.329506 0.118827 0.936646
0.0511591 0.154211 -0.0455366 0.0632495 0.982302 0.176304
-0.071559 -0.0588893 0.144719 0.28066 -0.67994 0.67743
0.132986 -0.295357 -0.0790371 0.995809 -0.0649493 -0.0643862
-0.0859778 -0.44232 0.0319979 -0.100156 0.515705 0.850892
0.00848102 0.163887 -0.219045 -0.0907676 -0.660028 -0.745737
0.0700906 0.445441 -0.195914 0.0411763 0.720793 0.691926
-0.116233 0.164524 -0.133002 -0.609658 0.584455 -0.535471
0.0920208 0.325599 -0.156079 -0.979309 -0.196595 -0.048002
