ply
format ascii 1.0
comment Created by Open3D
element vertex 512
property double x
property double y
property double z
property double nx
property double ny
property double nz
end_header
0.0544592 -0.506141 -0.0461266 0.0358741 -0.22899 -0.972767
-0.122803 0.150409 -0.113718 -0.89688 0.430548 0.101171
-0.0997881 -0.238542 -0.0238692 -0.114958 0.09016 0.98927
-0.0823947 -0.140051 0.0326795 -0.17066 -0.863016 0.475478
0.177786 0.197963 -0.214804 0.0937827 -0.272153 -0.957673
-0.121799 -0.0443155 -0.0699477 0.0166692 0.578386 0.815593
0.0475983 0.232838 -0.133037 -0.0896064 0.217359 0.97197
0.0853971 -0.530271 -0.00844691 -0.113787 -0.965127 0.235759
-0.151956 -0.113494 0.064395 -0.687846 -0.679684 0.25475
0.12063 0.144027 -0.204917 0.0965588 -0.267016 -0.958843
-0.115349 -0.123068 0.0674951 -0.141333 -0.916767 0.373583
0.00781204 0.287644 -0.227308 0.974518 0.214165 0.0666931
0.118581 -0.317174 -0.00240879 0.76776 0.045469 0.639122
-0.0365731 0.106025 -0.21105 0.0762729 -0.223527 -0.971709
0.0333913 -0.313848 0.00833893 -0.114493 0.285423 0.951538
-0.0955967 -0.0580632 0.0834332 0.125513 0.731265 -0.670446
0.0110976 -0.257094 -0.114802 0.0603407 -0.169155 -0.983741
0.0412785 -0.300098 -0.100956 0.0862008 -0.240826 -0.966733
0.112266 0.139629 -0.0449694 0.0495516 0.972144 0.229088
-0.0771063 0.185579 -0.236923 0.0985606 -0.253774 -0.962229
0.21099 0.379129 -0.210003 0.98481 -0.0958127 0.14481
0.0184793 0.390043 -0.281341 0.095623 -0.249163 -0.963729
0.172893 0.426254 -0.258894 0.170313 0.62367 -0.762909
0.105603 -0.50804 -0.0414461 0.0731686 -0.238068 -0.968489
0.0121462 0.273854 -0.214201 0.799901 0.595479 -0.074591
0.151348 -0.119177 -0.0944471 0.984024 -0.0978609 0.148731
0.0276973 -0.0629886 0.166365 -0.170627 -0.403314 0.899013
-0.159975 0.00290372 0.142616 -0.806122 0.019606 0.591424
-0.160518 -0.0645295 0.110356 -0.821785 -0.412612 0.392964
0.150106 0.332246 -0.253461 0.116011 -0.190517 -0.974805
0.187268 0.212876 -0.21586 0.127618 -0.271511 -0.953937
0.18301 0.375025 -0.162404 0.401102 0.173718 0.899411
-0.132341 -0.475678 0.0268241 -0.138277 -0.260942 0.9554
-0.0309763 -0.0314757 -0.176015 0.0965694 -0.25695 -0.961588
0.0453435 -0.303035 -0.0989739 0.114756 -0.27376 -0.954928
-0.160294 -0.20974 -0.0745719 -0.990115 0.0881369 -0.109109
0.135166 0.195838 -0.112998 -0.0670536 0.403009 0.912736
-0.125123 -0.282847 -0.118849 0.114837 -0.307407 -0.944623
0.114409 0.388173 -0.269449 0.0917212 -0.212203 -0.972912
-0.134451 -0.289944 -0.0143403 -0.0907063 0.284365 0.954415
-0.157147 -0.165916 -0.0364915 -0.917053 -0.169508 0.360945
0.0755269 0.417764 -0.177461 -0.104842 0.271168 0.956805
-0.0566571 -0.429297 -0.0641218 0.447581 0.344651 -0.825159
0.0981844 -0.293145 0.00638248 0.114881 0.237423 0.96459
0.0370183 0.126997 0.114205 0.0226941 0.851599 0.523702
-0.134688 0.00832733 0.160653 -0.191231 -0.0425984 0.98062
0.137605 -0.21627 -0.0587077 0.980746 -0.14383 0.132102
0.166667 0.326486 -0.146709 0.082346 0.308996 0.947492
0.149694 0.205566 -0.114222 -0.0890212 0.330968 0.939433
-0.0218589 0.136573 0.0993172 -0.0142175 0.889146 0.457403
0.0970548 -0.0625185 -0.0428648 -0.0450788 0.598701 0.799703
-0.043441 -0.0108215 0.171742 -0.0578243 -0.13068 0.989737
0.11081 -0.400109 -0.0668165 -0.0307901 -0.218504 -0.97535
-0.125358 0.115756 -0.133761 -0.975774 0.119463 -0.183286
-0.139451 -0.386522 0.00667438 -0.094539 0.236609 0.966995
0.0633562 0.0984184 0.00493972 -0.137386 -0.940222 0.31162
0.198642 0.350873 -0.250609 0.0963037 -0.191512 -0.976754
-0.150496 -0.194603 -0.0385794 -0.757579 -0.0983173 0.645297
-0.155318 -0.21167 -0.0447968 -0.824912 -0.0229686 0.564795
0.00563335 0.398512 -0.179806 -0.11547 0.276912 0.953932
-0.124453 -0.441351 0.0238923 -0.108652 0.319966 0.941178
-0.136103 -0.132496 0.0273611 -0.436934 -0.815868 0.378744
-0.0163187 -0.200997 -0.00796355 -0.136856 -0.366167 0.92043
0.126897 -0.310649 -0.0301602 0.994283 -0.0630267 0.0861949
0.122329 -0.154233 0.0408949 0.627596 -0.64396 0.437536
-0.0727391 -0.0708488 -0.0394631 -0.0086858 0.84733 0.530995
0.0267695 -0.268981 -0.109958 0.0646483 -0.222374 -0.972816
0.013367 0.423006 -0.285754 0.0812403 0.193545 -0.977722
0.121009 -0.404296 -0.0503474 0.9804 -0.111846 0.162194
0.119024 -0.1727 0.0208149 0.557463 -0.569997 0.603604
0.168182 0.440003 -0.234077 0.0948179 0.973873 -0.206353
-0.0382276 0.0102654 0.120519 0.134156 -0.0401755 -0.990146
-0.0894654 0.3802 -0.230363 -0.995781 0.076959 -0.0499725
-0.0535817 0.0539007 -0.0720925 -0.189789 -0.395386 0.898693
0.170238 0.0738183 -0.0916139 0.990316 -0.0832815 0.111077
0.0857554 0.141861 -0.0107069 0.188498 0.940738 -0.281922
0.115505 0.370829 -0.161061 -0.0932964 0.246324 0.964687
-0.0453742 -0.167137 0.00682537 -0.0965091 -0.668469 0.737452
0.0822359 0.225151 -0.128326 -0.0875426 0.229897 0.96927
0.111199 -0.114339 -0.139605 0.104086 -0.29388 -0.950158
-0.0558889 -0.403513 -4.72218e-05 0.435028 0.880318 -0.189187
-0.00305151 0.364847 -0.17494 -0.0800072 0.203324 0.975837
0.0575462 0.131284 0.104171 0.0230626 0.863607 0.503638
-0.107156 -0.47655 -0.0695111 0.0639055 -0.240395 -0.968569
0.0887598 0.150986 -0.0718651 0.0295892 0.896991 0.441058
-0.107097 -0.0845433 -0.173194 0.0842962 -0.240827 -0.9669
0.179936 0.0787741 -0.16282 0.986297 -0.0990463 0.131943
-0.0410876 -0.0697743 -0.0396634 -0.0200955 0.782221 0.622677
-0.155193 -0.33334 -0.0119521 -0.463635 0.238376 0.853358
0.0484036 0.0732429 0.163317 -0.0517967 0.494308 0.867742
0.174922 0.0182124 -0.168944 0.98381 -0.112644 0.139391
0.124138 0.23563 -0.229601 0.0857088 -0.231339 -0.969091
-0.102256 0.211221 -0.149727 -0.728476 0.379435 0.570395
-0.187149 -0.485848 -0.0548185 -0.998885 0.0113983 -0.0458229
-0.091141 0.187608 -0.122052 -0.353056 0.624834 0.696372
-0.0303077 0.269735 -0.255765 0.120952 -0.278784 -0.952707
0.120836 -0.0113967 -0.167234 0.0940512 -0.175962 -0.979894
0.198184 0.257141 -0.192345 0.992203 -0.0625953 0.107776
-0.129357 -0.0137288 -0.0871296 -0.0718677 0.305109 0.949602
0.086552 -0.00632959 0.184792 -0.144102 0.0302089 0.989102
-0.130269 0.0027808 -0.184954 -0.994766 0.0582745 -0.0839365
-0.00194977 -0.10493 -0.15483 0.0821022 -0.233789 -0.968815
-0.00363788 -0.317917 -0.00231285 -0.625367 -0.7641 0.158325
0.126399 -0.0084185 0.168747 0.823883 -0.117145 0.554522
-0.120184 -0.406374 -0.0885073 0.103644 -0.269996 -0.957267
-0.0701988 -0.218813 -0.0224613 -0.114818 -0.15139 0.981783
-0.0415893 -0.524863 -0.0501395 0.0551546 -0.297977 -0.952978
-0.107344 0.0228373 -0.197723 0.080768 -0.196281 -0.977216
0.0168695 0.0607323 0.165993 -0.0763636 0.376797 0.923143
0.0980544 -0.0187107 0.13616 0.155134 0.16588 -0.973867
-0.120754 -0.278797 -0.123243 0.109163 -0.281174 -0.953428
-0.071926 0.217371 -0.141012 -0.109008 0.433923 0.894331
0.0488594 0.0320708 -0.0669671 -0.115466 -0.363749 0.924313
0.00565737 0.307691 -0.262115 0.0747286 -0.226758 -0.97108
0.100738 0.0291729 -0.0593992 -0.124205 -0.337187 0.933209
0.151853 -0.110702 -0.0908876 0.990901 -0.0794707 0.108623
-0.0810716 -0.442194 0.0284022 0.0160353 0.200802 0.9795
-0.138928 -0.0556612 -0.154883 -0.994055 0.0715869 -0.0820341
0.0231907 -0.510787 0.0307963 -0.118067 -0.810516 0.573693
0.125931 -0.391025 -0.0639094 0.989858 -0.0814131 0.116414
0.0968777 -0.507655 0.0396191 0.807539 0.00808938 0.589759
-0.100032 0.24889 -0.164184 -0.786384 0.248256 0.565658
0.104585 -0.267533 -0.102997 0.0928571 -0.237947 -0.966829
0.0509341 0.02911 0.127502 0.0377975 -0.209767 -0.97702
0.00705462 0.216836 -0.2366 0.104856 -0.270093 -0.957108
-0.165671 -0.0621739 0.0723445 -0.990234 0.0825638 -0.112335
-0.00312294 0.149035 -0.0504594 0.0934589 0.990568 0.100204
0.144698 -0.0229262 -0.161481 0.0433923 -0.186166 -0.98156
-0.0543574 -0.510473 0.00962566 -0.126537 -0.946797 0.295912
0.0965125 0.172332 -0.215197 0.125358 -0.256358 -0.958418
-0.0679228 -0.0851803 0.0409142 0.0821243 0.975675 -0.203259
-0.128072 0.111451 0.0397265 -0.0323092 -0.960332 -0.276982
-0.0595602 0.322465 -0.16776 -0.136739 0.264934 0.954522
-0.0593863 0.038562 -0.19689 0.100884 -0.28722 -0.952537
-0.0289293 -0.252634 -0.0143529 -0.106147 0.204205 0.973156
0.0462996 0.155038 -0.215583 0.101402 -0.214232 -0.971505
-0.165413 -0.252351 -0.0559707 -0.964824 0.132783 0.226898
-0.0498969 0.157236 -0.0136839 0.153118 0.963026 -0.221668
0.0428871 -0.127595 -0.144775 0.120123 -0.28097 -0.952169
-0.0993266 -0.489261 -0.0633674 0.0937927 -0.240865 -0.966016
-0.108497 -0.0236509 0.156299 -0.149425 -0.205124 0.967262
-0.0198712 0.0756132 0.0944894 0.0287612 -0.713551 -0.700013
-0.0699428 -0.118736 -0.157552 0.0959202 -0.253758 -0.9625
0.17322 0.376691 -0.159499 0.0876102 0.221755 0.971159
-0.0829611 0.159493 -0.0229421 0.168184 0.958643 -0.229603
-0.0520304 -0.510295 0.00877947 -0.13685 -0.942225 0.30575
0.203292 0.321066 -0.180068 0.971965 -0.0871867 0.218362
-0.0930197 0.291645 -0.250303 -0.995963 0.0657038 -0.0611629
0.10682 0.0120412 0.184195 0.305777 0.0452385 0.951028
-0.114902 -0.10506 0.0998444 -0.18058 -0.773661 0.607322
-0.0305683 -0.315419 -0.0305256 0.0241857 -0.971975 0.233837
-0.180177 -0.445387 -0.0809861 -0.993883 0.0754201 -0.0806792
-0.0440281 -0.0371213 -0.177036 0.0743925 -0.22704 -0.97104
-0.0661728 -0.490351 -0.0603547 0.111025 -0.287379 -0.951361
0.11835 -0.0157718 -0.0603068 -0.15959 0.163516 0.973547
0.0825698 -0.0145254 -0.170227 0.0923638 -0.241478 -0.966001
-0.00629661 0.407205 -0.286942 0.13824 -0.247178 -0.959058
-0.0895189 0.149882 -0.22772 0.135413 -0.276464 -0.951436
0.147703 -0.19556 -0.111568 0.989729 -0.0858107 0.114334
-0.0654721 -0.0873439 -0.000489238 0.0164223 0.971065 0.238249
-0.0626978 0.192293 -0.239281 0.0929631 -0.287123 -0.953372
0.0775045 0.142199 -0.0217661 0.0743859 0.995041 -0.0660326
0.212272 0.405652 -0.254233 0.935743 0.352542 -0.00991958
0.0172987 0.254256 -0.140141 -0.0962391 0.248904 0.963735
-0.113347 -0.141753 -0.159219 0.0350018 -0.208133 -0.977474
0.144565 -0.147756 -0.0233477 0.986177 -0.0930926 0.137072
0.126227 0.052882 0.123996 0.0747119 -0.631841 -0.771489
-0.0698328 0.453976 -0.235326 -0.646103 0.76292 0.0224596
-0.112525 0.192835 -0.179747 -0.979364 0.122995 -0.160369
0.00540466 0.0940329 -0.0257041 -0.258731 -0.852001 0.45514
-0.0156398 -0.0692213 0.0873766 0.184968 0.750977 -0.633893
0.118963 0.152645 -0.0766757 0.0577581 0.843789 0.533559
0.153193 -0.108865 -0.0826242 0.987522 -0.0921801 0.127687
0.00710076 0.398861 -0.180884 -0.0598098 0.196327 0.978713
0.0116771 0.0642968 -0.198732 0.0730582 -0.23585 -0.969039
0.194998 0.256472 -0.175712 0.993913 -0.0831187 0.072311
-0.080053 -0.489357 0.0295938 -0.145597 -0.487464 0.860918
0.0940065 0.0696861 -0.0355476 -0.172341 -0.652524 0.73791
-0.0970982 -0.00172589 0.112579 0.134965 0.168433 -0.97643
0.165028 -0.00401783 -0.11272 0.992423 -0.0760291 0.0965194
-0.0154513 0.0513197 -0.067267 -0.158969 -0.443947 0.881839
-0.108334 0.172826 -0.229972 -0.989022 0.0863567 -0.119909
-0.158408 -0.0816625 -0.00403213 -0.992097 0.0761779 -0.0997022
-0.102536 0.274808 -0.204695 -0.998015 0.0406983 -0.0480673
-0.143384 -0.0812807 -0.118805 -0.97151 0.111703 -0.209021
-0.0645473 0.220578 -0.139609 -0.087802 0.399022 0.912728
-0.178171 -0.405525 -0.00698717 -0.833153 0.219724 0.50752
0.0254114 0.0289627 0.176582 -0.0551887 0.158197 0.985864
0.00932347 0.0712795 0.161127 -0.0691276 0.418471 0.905595
-0.0503157 0.214605 -0.136828 -0.0707794 0.366557 0.927699
0.0398738 0.34074 -0.263409 0.298044 -0.891768 0.340468
0.0209016 -0.122884 0.110059 -0.213217 -0.825037 0.523309
0.0672969 -0.173914 0.0204829 -0.133521 -0.688749 0.712599
-0.159216 -0.460071 0.0259044 -0.128598 0.0461272 0.990623
0.0260602 0.0727875 -0.0472259 -0.127839 -0.714124 0.688247
-0.0396408 0.407097 -0.187301 -0.0689341 0.24007 0.968305
0.0147121 0.448073 -0.267485 0.0643578 0.900177 -0.430743
0.14642 -0.204286 -0.113778 0.993696 -0.0621741 0.0932877
0.0552897 -0.00689534 -0.0676537 -0.0974992 0.0758146 0.992344
-0.0115654 -6.74099e-06 -0.0789612 -0.124669 0.0885612 0.988238
0.0175783 0.154669 0.0227916 0.0940682 0.995246 -0.0252202
-0.124806 -0.092183 0.114627 -0.145094 -0.711939 0.687089
0.110493 -0.442481 0.00391089 0.979847 -0.0907024 0.177972
-0.0856241 0.398013 -0.240365 -0.978003 0.11852 -0.171649
0.0891734 -0.297451 -0.0956425 0.0821322 -0.239997 -0.967293
0.0249246 -0.210542 -0.124088 0.0766912 -0.214971 -0.973605
0.11437 -0.151779 0.0493783 0.533852 -0.721304 0.441274
-0.00639831 0.454562 -0.257063 0.0686868 0.968828 -0.238022
0.0078407 -0.000471958 0.175599 -0.155197 -0.0182424 0.987715
-0.120263 -0.104741 0.102078 -0.0653246 -0.805004 0.589662
0.20286 0.38258 -0.18 0.844476 0.0248115 0.535018
-0.0529799 -0.415817 0.0241827 -0.128672 0.278508 0.951775
0.0102735 -0.118152 -0.14836 0.0513547 -0.188886 -0.980655
-0.100261 -0.347054 -0.100375 0.171925 -0.274665 -0.946045
0.122691 -0.39009 -0.0675314 0.127444 -0.33406 -0.933896
0.0990863 -0.0336468 0.182453 0.179599 -0.21269 0.960472
0.0208576 -0.467239 -0.0604769 0.133863 -0.255501 -0.957497
0.130654 0.43169 -0.261166 0.17523 0.680092 -0.711877
-0.116768 0.176725 -0.159313 -0.978237 0.199998 -0.0552509
-0.100198 -0.373946 -0.0925066 0.401779 -0.257645 -0.878745
0.0897976 0.377356 -0.168198 -0.0737674 0.21083 0.974735
0.132486 -0.132396 0.0470929 0.934897 -0.29701 0.1943
0.0360245 0.221737 -0.133982 -0.119732 0.259368 0.958328
0.0337668 0.14476 0.0793754 0.0188434 0.943082 0.332026
0.0999749 0.063732 -0.038263 -0.176505 -0.631009 0.75543
-0.0573206 0.0827948 -0.207785 0.0906522 -0.24114 -0.966247
-0.169055 -0.477901 0.0188991 -0.128892 -0.469659 0.873388
-0.19124 -0.49402 -0.0491635 -0.987115 0.0926182 -0.130483
-0.00988792 0.0930825 -0.203965 0.0928854 -0.266465 -0.959359
0.0875463 0.0980277 0.0397093 -0.129824 -0.990854 -0.0367874
-0.0805777 -0.0837093 0.0410235 0.168307 0.938991 -0.299948
0.180373 0.145229 -0.132625 0.987572 -0.0923779 0.127156
-0.124882 -0.00860338 -0.193245 0.109871 -0.265906 -0.957717
-0.0108239 0.259714 -0.146355 -0.160456 0.343977 0.925167
0.0321142 -0.0882569 0.148684 -0.162399 -0.587558 0.792718
-0.161003 -0.0334976 0.128572 -0.89334 -0.142326 0.426247
0.0364722 -0.0167561 -0.173856 0.180993 -0.293184 -0.938768
-0.0358151 0.159765 -0.0750878 0.0456818 0.934445 0.353166
0.123747 -0.326819 -0.0270322 0.989164 -0.0874955 0.117894
-0.0556939 -0.115178 0.100485 -0.155628 -0.82963 0.536184
0.131341 -0.269005 -0.0365789 0.981723 -0.0929366 0.166081
-0.14882 -0.508467 -0.019585 -0.139683 -0.949644 0.280472
-0.103083 0.212811 -0.23983 -0.997813 0.0543231 -0.037648
-0.0860083 -0.42446 0.0219168 -0.112543 0.266459 0.957253
-0.134546 -0.136414 0.0204253 -0.37199 -0.798911 0.472615
-0.130109 -0.0236848 0.100061 0.134361 0.423776 -0.895746
0.0927162 0.337572 -0.192338 -0.870173 -0.486819 0.0761988
-0.000739006 0.311799 -0.168121 0.997684 0.0639048 0.0232937
0.0217329 0.269238 -0.185608 0.638208 0.757834 -0.135564
0.0933952 0.369557 -0.164668 -0.0948065 0.241995 0.965635
0.128435 0.378957 -0.265719 0.0836732 -0.183814 -0.979393
0.0142524 -0.0889623 0.0620184 0.116132 0.941793 -0.315498
-0.00274679 -0.0668566 -0.164656 0.0696989 -0.238902 -0.968539
-0.15929 -0.249686 -0.0428761 -0.810683 0.230072 0.538387
-0.120129 0.0585847 -0.20835 0.0910833 -0.241335 -0.966158
-0.0963292 0.321827 -0.214227 -0.972747 0.165291 -0.16261
0.0593728 0.359124 -0.197141 -0.206163 -0.94379 0.258376
0.0622212 -0.174355 -0.129223 0.100049 -0.265308 -0.958959
0.168955 0.311501 -0.142242 0.108844 0.312349 0.943711
-0.100108 0.276477 -0.214484 -0.994115 0.0555025 -0.0930307
-0.0280607 0.231735 -0.139897 -0.0393251 0.234823 0.971242
0.103248 0.0940561 0.0168434 -0.129361 -0.971254 0.199828
-0.108996 -0.346621 -0.104395 0.111969 -0.276022 -0.954607
0.00136482 0.459773 -0.236634 0.129758 0.964184 -0.231326
-0.0277854 0.00594558 0.173192 -0.114592 -0.00780833 0.993382
0.097615 -0.0605282 0.173933 0.169081 -0.416363 0.893338
0.0912352 -0.415592 -0.0664452 0.106081 -0.260247 -0.959697
0.139482 -0.190419 -0.0452443 0.991379 -0.0667768 0.112735
0.161621 -0.00515015 -0.0719695 0.988706 -0.0892078 0.120427
-0.154229 -0.24289 -0.133672 0.125301 -0.267585 -0.955352
-0.135776 -0.141144 0.0132017 -0.462363 -0.740767 0.487325
0.00530881 -0.0756303 0.153672 -0.241177 -0.490874 0.837183
0.0940324 0.0875245 -0.0117587 -0.162288 -0.864982 0.474835
-0.0876482 0.323342 -0.182963 -0.732783 0.338704 0.590177
0.0620372 0.404204 -0.278039 0.100753 -0.183061 -0.977925
0.201474 0.2552 -0.220603 0.988955 -0.0868825 0.120084
0.0804605 -0.175197 0.0228046 -0.179723 -0.653885 0.734938
-0.00406461 0.251405 -0.246129 0.113979 -0.26389 -0.957795
-0.0106016 -0.51583 -0.0494812 0.0756822 -0.173211 -0.981973
0.127662 -0.167574 -0.126215 0.0835289 -0.277462 -0.957099
0.122527 0.252383 -0.234373 0.0870378 -0.197309 -0.97647
-0.162657 -0.208857 -0.0638092 -0.995567 0.073516 0.0586694
-0.107108 -0.130947 0.048449 -0.0833673 -0.971008 0.224038
0.00507495 0.299831 -0.225368 0.986368 -0.0792178 0.144232
-0.117793 -0.0830304 -0.0059331 0.0585375 0.982003 0.179567
-0.0872082 -0.0130551 -0.186715 0.0918183 -0.259675 -0.961321
0.116878 0.0894468 -0.19354 0.142415 -0.316703 -0.937772
0.0563211 -0.0971697 0.0388097 0.0958583 0.994389 -0.0447314
0.0371675 0.127468 -0.210242 0.0864172 -0.240284 -0.966848
0.183123 0.112092 -0.171085 0.997184 -0.0502623 0.0556599
-0.117872 -0.0737945 0.1333 -0.155148 -0.557057 0.815853
0.00954029 -0.389878 0.0228281 -0.103333 0.165225 0.980828
-0.0496231 0.0830258 -0.05111 -0.109866 -0.704181 0.701469
0.169202 -0.0277903 -0.156347 0.986086 -0.100392 0.132495
0.103065 -0.513993 0.0261002 0.985455 -0.0525782 0.1616
-0.0694535 0.138865 0.0952897 0.0681548 0.842699 0.534054
-0.0337229 0.148366 0.0747587 0.0878224 0.945958 0.31217
0.112112 -0.228131 -0.00372186 0.393884 -0.202012 0.896686
-0.0818761 0.420939 -0.264011 -0.99555 0.0582715 -0.074055
0.132697 0.143669 0.0420551 0.386374 0.918374 0.0854661
0.095234 0.0958086 0.0120115 -0.0940329 -0.972506 0.213049
-0.0161675 0.080776 -0.206317 0.0917259 -0.236711 -0.96724
-0.0729048 -0.387548 0.00908301 0.798117 0.598557 -0.068834
-0.187797 -0.481079 -0.0579498 -0.988685 0.0892672 -0.120554
0.0856983 0.241467 -0.131789 -0.0832976 0.235734 0.968241
0.0594275 0.11919 -0.204679 0.161447 -0.32371 -0.932281
-0.120864 -0.232049 -0.132948 0.0921255 -0.23455 -0.967729
-0.133596 -0.496173 -0.0671841 0.0989239 -0.2568 -0.961388
-0.0240503 -0.0442921 0.109077 0.14876 0.495294 -0.855894
0.0146017 -0.50568 -0.0492079 0.068254 -0.246886 -0.966638
-0.153906 -0.140672 -0.0162819 -0.870913 -0.370152 0.32326
-0.0387152 -0.0987642 -0.159599 0.0975407 -0.264052 -0.959564
0.131202 -0.314924 -0.0714052 0.991826 -0.0622462 0.111385
0.01069 -0.486465 0.0440744 -0.146514 -0.208972 0.966884
-0.182636 -0.429346 -0.0725398 -0.974606 0.180061 -0.133123
0.128282 -0.346839 -0.0752629 0.99357 -0.0895378 0.0692993
0.193606 0.278254 -0.15907 0.881527 0.00416448 0.472116
-0.157542 -0.260456 -0.0360619 -0.720699 0.249596 0.646757
-0.0286994 0.460519 -0.216548 0.0276323 0.897239 0.44068
0.0402345 0.125943 -0.211152 0.108297 -0.256351 -0.960498
0.045113 0.262384 -0.177978 0.0857757 0.975449 -0.202834
0.16276 -0.036998 -0.127168 0.981634 -0.133691 0.136095
-0.0453247 0.409667 -0.187314 -0.102121 0.214671 0.971333
0.0356585 -0.360352 0.0183153 -0.0955056 0.24688 0.964328
-0.134411 0.0889967 0.136804 -0.372978 0.42925 0.822576
0.053528 -0.363969 0.021794 -0.110164 0.297423 0.948369
0.00432409 0.142472 0.0894254 0.00220635 0.90412 0.427274
0.0449006 0.452299 -0.244512 0.159092 0.931602 -0.326815
-0.0221463 -0.0930719 0.0202909 0.0790159 0.994756 0.0649455
-0.0383061 -0.304763 -0.106539 0.141099 -0.465302 -0.873834
0.00241831 -0.332783 -0.0555665 -0.539548 -0.831336 0.133296
0.0972737 -0.325006 -0.0900682 0.0962877 -0.252351 -0.962833
-0.0726618 -0.0876457 0.00709324 0.131263 0.989871 0.0540823
0.104906 0.305261 -0.147174 -0.0796996 0.187467 0.979032
0.0906516 -0.533717 -0.0148455 -0.117462 -0.963108 0.242129
-0.110132 0.173914 -0.216737 -0.98454 0.101708 -0.142604
0.0691578 0.0282552 -0.183345 0.0941208 -0.238567 -0.966554
-0.0744667 -0.406471 -0.0650434 0.75696 0.270481 -0.594854
0.122955 -0.0186338 -0.164012 0.123637 -0.277406 -0.952764
-0.0282639 -0.237331 -0.122242 0.0971287 -0.189696 -0.977027
-0.00213798 0.161197 -0.223876 0.134668 -0.297129 -0.945293
0.152407 0.374983 -0.263476 0.0832642 -0.240814 -0.966993
-0.141555 -0.293927 -0.119132 0.0523679 -0.166341 -0.984677
-0.00220528 -0.397587 0.0124302 -0.621923 0.756583 -0.201975
-0.102298 0.256069 -0.228849 -0.982083 0.118011 -0.146922
-0.159272 -0.0748624 0.033042 0.165232 0.941409 -0.29402
-0.0952809 0.313445 -0.234678 -0.980518 0.133635 -0.143965
-0.0768513 -0.376084 -0.0438021 0.989421 0.097325 0.107585
-0.0128145 -0.121017 -0.151783 0.0971488 -0.24213 -0.965368
-0.153675 -0.0981793 0.0922533 -0.709274 -0.591385 0.383659
0.0088893 0.324802 -0.216363 0.886544 -0.417569 0.199187
-0.0862409 0.0882339 0.145009 -0.117558 0.506798 0.854011
-0.148172 -0.169677 -0.146272 -0.994457 0.0403302 -0.0971062
0.18923 0.431567 -0.247019 0.153791 0.823194 -0.546535
-0.0872577 0.0260546 0.164277 -0.111527 0.0859683 0.990036
0.203896 0.359733 -0.175284 0.877805 0.0348584 0.477747
-0.0661274 -0.237009 -0.126039 0.0939168 -0.345844 -0.93358
0.199482 0.336985 -0.248778 0.0926897 -0.194172 -0.976579
-0.0513355 -0.48636 0.0373697 -0.166487 -0.297549 0.940078
0.0970674 -0.21403 0.00325251 0.0654086 -0.363481 0.929303
-0.0316044 -0.269639 -0.0102464 -0.115404 0.321644 0.939802
0.0973277 0.44219 -0.257171 0.165213 0.853447 -0.494301
-0.130026 0.0387968 -0.151793 -0.971218 0.145973 -0.188221
-0.0541815 -0.453496 -0.0686319 0.173087 -0.0294511 -0.984466
0.126433 -0.036817 0.161696 0.860808 -0.204665 0.465963
-0.109451 0.161919 -0.0989125 -0.587896 0.759372 0.278805
0.100448 -0.0963858 0.151001 0.289432 -0.628281 0.722144
0.0372837 0.0917301 -0.202725 0.109163 -0.254038 -0.961014
0.0548559 0.0991775 0.011092 -0.0767201 -0.985943 0.148427
0.135934 0.191057 -0.11167 -0.043864 0.443595 0.895153
0.0300661 0.414425 -0.282788 0.114991 0.0129736 -0.993282
-0.0394781 0.108545 0.129775 -0.0264868 0.683483 0.729486
-0.0203487 0.0110254 -0.186258 0.0940069 -0.21519 -0.972037
-0.0343081 0.0112315 -0.186671 0.0774593 -0.226051 -0.971031
-0.147144 -0.0134065 0.100599 0.181853 0.30518 -0.93477
-0.0339263 -0.144694 -0.147778 0.0734957 -0.22638 -0.971262
0.168586 0.390187 -0.26519 0.123686 -0.25437 -0.959165
0.0900425 -0.488001 0.0456147 0.594984 0.228017 0.770715
0.0317876 -0.494546 -0.0523716 0.0993075 -0.255797 -0.961616
-0.109591 0.0798467 0.148115 -0.0802367 0.419441 0.90423
-0.040069 -0.128572 0.0812253 -0.105947 -0.915958 0.387036
0.0917459 0.223987 -0.23124 0.0886835 -0.308286 -0.947151
-0.122084 0.062033 -0.196679 -0.995017 0.0639166 -0.076522
-0.148719 -0.103178 -0.0959536 -0.989452 0.088665 -0.114554
-0.0455954 0.210197 -0.239483 0.149042 -0.276288 -0.949448
-0.0839451 -0.0861159 0.00374205 0.105177 0.98996 0.0944282
-0.0723961 -0.388526 -0.00145465 0.833261 0.550395 -0.0523646
0.0704706 -0.2371 -0.00310376 -0.0896524 -0.116439 0.989143
0.00599673 -0.432402 -0.0621412 -0.243205 0.320627 -0.91545
0.110843 0.0421551 0.125442 0.0441616 -0.478901 -0.876757
-0.0234482 0.157766 0.0295083 0.0672861 0.996159 0.0560351
-0.0660873 -0.209961 -0.0203152 -0.155149 -0.145835 0.977068
0.114536 -0.13905 0.0808899 0.631656 -0.723747 0.27785
0.140198 -0.206845 -0.0542161 0.999433 -0.0143783 0.0304394
0.0921809 -0.39379 -0.0716169 0.142546 -0.299755 -0.943307
0.13564 -0.288682 -0.0690463 0.99087 -0.0743034 0.112493
0.123351 0.000821981 -0.059931 -0.133891 -0.0119515 0.990924
-0.11832 0.143658 -0.165554 -0.98718 0.101154 -0.123465
-0.128094 0.151022 0.0585037 -0.532221 0.819804 0.211334
0.155434 0.414654 -0.267336 0.191337 0.245614 -0.950297
-0.0598433 -0.165091 0.00471931 -0.144976 -0.646607 0.74892
-0.0401485 -0.459965 0.0371457 -0.117623 0.20174 0.972351
0.140294 -0.0936192 -0.0136489 -0.0186107 0.85161 0.523846
0.121794 0.364247 -0.158945 -0.0980877 0.291092 0.951653
0.050828 -0.155329 0.0458791 -0.144586 -0.880505 0.451449
0.112295 -0.352295 0.00430396 0.77907 0.0489527 0.625022
0.11252 0.201229 -0.115744 -0.073529 0.402586 0.912424
0.112425 0.0501059 0.176376 0.379141 0.313295 0.870688
-0.0149519 -0.503421 -0.0520995 0.10485 -0.283592 -0.953196
0.154712 -0.0331186 -0.0539482 -0.0873838 0.265382 0.960175
0.0509433 0.262281 -0.170823 0.0496628 0.948066 -0.314174
0.0995225 -0.0552009 -0.158483 0.131262 -0.273151 -0.952974
-0.0974606 0.00269885 0.111868 0.129409 0.123894 -0.983821
0.126737 -0.110083 0.101621 0.881148 -0.291189 0.37254
-0.0251892 -0.480928 -0.0603179 0.101348 -0.25147 -0.962544
-0.0406546 0.157677 -0.224989 0.160817 -0.293389 -0.94237
-0.14568 -0.107514 -0.125749 -0.997036 0.0285748 -0.0714312
0.113598 0.145388 0.00916014 0.131607 0.976884 -0.168453
-0.0334909 0.357201 -0.2783 0.0909189 -0.244722 -0.965321
0.116626 -0.36699 0.000230922 0.893348 -0.0175567 0.449022
0.135789 -0.1855 -0.0201872 0.956362 -0.177621 0.231996
0.112856 -0.488469 -0.0214184 0.984047 -0.113661 0.136865
0.183802 0.122467 -0.166363 0.992261 -0.0684674 0.103585
-0.176342 -0.426011 -0.0868248 0.0901193 -0.257257 -0.962132
-0.160451 0.0369575 0.13358 -0.919678 0.145559 0.364698
0.0751698 0.360124 -0.26747 0.0929747 -0.246819 -0.964591
0.000127508 0.461979 -0.227442 0.0910965 0.995839 -0.00240042
0.110591 0.119978 0.121439 0.0398968 0.847054 0.530008
-0.0581128 -0.330124 -0.088161 0.523885 -0.71532 -0.462452
-0.101496 0.0868794 0.0820742 -0.034878 -0.703722 -0.709619
-0.150678 -0.0836119 -0.0634902 -0.974227 0.133963 -0.181482
0.149267 0.363612 -0.261564 0.0920693 -0.185628 -0.978297
0.0216821 0.0241915 -0.0735073 -0.165983 -0.105321 0.980488
0.0230365 -0.278371 -0.107179 0.0423634 -0.223595 -0.973761
0.180739 0.164321 -0.127407 0.937115 0.0556163 0.344561
-0.0808579 -0.315985 -0.107691 0.167084 -0.318509 -0.933078
0.0675969 -0.318282 0.0119114 -0.149335 0.278813 0.948663
-0.0480821 -0.328254 -0.0719634 0.422073 -0.906484 -0.0118856
-0.142733 -0.239607 -0.0341264 -0.458195 0.158014 0.874693
0.103354 0.0785535 0.16225 0.11273 0.568808 0.814708
0.0121155 -0.483878 0.0455763 -0.137155 -0.157589 0.977934
0.0259045 -0.377433 0.0216043 -0.0456241 0.210779 0.976468
0.20247 0.348894 -0.252263 0.0675855 -0.188172 -0.979808
0.0168747 0.149578 -0.0274914 0.0805996 0.994468 -0.0673626
0.119204 0.0431548 0.172332 0.553198 0.180008 0.813369
-0.0103018 -0.452411 0.0394137 -0.06885 0.204201 0.976505
-0.0819161 -0.133626 0.0430875 -0.112763 -0.93064 0.348129
0.131908 -0.0963936 -0.1435 0.0985254 -0.29899 -0.949156
-0.0877312 0.163764 0.0167585 0.0741284 0.996433 0.040318
0.026677 -0.0740632 0.092908 0.1351 0.798029 -0.587279
-0.0611021 0.0016322 0.117698 0.161517 0.0542842 -0.985376
0.164391 0.033972 -0.173957 0.100861 -0.30529 -0.946903
-0.0800488 -0.00495138 0.164167 -0.120955 -0.128625 0.984289
0.0135487 -0.474152 0.0462509 -0.102669 0.0991857 0.989758
0.0165656 -0.142002 0.0633302 -0.116198 -0.958651 0.259782
-0.12842 -0.317378 -0.110967 0.175582 -0.335743 -0.925444
0.152015 0.432109 -0.255948 0.143145 0.75152 -0.643994
-0.0981102 0.0907397 0.143361 -0.019341 0.440817 0.897389
0.0955917 0.289947 -0.170895 -0.879505 0.421939 -0.220085
-0.0343603 -0.0264374 0.167221 -0.172166 -0.211642 0.962064
-0.166529 -0.0640958 0.0693498 -0.975106 0.11322 -0.190654
-0.0987668 0.307633 -0.202072 -0.991044 0.121115 0.0562381
0.116694 -0.393932 0.00329883 0.966569 0.000495762 0.256406
-0.0446751 0.0684563 -0.0638202 -0.18042 -0.545452 0.818493
0.0141719 0.350715 -0.177795 0.704168 -0.680763 0.201765
0.201598 0.36574 -0.255427 0.0982602 -0.255351 -0.961842
-0.1729 -0.339466 -0.0975426 -0.977627 0.1327 -0.163209
0.00981083 -0.493398 0.0410447 -0.126191 -0.479237 0.868567
-0.143385 -0.0417196 -0.0959617 -0.989202 0.0894596 -0.116092
-0.0800229 -0.0486418 0.0949245 0.13605 0.633534 -0.761659
0.00128364 0.440231 -0.277214 0.183793 0.630609 -0.754024
-0.0710324 -0.461097 -0.0698205 0.105737 -0.267841 -0.957643
0.141816 0.0903967 0.118146 0.902261 0.237879 0.359635
-0.0339935 0.264398 -0.251349 0.103408 -0.304682 -0.946824
-0.0457116 0.46061 -0.21358 -0.039946 0.891798 0.450667
0.0879116 -0.128666 0.114347 -0.0616567 -0.855527 0.514075
-0.071692 -0.509666 0.00224427 -0.131876 -0.960552 0.244845
-0.142975 -0.384119 -0.0973518 0.118298 -0.293345 -0.948659
-0.0461249 -0.516617 -0.0516862 0.0781147 -0.321552 -0.943664
0.0232123 -0.0493489 -0.0584394 -0.0501962 0.539029 0.84079
-0.128572 -0.218652 -0.0290388 -0.156528 -0.0571091 0.986021
0.0712483 0.151627 -0.214657 0.0810069 -0.224529 -0.971095
-0.0941157 -0.242943 -0.128341 0.0929939 -0.23686 -0.967083
-0.0929656 0.263896 -0.164629 -0.643338 0.249477 0.723794
-0.0917494 0.162908 0.0409992 0.0723496 0.976498 0.203018
-0.165454 -0.0514682 0.110377 -0.956069 -0.162469 0.244
-0.0611062 0.00643586 -0.0833648 -0.177492 0.163039 0.970523
0.0781814 0.267968 -0.178803 -0.480577 0.833307 -0.273215
-0.0612518 0.385792 -0.28719 0.00912653 -0.170216 -0.985365
0.0822453 0.0768104 0.0957383 0.00171561 -0.817238 -0.576298
-0.154249 -0.0873898 -0.0457038 -0.97289 0.164147 -0.162916
0.128928 -0.0408606 -0.0525131 -0.0562171 0.269983 0.961222
-0.10376 0.192318 -0.240902 0.100092 -0.194261 -0.97583
-0.0279252 0.0422139 0.113832 0.0923636 -0.413577 -0.905772
-0.104617 -0.114525 -0.16276 0.0658946 -0.213484 -0.974722
0.0994984 0.299226 -0.145846 -0.0903132 0.241221 0.966259
-0.0364124 0.157806 -0.0120778 0.189014 0.956013 -0.224305
0.0814763 -0.321615 -0.0901927 0.104188 -0.253012 -0.961837
-0.0797587 0.107043 -0.2172 0.104803 -0.299589 -0.948294
-0.00868237 -0.061815 0.160326 -0.223203 -0.351815 0.909069
-0.0043557 0.434606 -0.192105 -0.0902567 0.373975 0.923036
0.0928767 -0.0338986 -0.0612677 -0.0765225 0.30655 0.948774
-0.165805 -0.302944 -0.0305577 -0.811912 0.267112 0.519086
0.1073 -0.453593 0.0195841 0.914436 0.000177923 0.404731
0.00307397 -0.192916 -0.131386 0.129121 -0.277357 -0.952051
-0.177443 -0.355843 -0.04693 -0.987433 0.0876052 -0.131531
0.0862282 -0.265982 -0.00103171 -0.106985 0.239246 0.965047
0.144065 -0.137869 -0.0499358 0.988638 -0.0895401 0.120735
-0.109483 0.199585 -0.204542 -0.989273 0.0888861 -0.115922
-0.00316156 0.373272 -0.2801 0.0728558 -0.201195 -0.976838
-0.101724 -0.136802 -0.156906 0.104001 -0.258863 -0.960299
0.137418 -0.223672 -0.0366867 0.990525 -0.0847774 0.108041
