ply
format ascii 1.0
comment Created by Open3D
element vertex 128
property double x
property double y
property double z
property double nx
property double ny
property double nz
end_header
-0.321588 -0.339631 -0.332509 -0.740091 0.0797559 -0.66776
0.127398 -0.484785 0.415553 0.730498 -0.126507 0.671095
-0.37819 -0.11368 -0.185941 0.741415 -0.253641 0.621264
-0.191733 -0.165756 -0.381221 0.647322 0.351126 0.676524
0.311946 0.00580951 0.189313 0.0957445 -0.991642 -0.0864816
0.23617 0.390411 0.0387925 0.431489 0.21476 -0.876182
-0.198033 -0.209733 0.0676912 -0.744238 0.250649 -0.6191
0.161773 0.0968328 0.15589 -0.833035 -0.14542 0.533765
-0.309213 -0.41483 -0.0115666 0.0911614 -0.954598 -0.283607
-0.187501 -0.348654 -0.306192 0.0214373 -0.981741 -0.189009
0.344208 0.316878 0.265712 0.974224 -0.0660446 0.2157
-0.278232 -0.272167 -0.202943 0.338286 0.791285 0.509343
-0.0132703 0.480176 0.143462 -0.0856719 0.959664 0.26778
-0.312875 -0.196447 -0.318016 -0.744434 0.108675 -0.658793
0.326394 -0.127362 0.249972 0.732621 -0.122361 0.669547
0.154142 0.159198 0.395442 0.0162949 -0.177942 0.983906
-0.31259 -0.319365 0.0967123 -0.5041 0.807927 -0.305184
0.0327041 0.117981 -0.00850095 -0.601146 0.169449 -0.780968
0.120813 -0.0488009 0.436343 -0.0262714 0.962363 0.270494
0.45616 -0.0238426 -0.0606478 0.643897 0.215522 -0.73413
0.134211 -0.470206 0.252637 -0.205288 -0.212408 0.955374
-0.193118 -0.381413 -0.142468 0.00844005 -0.985138 -0.171555
0.0878062 -0.343097 -0.258752 0.0409061 -0.977349 -0.207645
-0.369473 0.0645954 -0.187803 -0.0756301 0.953968 0.290215
-0.0858799 0.0293614 -0.187264 -0.177608 -0.893303 -0.412875
-0.17102 0.0190552 0.0625838 -0.0393806 0.977168 0.208785
-0.219048 -0.236683 0.212123 -0.681921 -0.0740092 0.727672
-0.116314 -0.40834 -0.0096147 0.0727543 -0.972004 -0.223418
-0.0369073 -0.00700689 0.228959 -0.943526 -0.0537211 0.326914
0.191093 -0.365333 0.362612 0.74097 -0.11806 0.661079
0.0740907 -0.196402 0.492908 -0.663508 -0.19072 0.723452
0.0703742 -0.385522 -0.126736 -0.543777 0.13861 -0.827704
0.170169 -0.165173 0.419532 0.748271 -0.106515 0.654787
-0.425194 -0.329017 -0.0177612 0.210181 0.860496 0.464081
0.214379 -0.34033 -0.24297 0.0184432 -0.983458 -0.180193
-0.00868001 -0.188354 -0.161973 -0.743259 0.435058 -0.508223
-0.149941 -0.402898 0.230121 -0.660544 -0.204119 0.722507
0.285788 -0.335238 0.261159 0.728939 -0.124003 0.673254
0.356772 -0.34936 -0.170457 -0.034005 -0.983468 -0.177859
0.0524641 -0.312686 -0.411395 0.105732 -0.96381 -0.244728
-0.250592 -0.43974 0.095354 0.0369861 -0.980839 -0.191275
0.519235 -0.136382 -0.0333964 0.595754 0.25643 -0.761132
-0.417809 -0.247329 -0.205953 -0.773058 0.0812559 -0.629109
0.335511 0.422164 0.166224 0.949965 0.0942769 -0.29779
-0.179412 0.050854 -0.0812828 -0.0280448 0.969749 0.242486
-0.395428 -0.382211 -0.193162 0.0449999 -0.965439 -0.256715
-0.514199 -0.187652 -0.0500599 -0.666977 -0.187583 0.721078
0.381004 -0.394809 0.144394 0.762812 -0.171507 0.62346
0.128914 0.276501 0.19863 0.906337 0.0616652 0.418032
0.327451 0.447302 0.320527 0.934746 -0.0364545 0.353442
0.0590794 0.0729657 -0.136341 -0.0480353 0.975938 0.212691
-0.191883 -0.0150218 0.210467 -0.0496566 0.966491 0.251854
0.334812 0.14762 0.272923 0.874582 -0.062235 0.480867
0.200266 -0.285147 -0.364831 0.67857 0.166301 -0.715463
-0.0626003 -0.254827 -0.33175 -0.0298649 0.962143 0.270906
0.45244 -0.264648 0.0838585 0.743449 -0.0969585 0.661727
0.36534 -0.0249843 0.0497916 0.732835 0.0879878 0.674693
0.200334 -0.0604098 -0.30353 0.689185 0.165946 -0.705327
0.138112 0.427936 0.423019 -0.0554904 0.972838 0.224738
0.194173 -0.492803 -0.0161928 0.154927 -0.783004 -0.602414
0.523008 0.0568406 0.0240395 0.678017 0.172418 -0.714538
-0.308555 0.0250807 0.000269969 -0.0290929 0.977352 0.209609
0.360129 -0.238775 0.191629 0.755934 -0.107341 0.645787
-0.223749 0.0754767 -0.37471 -0.734533 0.0847321 -0.673261
-0.221967 -0.305977 -0.0470437 -0.45452 0.887386 -0.0771887
-0.278574 -0.0587677 -0.333446 -0.798837 0.104137 -0.592465
-0.123458 0.133396 -0.478733 -0.796742 0.0818381 -0.598753
0.306702 -0.0348852 -0.199287 0.694333 0.15636 -0.702463
-0.0520114 0.355426 0.128214 -0.897115 0.0914686 -0.432224
-0.0374443 -0.240316 -0.57101 0.651644 0.212364 -0.728191
0.176736 -0.116662 0.279405 0.388965 0.726929 0.565933
-0.0782384 0.106921 -0.32177 -0.0481201 0.985201 0.164511
0.227386 0.253004 -0.000998241 0.421118 0.179798 -0.889006
0.100717 0.304515 0.419485 -0.233405 -0.195431 0.952538
0.331243 0.0869582 -0.144573 -0.108171 0.952776 0.283755
0.0644878 0.287854 0.00518504 -0.35643 0.20615 -0.911296
-0.000522929 0.233482 0.350996 -0.653313 -0.229421 0.721491
0.410433 -0.152252 -0.138413 0.675012 0.139106 -0.724575
-0.0459974 0.0335069 0.0260461 -0.046735 0.974159 0.220977
-0.0550532 -0.338243 0.332173 -0.669447 -0.18421 0.719658
-0.182674 -0.313278 -0.465739 0.0507591 -0.968947 -0.242003
0.0910474 -0.177831 -0.286436 -0.632466 0.602387 -0.486947
0.0266933 0.0367652 -0.262971 -0.304264 -0.780757 -0.545749
-0.0669732 -0.0381263 0.351695 -0.011519 0.977552 0.210379
0.297793 0.140543 0.0193382 0.668837 0.227665 -0.707691
0.214627 -0.418701 -0.112378 0.189762 -0.762885 -0.618059
-0.278421 -0.10598 0.130055 -0.496721 -0.565316 -0.658548
-0.049097 -0.214273 0.372094 -0.66137 -0.197895 0.723482
0.0321495 0.42864 0.0518126 -0.470945 0.16551 -0.866497
0.283887 -0.475913 0.16148 0.280802 -0.945335 0.165806
-0.0424046 -0.473531 0.309781 -0.647781 -0.200276 0.73503
-0.0581624 0.104825 0.131959 -0.987533 0.0444867 -0.150997
0.0676616 -0.327433 0.448647 -0.643388 -0.217225 0.734074
0.469963 -0.392459 0.0442231 0.712717 -0.141148 0.687104
0.538029 -0.299541 -0.0200571 0.749309 -0.109837 0.653048
-0.116882 -0.255137 -0.0872849 -0.564432 0.708195 -0.424118
-0.00030023 0.395154 0.39555 -0.612297 -0.221557 0.75895
0.269564 0.00712291 0.325012 0.567268 -0.152296 0.809329
-0.0656669 0.239792 0.222708 -0.986096 -0.110392 0.12421
-0.202198 0.0839449 -0.24059 -0.00208435 0.989987 0.14114
-0.189404 -0.0595789 -0.434744 -0.753466 0.111001 -0.648049
0.314511 -0.222167 -0.242916 0.662633 0.192276 -0.723842
0.341152 0.262935 0.127646 0.940943 0.141173 -0.307729
-0.0882535 0.0166422 -0.46484 0.65199 -0.58308 0.484692
-0.0497183 -0.43096 0.114683 0.0964143 -0.95489 -0.280873
-0.0792077 -0.0782795 -0.564087 -0.750135 0.10157 -0.653437
0.0132581 0.101607 -0.436825 0.618216 0.224421 -0.753289
-0.0710829 0.434722 0.282146 -0.956845 -0.122501 0.263515
0.329508 -0.438008 -0.00523936 0.447183 -0.832167 -0.32791
-0.145984 -0.140757 0.303606 -0.652065 -0.229409 0.722623
0.148058 0.459435 0.272589 -0.0486271 0.971585 0.23164
0.136181 0.0996542 -0.237198 -0.0716714 0.971944 0.224028
0.0329131 -0.444765 -0.0316628 -0.332023 -0.860556 -0.386269
-0.412813 0.00345785 0.0862177 -0.0550575 0.973021 0.224052
0.206531 0.0675332 -0.0515515 0.172859 0.288588 -0.94172
-0.0751614 -0.362583 -0.216365 0.0309167 -0.981646 -0.188189
-0.10332 -0.129035 -0.0295016 -0.718735 -0.127176 -0.683554
0.475825 -0.356952 -0.110725 0.029694 -0.981183 -0.190782
0.0759938 -0.492691 0.0828904 -0.349426 -0.936579 -0.0268576
-0.516213 -0.369109 -0.114213 -0.788182 0.114835 -0.604633
0.437928 -0.140843 0.123515 0.769666 -0.132218 0.624606
0.181233 0.506124 0.0635213 -0.108362 0.95893 0.262128
-0.019419 0.218079 0.0569291 -0.756966 0.100642 -0.645658
0.0541255 0.0599273 0.34765 -0.40656 -0.253439 0.877768
0.254675 0.319505 0.392984 0.535555 -0.144273 0.832085
0.00606379 -0.107923 0.44788 0.784331 -0.306821 0.539153
-0.491959 -0.028806 -0.0847726 -0.757953 0.0961386 -0.645186
0.0142284 -0.0456083 -0.171084 -0.62766 -0.368171 -0.685925
