ply
format ascii 1.0
comment Created by Open3D
element vertex 128
property double x
property double y
property double z
property double nx
property double ny
property double nz
end_header
0.0283539 0.0829489 0.0491467 0.0565377 0.842166 0.536245
0.496929 -0.0921844 0.0220825 0.996504 -0.0386845 -0.0740528
-0.395836 0.0831195 0.0419764 -0.0736504 -0.925635 -0.371181
-0.495341 0.0276078 0.100539 -0.997637 0.0383916 0.0569696
0.101253 0.0867045 0.038905 -0.0183474 0.902135 0.431064
0.457388 -0.122504 -0.0265216 0.0274266 0.144053 0.98919
-0.303321 0.0226486 -0.0852552 -0.0182336 -0.994206 0.105937
-0.401729 0.113982 -0.0191233 0.0257938 0.926789 -0.374695
-0.335523 0.0662549 -0.0348154 0.078347 -0.719107 0.690468
0.180782 0.116351 0.00364058 0.093904 0.99394 0.0571469
0.138745 -0.0594422 0.10969 -0.0147579 -0.387882 0.921591
-0.330905 0.115425 0.0256619 0.074878 0.990399 0.116206
-0.186633 0.102914 -0.0256418 0.0297518 0.944619 -0.326818
-0.18109 0.0869641 0.0676922 0.074069 0.763568 0.641466
-0.0560555 -0.0918047 -0.0252031 -0.103968 -0.954154 -0.28068
0.147702 0.0516543 0.0293179 -0.0679255 -0.858115 -0.508944
-0.494004 0.0924381 0.0547392 -0.998407 0.0128909 0.0549239
-0.169612 0.0945172 0.0558212 0.0723859 0.857228 0.509823
-0.170051 -0.0297215 0.0976413 0.0411376 -0.40035 0.915438
0.140106 -0.0387431 -0.067633 0.118714 0.411549 0.903623
0.135442 0.0278522 -0.127808 0.0355552 0.262336 -0.964321
-0.495247 0.0926738 0.0552953 -0.997643 0.0562484 0.0393115
0.14243 0.0464778 0.109358 0.0459035 0.362842 0.93072
0.408263 -0.013085 0.053238 -0.104188 -0.103531 -0.989154
-0.482128 -0.047786 0.095946 -0.0176955 -0.664964 0.746666
-0.106592 -0.0552605 0.0819207 0.022994 -0.687782 0.725553
-0.290106 0.0351972 -0.0853647 -0.111487 0.223285 -0.968357
0.210123 -0.00161992 -0.098485 -0.0718515 -0.989166 0.128014
-0.350064 -0.0294111 0.102379 0.0545327 -0.507503 0.859923
-0.499742 -0.0773711 -0.000792587 -0.0684004 -0.961437 -0.266384
-0.407634 0.0530058 0.111221 0.0691093 0.401142 0.913405
0.466427 -0.0363438 0.0810411 0.047286 -0.128787 0.990544
0.210003 -0.0190287 0.0856548 0.0489095 0.990035 -0.132052
-0.0351499 0.0996066 -0.00447629 0.0192698 0.998212 -0.0565873
-0.233939 -0.0839644 0.0328623 -0.054799 -0.965579 0.254272
0.0195367 -0.0691982 -0.00760643 0.0558047 0.99296 0.104481
0.17748 0.116738 -0.0058125 0.0741889 0.996371 -0.0417251
-0.166612 -0.0887786 0.0270735 -0.0406545 -0.98335 0.177113
0.314517 -0.103031 0.0366876 0.113321 -0.86915 0.48139
-0.32627 0.037512 0.0842768 0.771579 -0.635989 0.0135806
0.0519341 0.0950219 -0.020951 0.000108996 0.985709 -0.16846
0.49436 -0.0612764 -0.104388 0.996455 -0.081453 -0.0210509
0.479309 0.0128849 -0.116311 -0.0161962 0.359942 -0.932834
0.130931 -0.126808 -0.0485976 -0.0590357 -0.92856 -0.366458
0.0911618 -0.0415057 0.0491097 0.00214624 0.557303 -0.830307
-0.257784 -0.0174445 0.103353 -0.00778025 -0.254403 0.967067
-0.247141 0.0553748 0.100082 0.05928 0.426572 0.902509
0.154026 -0.0724218 0.00823191 0.0158068 0.98211 -0.187646
0.486829 -0.0911015 -0.102009 -0.084693 -0.607937 -0.789455
-0.499636 -0.00310729 -0.0787934 -0.155201 -0.231311 -0.960421
0.497218 0.0105949 -0.095559 0.99845 -0.0350182 -0.0432526
0.253187 -0.0750442 0.0673423 -0.00804928 -0.555533 0.831455
-0.112441 -0.0613639 0.0144446 -0.0222162 0.996387 -0.0819692
0.405813 -0.100586 0.0422308 -0.063282 -0.789622 0.610321
0.066673 0.0101194 -0.0688694 0.0107547 -0.188118 0.982088
0.502662 0.0416148 0.0452504 0.997311 0.0373317 -0.0630577
0.341328 -0.109537 0.00568291 0.863063 -0.211088 -0.458872
0.212046 0.0676861 0.0512977 0.116171 0.800906 0.587413
-0.504342 -0.0222085 -0.0672651 -0.994686 0.0310629 0.098159
0.229508 -0.0791151 -0.0176934 0.0276253 0.983762 0.177337
0.313625 -0.0411836 -0.108775 -0.0645779 -0.251903 -0.965595
-0.0515503 -0.0885381 -0.0366921 0.0300624 -0.912137 -0.408782
-0.190001 0.032565 -0.0884445 -0.0151772 0.217701 -0.975898
-0.465825 0.0754824 -0.0684336 0.997772 -0.0533122 -0.0401094
0.187733 -0.135258 -0.0237643 -0.0394197 -0.999079 -0.0169613
0.0202493 -0.0303231 0.0939714 0.0436052 -0.31138 0.949284
0.096171 -0.0700672 -0.0263054 0.087945 0.958593 0.270859
0.295267 0.0195315 -0.104139 -0.0175599 0.339127 -0.940577
-0.46631 0.069384 -0.0696129 0.996892 -0.0770644 -0.0163284
0.14572 0.0383135 -0.053534 0.0566092 -0.698309 0.713554
0.353796 0.0715273 -0.0564779 0.0353201 0.905911 -0.421993
-0.336464 0.0486555 0.0742 -0.100931 -0.439314 -0.892646
0.415899 0.0722406 0.0106108 0.0575401 0.955344 0.28984
-0.061375 -0.00502845 0.0971078 0.0392765 0.992315 -0.117336
-0.274343 -0.069819 -0.0423174 -0.0523822 -0.824372 -0.56362
0.276456 0.0825191 -0.0120319 0.0638189 0.997435 -0.0324028
-0.197832 -0.0784883 -0.0351743 -0.0630886 -0.900074 -0.431145
-0.255941 0.080497 0.0218173 -0.0108016 -0.982407 -0.186438
-0.275115 0.0991547 -0.0412892 0.0643223 0.837291 -0.54296
0.502319 -0.0202626 0.0823153 0.989894 -0.00749815 -0.14161
0.138499 0.105377 -0.0658659 0.0209878 0.882414 -0.470005
0.391702 0.00405738 -0.0802176 -0.0263416 -0.382868 0.923428
-0.0394892 -0.0718792 0.0667137 -0.000275928 -0.752491 0.658603
-0.107675 -0.0525485 -0.075016 -0.0507078 -0.587116 -0.807913
-0.109093 0.100979 -0.0163448 0.13055 0.95913 -0.251051
-0.125397 -0.0605653 -0.0667103 -0.0467907 -0.687867 -0.724327
0.171667 -0.112083 0.0696814 -0.0417994 -0.788627 0.61345
0.0589263 -0.0611195 -0.0817038 -0.0625296 -0.584044 -0.80931
-0.225951 -0.0184465 -0.0606766 0.043748 0.991907 -0.119187
0.33706 0.0429582 0.0135099 -0.0471225 -0.897267 -0.438967
0.363966 -0.054036 0.0764643 0.0299115 -0.376637 0.925878
0.00400501 0.0562869 -0.0819964 -0.00746507 0.560379 -0.828203
0.247304 -0.0681855 -0.0937516 -0.0482821 -0.523812 -0.850464
0.166504 0.0471785 0.107131 0.0531471 0.401805 0.914182
0.277649 0.0269906 0.0414871 -0.11699 -0.634216 -0.764254
0.493306 0.0284426 0.0221387 -0.0789682 -0.78037 -0.620312
0.163707 -0.0594348 -0.12568 0.0136635 -0.357414 -0.933846
-0.311367 -0.0812535 0.0218155 -0.0777961 -0.99098 0.109118
0.0377251 -0.0978428 0.0227436 -0.0265668 -0.972954 0.229466
0.397094 -0.0760489 -0.0556341 0.116181 0.791775 0.599662
0.421552 -0.0480059 -0.11315 0.00759231 -0.325175 -0.945623
0.486282 0.0736286 -0.0534075 -0.0238465 0.940588 -0.338713
0.0629403 0.0344012 0.0894647 0.10109 0.339925 0.935004
-0.489246 0.123664 -0.0133014 0.0639833 0.0869237 0.994158
-0.347464 -0.0451025 -0.0600099 -0.0774205 -0.565731 -0.820948
0.0939243 -0.0497057 0.0471385 0.0342607 0.635806 -0.771088
-0.417863 -0.0698185 -0.0196417 -0.0739533 -0.909578 -0.408899
0.192503 -0.02267 0.0695134 0.0572097 0.990426 -0.125631
-0.0410019 0.0321852 0.0827553 -0.0894767 -0.989451 0.113935
-0.403125 0.00707656 -0.0816658 -0.0420651 -0.153666 -0.987227
-0.0997788 0.081586 0.0661299 0.0872896 0.767422 0.635172
-0.267173 -0.0142628 0.0731729 0.00951545 0.421483 -0.906786
-0.0319452 -0.0151896 -0.0652095 0.0718703 0.245382 0.966759
0.483121 0.0711234 -0.0512709 0.0489355 0.113567 0.992325
-0.23519 0.0538135 0.0978494 0.0737238 0.408699 0.909687
-0.163432 -0.00286346 0.077292 0.0611729 0.986396 -0.152579
0.305372 -0.0243821 0.0832149 -0.11501 0.987506 -0.107726
0.496101 -0.100003 0.0269906 0.997757 -0.052095 -0.0420287
0.0364723 0.0939071 -0.0279069 0.0266658 0.960075 -0.27847
0.233869 0.0607759 -0.0754487 0.0157701 0.743874 -0.668134
0.318984 -0.102097 -0.0664448 -0.0924061 -0.777529 -0.622021
-0.486414 -0.0783747 0.00904797 -0.0478624 -0.983608 -0.173853
-0.479366 0.0243819 0.125554 0.0420919 0.0215087 0.998882
-0.392197 -0.0595166 0.0469598 -0.089351 -0.120569 -0.988676
-0.10566 0.0160476 -0.0929087 -0.0485857 0.119153 -0.991686
-0.467168 -0.043091 0.0941362 0.994817 -0.101477 0.00645111
-0.0714267 0.0741827 -0.0671892 0.0126288 0.707939 -0.706161
0.433373 0.0735612 0.00143302 0.0869529 0.978099 0.189105
