ply
format ascii 1.0
comment Created by Open3D
element vertex 512
property double x
property double y
property double z
property double nx
property double ny
property double nz
end_header
0.047616 0.28596 0.0320067 0.803891 0.409126 0.431713
-0.108606 0.268407 0.0882714 0.268941 0.397362 -0.877368
0.00141601 0.07892 0.229671 0.518891 -0.127648 -0.845256
0.0158354 0.338458 -0.120415 -0.56529 0.299849 0.768464
0.12154 0.418273 -0.231038 0.803891 0.409126 0.431712
-0.0868078 -0.27608 0.0512049 -0.366751 -0.92425 0.106092
0.229942 0.121253 -0.151413 0.803891 0.409126 0.431712
-0.0171049 -0.123527 0.113202 0.0373199 0.689713 -0.723121
-0.158946 0.225235 0.445553 -0.569741 0.321318 0.756406
-0.145324 0.311124 0.355636 0.437108 -0.89862 0.037662
-0.202941 0.311116 0.148928 -0.944278 0.328976 -0.0106709
-0.084781 -0.0110823 0.357265 -0.421428 0.904002 -0.0719653
-0.159401 0.112974 0.0753273 0.589156 -0.647293 -0.483639
-0.230725 0.222561 0.144903 -0.960525 0.266935 0.0783402
-0.0141405 0.0845706 0.0270061 0.803891 0.409125 0.431713
0.317815 -0.282728 0.0678041 0.803891 0.409126 0.431712
0.144158 -0.0271532 -0.146938 -0.545257 0.216973 0.809702
0.0297663 -0.170006 0.497355 0.803891 0.409125 0.431712
-0.0276544 -0.0773884 -0.266837 -0.803891 -0.409126 -0.431712
-0.181156 0.363211 0.113639 -0.920207 0.377951 -0.101846
0.000340764 0.407794 -0.193679 -0.6175 0.394119 -0.680708
0.26259 -0.151258 0.041942 0.594082 -0.517606 -0.615753
-0.136292 0.0891544 0.190507 -0.5727 0.337562 0.747039
0.238517 -0.379284 0.267563 -0.328483 -0.943242 0.048927
0.264295 -0.000486057 -0.342897 -0.119245 -0.307173 -0.944153
-0.029548 -0.0235159 0.145694 -0.803891 -0.409126 -0.431712
-0.274073 0.0756826 0.0769829 -0.968283 0.169018 0.184013
-0.137122 -0.175967 0.228967 -0.680134 -0.617687 0.394817
-0.0516971 0.119275 0.0640512 0.803891 0.409126 0.431712
0.408331 -0.262647 -0.148904 -0.585723 0.670716 0.455048
0.014829 -0.0415001 0.217693 0.291179 0.362199 -0.885453
-0.215259 -0.11932 0.122239 -0.803891 -0.409126 -0.431713
-0.222245 -0.101282 0.118153 -0.803891 -0.409126 -0.431712
0.0209428 0.0628936 -0.0177796 0.803891 0.409126 0.431712
0.0596616 0.0172772 -0.156277 -0.410149 -0.144338 0.900524
0.163417 0.232529 -0.132991 0.803891 0.409125 0.431713
0.115447 -0.114019 0.172002 -0.0810413 0.794415 -0.601945
0.00703998 -0.225622 -0.187065 -0.0475412 -0.76909 -0.637369
0.233393 -0.0285875 -0.329515 -0.107455 -0.341219 -0.933822
0.125962 0.139268 -0.129042 -0.210629 -0.482979 0.849922
0.0714723 0.411608 -0.249194 -0.552686 0.347688 -0.757398
0.0139729 -0.0494021 -0.2862 0.0893202 0.634437 -0.767797
0.183762 -0.120051 -0.194085 0.0942421 -0.804287 0.58672
0.0760869 0.356245 -0.0876164 0.803891 0.409126 0.431712
0.0546209 0.0521607 -0.0827541 -0.803891 -0.409126 -0.431712
0.079751 -0.327257 0.0497092 -0.231761 -0.966575 -0.109638
0.332043 0.024015 -0.249383 0.803891 0.409126 0.431712
-0.0775138 -0.0139102 0.279185 -0.421428 0.904002 -0.0719653
-0.112521 -0.184727 0.217087 0.56604 -0.749139 -0.344078
0.0696122 0.0483753 -0.145328 -0.341371 -0.27701 0.898182
0.0456812 0.267604 -0.286802 -0.443417 0.243791 -0.862524
0.425212 -0.256223 -0.17269 0.588448 -0.652682 -0.477216
-0.0961334 -0.151855 0.127447 0.125374 0.59297 -0.795405
0.0174394 0.443101 -0.152328 -0.41608 -0.131844 0.899719
0.208411 0.0958871 -0.115655 -0.41015 -0.144336 0.900524
0.263358 -0.365222 0.0537108 -0.16538 -0.955667 -0.243617
0.39941 -0.137815 -0.237081 -0.242396 -0.437475 0.865945
-0.0250013 -0.0447077 0.20298 0.316668 0.320003 -0.892927
0.112829 -0.167983 0.0478143 -0.376397 0.911945 -0.163344
-0.093804 -0.169304 0.184102 0.264805 -0.896124 0.356147
0.0117375 -0.195493 -0.143686 -0.578106 0.708112 0.405426
0.157604 -0.258528 -0.0147896 0.348619 0.263973 -0.899324
0.189381 0.10752 -0.173307 0.369601 0.225354 -0.901449
-0.118151 -0.0239275 0.39132 -0.421428 0.904002 -0.0719653
0.093096 -0.113148 0.243018 -0.0540399 -0.672596 0.738034
0.28483 0.0489216 -0.260826 -0.350582 0.912283 -0.211735
0.200577 0.0424557 -0.12298 -0.487367 0.0370527 0.872411
-0.150813 -0.11292 0.133916 0.316668 0.320003 -0.892927
0.364331 -0.145382 -0.278654 -0.0520372 -0.570077 -0.819941
-0.0961009 -0.0128393 0.401483 -0.421428 0.904002 -0.0719653
-0.236954 0.0874265 0.0108801 0.570418 -0.735918 -0.364758
-0.0329288 0.105924 0.0293213 -0.803891 -0.409126 -0.431712
0.159568 -0.12395 -0.0578464 -0.578106 0.708112 0.405427
0.0758938 0.0589753 -0.231742 0.346198 0.268348 -0.898964
-0.158696 0.191644 0.450655 -0.938163 -0.0572319 0.341431
0.188492 -0.0366665 -0.321363 -0.109839 -0.334517 -0.935967
0.195568 0.107506 -0.170774 0.369601 0.225354 -0.901449
-0.0513075 0.232319 -0.080663 -0.260137 0.894585 -0.363381
-0.0415559 0.0533196 0.107672 0.803891 0.409125 0.431713
0.0803706 -0.0688183 -0.297183 -0.109839 -0.334517 -0.935967
-0.0121907 -0.118784 -0.256402 -0.803891 -0.409126 -0.431712
-0.109116 -0.00245541 0.458453 -0.0911053 0.801961 -0.590389
0.265599 -0.254603 0.028226 0.348618 0.263973 -0.899324
-0.273366 0.0892384 0.064252 -0.966437 0.218388 0.135304
0.0405458 0.0226324 -0.203387 -0.38817 -0.189068 0.901986
-0.0174764 0.0442459 0.0589989 -0.803891 -0.409126 -0.431712
-0.191371 0.329625 0.257783 -0.963092 0.250082 0.0995588
-0.06148 -0.272742 0.0567194 0.19656 -0.867801 0.456384
0.254779 -0.156188 0.0385499 0.594082 -0.517606 -0.615753
-0.106579 0.0354241 0.125685 0.556423 -0.260883 -0.788881
0.0802398 -0.064018 -0.298884 -0.109839 -0.334517 -0.935967
-0.0194354 0.253158 -0.0511025 -0.279034 0.900425 -0.333728
-0.169237 0.285762 0.304256 0.110634 -0.816094 0.567231
0.0364 0.144757 -0.124143 0.803891 0.409126 0.431713
0.0584935 0.178169 -0.189613 0.537233 -0.188044 -0.822205
-0.180144 0.361737 0.285723 -0.963092 0.250082 0.0995588
-0.108945 0.289809 0.307008 0.00121364 -0.726966 0.686672
-0.23593 0.208434 0.129011 -0.959381 0.27307 0.0708638
0.0508514 -0.135626 0.087652 -0.196188 0.867613 -0.4569
-0.0129016 0.108413 -0.0103296 -0.803891 -0.409126 -0.431712
0.0779885 -0.130441 -0.0745958 -0.578106 0.708113 0.405425
0.156754 -0.289714 -0.024273 0.348619 0.263973 -0.899324
-0.010806 0.0968472 -0.00327141 -0.803891 -0.409126 -0.431712
0.316185 0.051242 -0.302744 -0.350582 0.912283 -0.211735
0.00349011 -0.221132 -0.188608 -0.803891 -0.409126 -0.431712
0.00557358 0.0284589 -0.267932 0.346198 0.268348 -0.898964
0.30815 -0.379879 0.177871 0.803891 0.409126 0.431712
-0.0574926 0.251735 0.0318868 -0.458592 0.888568 0.011865
-0.193744 -0.00464774 0.121975 0.532736 -0.172524 -0.828509
-0.0745711 -0.00643975 0.25635 -0.588963 0.648807 0.481843
-0.0204711 0.120405 0.00483497 0.803891 0.409126 0.431713
-0.0314977 -0.284857 -0.0613473 -0.173262 -0.958558 -0.226157
-0.143281 0.207965 -0.0239353 -0.439484 0.897668 -0.0323417
0.288248 -0.221794 0.065115 0.803891 0.409126 0.431712
0.284621 -0.281452 0.0277193 0.348618 0.263973 -0.899324
-0.211998 0.17131 -0.0172811 -0.440643 0.89719 -0.0297422
0.103316 0.112326 -0.202863 0.271597 0.393241 -0.878406
0.138327 -0.0859463 0.215543 0.803891 0.409125 0.431712
-0.175408 0.295527 0.334977 0.416261 -0.905451 0.0829771
-0.235053 0.0921938 0.00399311 0.561311 -0.761893 -0.323184
0.0345654 -0.104352 -0.278126 -0.0894883 -0.39935 -0.912421
0.0962858 -0.0833112 -0.109275 -0.591067 0.468578 0.656562
-0.0146824 -0.191523 0.392477 0.576981 -0.712634 -0.399056
0.193954 -0.102524 -0.169271 0.25564 -0.893048 0.370289
-0.0072084 0.0729899 0.0250726 0.803891 0.409125 0.431713
-0.143976 0.113005 0.171069 -0.589081 0.447458 0.672878
0.0360414 -0.0835826 0.0929181 0.803891 0.409126 0.431713
-0.15827 -0.208755 0.100877 -0.803891 -0.409126 -0.431712
0.13734 -0.148218 0.0931793 -0.328673 0.910518 -0.25086
0.0794273 -0.100711 -0.110948 -0.594734 0.544209 0.591717
0.0810476 -0.0398448 -0.305871 -0.350582 0.912283 -0.211735
0.181463 0.119854 -0.120562 -0.316668 -0.320003 0.892927
0.152155 -0.0995113 0.185841 -0.110311 0.815803 -0.567712
0.38513 0.0106262 -0.33555 0.803891 0.409125 0.431712
-0.143265 -0.0538515 0.360268 -0.825486 -0.367468 0.428415
-0.200456 0.318298 0.160867 -0.948918 0.31532 0.0113377
-0.0637381 0.194106 0.0429579 0.495417 -0.862238 -0.105389
-0.0212658 -0.111883 0.123527 0.0668628 0.659076 -0.749099
-0.133237 0.10684 0.0867522 -0.803891 -0.409126 -0.431712
0.138827 0.165296 -0.110203 -0.1542 -0.557661 0.81562
-0.116902 -0.033943 0.428143 -0.825486 -0.367468 0.428415
-0.037455 0.00636418 -0.238808 -0.34137 -0.277011 0.898182
-0.237138 0.208492 0.0525368 -0.935602 0.350003 -0.0463244
-0.000109564 -0.0581099 0.205525 0.264965 0.403496 -0.875777
0.0828059 0.453124 -0.238406 -0.552269 0.347389 -0.757839
0.0746735 -0.3218 0.0187287 -0.205788 -0.965604 -0.158933
0.00738325 0.117808 -0.225089 0.170939 0.536293 -0.826541
0.0239843 0.0415295 -0.00319674 0.803891 0.409126 0.431712
0.237133 -0.216095 0.154896 0.803891 0.409126 0.431712
0.0771082 0.19321 -0.091725 0.0219705 -0.74577 0.665841
0.138883 -0.277827 0.142095 -0.529398 0.161342 0.832891
0.361562 -0.160411 -0.267503 -0.0456241 -0.600131 -0.798599
0.0267237 0.236174 0.012412 0.352974 -0.912366 0.207359
-0.134588 0.208315 -0.0599915 -0.376018 0.91197 -0.164075
0.304659 -0.127861 -0.22421 0.0942421 -0.804287 0.58672
0.00847365 0.144304 0.213134 0.581526 -0.388288 -0.714884
-0.141898 0.155638 0.169577 -0.254093 -0.420053 0.871202
-0.0741152 -0.278311 0.0515395 0.176428 -0.857198 0.483824
-0.12781 0.311267 0.333697 0.195295 -0.867172 0.458119
0.0156607 -0.215187 0.00778028 -0.352974 0.912366 -0.20736
0.208673 -0.36029 0.2114 -0.593859 0.592447 0.54437
0.0271836 0.0903973 0.255385 0.803891 0.409126 0.431712
0.403837 -0.150562 -0.277359 -0.054292 -0.585315 -0.808987
-0.0469941 -0.29028 -0.00602582 -0.250482 -0.965126 -0.0760963
-0.125885 0.0920638 0.19717 -0.5727 0.337562 0.747039
0.22672 -0.146056 -0.0369552 0.567128 -0.746426 -0.348158
0.353314 -0.00662684 -0.259954 0.803891 0.409126 0.431713
0.309719 -0.331771 0.129358 0.803891 0.409126 0.431712
-0.219075 0.256116 0.0592406 -0.923401 0.372834 -0.0912401
0.0252124 -0.00856119 0.0419863 0.803891 0.409126 0.431712
-0.0579983 0.223008 -0.110442 -0.482425 0.873065 0.0708819
0.00786484 -0.0288009 0.081036 -0.803891 -0.409126 -0.431712
-0.216075 0.267207 0.171334 -0.959381 0.27307 0.0708638
-0.218072 0.239769 0.0417461 0.268941 0.397362 -0.877368
0.253834 -0.187713 0.0969007 0.803891 0.409126 0.431712
-0.0273329 0.0677012 0.0551243 -0.803891 -0.409126 -0.431713
0.0590727 -0.186363 -0.0870923 -0.550808 0.785977 0.280804
0.0832605 -0.0799984 0.208662 0.0962374 0.626802 -0.773212
-0.0781115 -0.250881 -0.00191414 -0.277681 0.900042 -0.335883
0.177788 -0.0608492 -0.106327 -0.587026 0.428966 0.686577
-0.146139 -0.00748847 0.205762 -0.485509 0.032667 0.873621
-0.0621949 0.0346612 0.196861 0.503755 -0.0824535 -0.859902
-0.131608 0.0672501 0.121237 -0.803891 -0.409125 -0.431712
0.0292024 0.190703 -0.0900377 0.110311 -0.815803 0.567712
0.296595 -0.0875351 -0.167636 0.0942421 -0.804287 0.58672
0.0326851 0.0183474 0.00257067 0.803891 0.409126 0.431712
-0.0279207 0.0435503 0.0791063 -0.803891 -0.409126 -0.431712
-0.128616 0.388729 0.136632 0.268941 0.397362 -0.877368
0.102277 -0.21746 -0.0823722 0.546805 -0.794202 -0.265041
-0.0858209 -0.137464 0.139254 0.1542 0.557661 -0.81562
-0.0288483 0.203275 -0.0354913 0.328673 -0.910518 0.25086
-0.00342774 -0.04748 0.209243 0.291179 0.362199 -0.885453
0.0342772 0.0465888 0.283693 0.803891 0.409125 0.431713
0.125932 -0.302493 -0.0399718 0.348619 0.263973 -0.899324
-0.0529581 -0.206201 0.14652 0.00419493 -0.729721 0.683732
0.0825539 -0.133927 0.14991 -0.110311 0.815803 -0.567711
0.116669 0.232997 -0.0463849 0.803891 0.409125 0.431712
-0.0502762 0.275788 -0.222309 -0.574459 0.364577 -0.732858
0.379664 -0.160722 -0.268365 -0.0455455 -0.60662 -0.793686
-0.0243652 -0.0561279 0.490233 0.803891 0.409126 0.431712
-0.00776014 0.408148 -0.164662 -0.546323 0.220458 0.80804
0.332005 0.0972785 -0.367163 -0.497711 0.0632928 0.865031
0.152906 -0.119772 0.22045 0.803891 0.409126 0.431712
0.0960234 -0.135818 0.220723 0.00419519 -0.729722 0.683732
0.0361132 0.0988139 -0.0925033 -0.803891 -0.409126 -0.431712
-0.0743092 -0.187627 0.286263 0.56604 -0.749139 -0.344078
-0.0310761 0.377724 -0.170245 -0.56529 0.299849 0.768464
-0.0128904 0.118618 -0.020022 -0.803891 -0.409126 -0.431713
-0.265027 0.0950297 0.104551 -0.200368 -0.497136 0.84422
0.0429661 0.404291 -0.126145 -0.56529 0.299849 0.768464
0.0766908 0.428689 -0.157395 0.803891 0.409124 0.431713
-0.112779 0.0561759 0.218099 -0.533342 0.174581 0.827688
0.0801862 0.239585 -0.0248079 0.196188 -0.867613 0.4569
0.211171 0.117165 -0.161962 0.369601 0.225354 -0.901449
-0.139104 0.202781 -0.0786883 -0.352986 0.912366 -0.207337
-0.0410934 0.522425 -0.0269006 0.803891 0.409126 0.431712
-0.052363 -0.169507 0.116854 0.00768438 0.718634 -0.695346
-0.0810643 -0.123496 0.399252 -0.739176 -0.527307 0.419005
-0.216324 -0.0955389 0.112107 0.41015 0.144336 -0.900524
0.0475667 -0.320946 0.0923851 -0.288353 -0.957437 -0.0128869
0.176836 -0.229838 0.00108672 0.348619 0.263973 -0.899324
0.248421 -0.150216 0.0222668 0.547958 -0.791673 -0.270178
-0.265376 0.00218775 0.12737 -0.938285 -0.0540098 0.34162
-0.114423 0.126606 0.484756 0.803891 0.409126 0.431713
-0.0560142 0.0691436 0.107165 -0.803891 -0.409125 -0.431713
-0.022766 -0.0816189 -0.27193 -0.803891 -0.409126 -0.431712
0.2107 -0.108697 -0.182848 0.0942421 -0.804287 0.58672
-0.0597771 0.342685 0.178226 0.803891 0.409126 0.431712
-0.255156 0.140457 0.111651 -0.966437 0.218388 0.135304
0.0393768 -0.178496 -0.133328 -0.584358 0.678546 0.445086
0.20945 0.0421514 -0.189152 -0.048452 0.768459 -0.638062
0.0116537 0.088052 -0.0243245 0.803891 0.409126 0.431712
0.0336606 -0.0673832 -0.20988 -0.518891 0.127648 0.845256
-0.050074 0.0574092 0.2564 -0.501749 0.0773115 0.861552
0.0930057 0.311672 -0.298675 -0.443417 0.243791 -0.862524
0.0862317 -0.153014 0.0652575 0.803891 0.409126 0.431713
0.133642 -0.129988 -0.179437 0.502421 -0.855573 -0.124775
0.171368 -0.0736309 -0.304989 -0.0894883 -0.39935 -0.912421
0.106953 0.423027 -0.20838 0.803891 0.409126 0.431712
0.0726818 0.0553934 -0.234048 0.346198 0.268348 -0.898964
0.0630889 -0.317574 0.101618 -0.529398 0.161341 0.832891
-0.158718 0.175629 0.447877 -0.933735 -0.072718 0.350502
0.428945 -0.167104 -0.248704 0.803891 0.409125 0.431713
0.0588317 -0.11688 -0.2745 -0.0776886 -0.442015 -0.893637
0.210951 0.113845 -0.11081 -0.365224 -0.233328 0.901204
0.169573 0.311669 -0.219453 0.803891 0.409126 0.431713
0.0893463 -0.0527237 -0.0355854 0.803891 0.409126 0.431712
-0.0314079 0.0930472 0.262694 -0.530572 0.165932 0.83124
0.239489 -0.366007 0.076591 -0.188776 -0.962811 -0.193286
0.0433638 -0.176533 0.176691 0.06239 -0.779839 0.622863
0.0384061 -0.169887 0.184634 0.0333324 -0.755688 0.654083
0.117663 -0.0684171 -0.301561 -0.101941 -0.357882 -0.928186
-0.138306 -0.0538782 0.369636 -0.810373 -0.398594 0.429439
0.136964 -0.15175 0.0804109 -0.352974 0.912366 -0.207359
0.0985263 -0.336722 0.124231 -0.288353 -0.957437 -0.0128869
-0.0575896 0.271638 -0.218643 -0.574087 0.364331 -0.733272
0.250613 -0.150275 -0.268035 -0.0520372 -0.570077 -0.819941
0.129202 0.294777 -0.128269 0.803891 0.409126 0.431712
0.194174 -0.0464499 -0.101314 -0.587026 0.428968 0.686576
0.213536 -0.365642 0.269878 -0.280502 0.90079 -0.331506
-0.202865 0.293566 0.236661 -0.965316 0.231242 0.121209
0.0382483 -0.296556 -0.0600427 -0.143811 -0.944969 -0.293857
0.400298 -0.0517059 -0.304723 0.803891 0.409126 0.431712
-0.0545223 0.190802 0.00152715 0.803891 0.409126 0.431713
-0.106095 0.0977095 -0.256782 -0.442494 0.243392 -0.863111
0.0871652 -0.0466193 -0.0373088 0.803891 0.409126 0.431712
-0.00964356 0.271296 0.00373506 -0.376018 0.91197 -0.164075
0.0269973 0.427623 -0.206307 -0.5957 0.379837 -0.707719
-0.178716 -0.0548093 0.134601 0.451 0.0539094 -0.890895
-0.175662 0.387146 0.160732 -0.935602 0.350003 -0.0463244
-0.0690885 -0.114078 0.43223 -0.739176 -0.527307 0.419005
0.133261 0.331743 -0.170859 0.803891 0.409126 0.431712
-0.186579 0.35905 0.188933 -0.948918 0.31532 0.0113377
-0.0280663 0.493467 -0.101041 -0.723565 0.440691 -0.531267
-0.0743261 0.388005 0.152945 0.268941 0.397362 -0.877368
0.0688135 -0.150578 0.0273975 -0.376397 0.911945 -0.163344
-0.0713038 0.0200507 0.482821 -0.0371341 0.758664 -0.650423
0.139763 0.234984 -0.154765 0.593925 -0.590927 -0.545947
0.22726 -0.084171 -0.147589 0.315371 -0.908609 0.273808
-0.195605 0.322769 0.0941127 -0.920207 0.377951 -0.101846
-0.105308 0.0998281 -0.190297 0.0219709 -0.74577 0.665841
0.103411 -0.317936 -0.0226025 -0.158142 -0.952579 -0.259969
-0.0821145 -0.120846 0.400734 -0.739176 -0.527307 0.419005
-0.029057 0.0582602 -0.213493 -0.210629 -0.482979 0.849922
0.0296065 0.315931 -0.260875 -0.508829 0.309824 -0.803182
0.022659 -0.192114 0.159258 0.0623896 -0.779839 0.622863
0.00418233 0.2045 -0.0582421 0.223932 -0.880621 0.417565
-0.129455 -0.138105 0.295562 -0.74388 -0.519143 0.420872
-0.0441286 0.0724408 0.0819079 -0.803891 -0.409126 -0.431712
-0.23564 0.188445 0.172441 -0.967408 0.200738 0.154356
-0.0375733 -0.182021 0.334491 0.56604 -0.749139 -0.344078
-0.214978 -0.13778 0.139209 -0.803891 -0.409126 -0.431713
0.0269755 0.0505887 -0.0297859 -0.803891 -0.409126 -0.431712
-0.197706 0.0368805 0.103763 0.581526 -0.388289 -0.714884
-0.111079 0.0674232 -0.248726 -0.80389 -0.409126 -0.431713
-0.101366 0.0833234 0.104451 0.593638 -0.507022 -0.624918
0.161264 -0.135216 -0.0298006 -0.550808 0.785977 0.280804
-0.126641 -0.0809253 0.365558 -0.793492 -0.431463 0.429198
-0.195775 0.327693 0.118628 -0.932487 0.356397 -0.0587279
0.221608 -0.164962 0.0104373 0.568222 -0.742739 -0.354207
0.0794828 -0.0473098 -0.0223491 0.803891 0.409125 0.431713
-0.181419 0.335158 0.0961833 0.268941 0.397362 -0.877368
-0.207395 0.297563 0.1301 -0.942699 0.333195 -0.0173026
-0.096817 0.135466 -0.249996 -0.486488 0.288569 -0.824656
0.188177 -0.347862 0.312266 -0.148385 0.840842 -0.520544
0.0074139 -0.150622 0.340137 0.56604 -0.749139 -0.344078
0.113922 0.428137 -0.2262 0.803891 0.409126 0.431712
0.328645 -0.0625182 -0.16105 0.803891 0.409125 0.431713
0.0191097 0.00596373 -0.2682 0.394111 0.177213 -0.901816
0.00687826 -0.14954 0.0786492 -0.139306 0.835164 -0.532067
0.29943 0.136108 -0.378687 -0.201222 -0.116197 -0.972629
0.00140306 0.499503 -0.134014 -0.679981 0.427519 -0.595695
0.116693 0.361029 -0.296474 -0.464464 0.266319 -0.844599
0.0557091 0.273478 0.0287655 0.803891 0.409126 0.431712
0.152206 0.238094 -0.117388 0.803892 0.409121 0.431714
0.385691 -0.068211 -0.326893 -0.0736981 -0.458242 -0.885767
-0.093932 -0.178071 0.300103 -0.68416 -0.611664 0.397229
-0.16816 0.121982 -0.139193 0.25112 -0.89144 0.377192
0.148814 -0.161669 0.176904 0.176428 -0.857198 0.483823
-0.120989 0.283916 0.0914996 0.268941 0.397362 -0.877368
-0.180807 -0.0719284 0.132004 0.43111 0.0992468 -0.896824
-0.0405553 0.0328686 0.262699 -0.504003 0.0830599 0.859699
0.197164 -0.15294 -0.262791 -0.0520372 -0.570077 -0.819941
-0.0600056 0.364515 0.157964 0.803891 0.409126 0.431712
0.219618 -0.374211 0.227958 -0.305376 -0.952025 0.0198195
-0.00388921 0.110409 -0.232222 0.170937 0.536296 -0.826539
-0.00534105 0.277854 0.0414556 -0.439483 0.897668 -0.0323426
0.405045 -0.0280206 -0.336008 0.803891 0.409126 0.431712
-0.129545 -0.137791 0.128993 0.210629 0.482979 -0.849922
-0.124792 0.114937 0.497236 -0.501888 0.0771095 0.861488
0.0203975 0.40642 -0.143577 -0.56529 0.299849 0.768464
0.0322179 -0.0838024 0.19826 0.154199 0.557662 -0.81562
0.0317893 -0.0786027 0.0961166 0.803891 0.409126 0.431712
0.266942 0.239761 -0.359631 -0.297199 -0.352422 0.887396
0.0203734 -0.217941 -0.040329 -0.460186 0.887684 0.0156691
0.0322748 -0.102919 0.118256 0.803891 0.409126 0.431712
0.148351 -0.202139 -0.0291201 0.56944 -0.738911 -0.360207
0.221362 -0.0914984 -0.301173 -0.0736981 -0.458242 -0.885767
0.0624444 -0.101087 0.188184 0.0373198 0.689713 -0.723121
0.284257 -0.223272 0.0446549 0.348618 0.263973 -0.899324
0.238508 0.100076 -0.147293 0.803891 0.409126 0.431712
0.0235565 0.300561 -0.0999483 -0.56529 0.299849 0.768464
-0.00843096 0.0743978 -0.199211 -0.210629 -0.482979 0.849922
-0.193159 0.315739 0.270908 -0.965773 0.225918 0.127449
0.202063 -0.190187 0.0144611 0.568851 -0.316917 -0.758928
-0.265204 0.0187767 0.084371 -0.803891 -0.409124 -0.431713
-0.0556897 -0.0278259 0.521741 0.803891 0.409126 0.431712
-0.0871539 0.142011 0.0196412 0.495418 -0.862238 -0.10539
-0.211931 0.284342 0.122654 -0.942699 0.333195 -0.0173026
0.0117301 -0.0704964 0.113353 -0.803891 -0.409126 -0.431713
0.331849 0.0184891 -0.243786 0.803891 0.409126 0.431712
-0.0763656 0.250085 0.0821718 -0.103108 0.810695 -0.576318
-0.1007 0.305455 0.107474 0.268941 0.397362 -0.877368
-0.0235238 0.00209602 -0.234767 -0.365225 -0.233327 0.901204
0.0244708 -0.109569 0.177373 0.0962374 0.626802 -0.773212
0.0687695 -0.0841985 0.279857 0.384255 -0.911276 0.148068
0.220008 0.0687319 -0.167677 0.292786 0.359553 -0.886001
-0.157541 0.158903 0.168831 -0.0527009 -0.674013 0.736837
0.0778324 0.270275 -0.00939461 0.803898 0.409122 0.431702
0.238394 -0.323887 -0.00265596 0.348619 0.263973 -0.899324
0.390465 -0.343719 -0.0480019 -0.0897294 -0.887787 -0.451424
-0.166683 0.29172 0.313269 0.195295 -0.867172 0.458119
-0.0782995 0.503691 -0.00573588 -0.815208 0.447594 -0.367554
-0.0599326 0.027631 -0.237733 -0.264965 -0.403496 0.875776
0.0565139 -0.190096 0.0148186 -0.803891 -0.409126 -0.431713
-0.0643954 0.0396949 -0.284343 -0.312894 0.0808949 -0.946337
-0.160734 0.180816 0.443294 -0.938338 -0.0541036 0.341459
0.235689 0.0260312 -0.278086 -0.350582 0.912283 -0.211735
0.161234 -0.1015 -0.0874788 -0.59249 0.614429 0.520991
-0.00650443 0.0693192 0.0272405 0.803891 0.409126 0.431712
-0.0286277 -0.122801 0.492606 -0.719924 -0.558198 0.412462
-0.0590725 0.273783 -0.150282 -0.56529 0.299849 0.768464
-0.0887512 0.253342 -0.164138 -0.56529 0.299849 0.768464
0.0879541 -0.0531216 -0.173535 -0.803891 -0.409125 -0.431712
0.0274037 -0.0796479 0.416124 0.803891 0.409126 0.431712
0.0112927 -0.117104 0.48162 0.803891 0.409126 0.431712
0.0373882 -0.00889557 0.330481 0.803891 0.409125 0.431712
0.0700761 0.358412 -0.0883009 -0.56529 0.299849 0.768464
0.396464 -0.241138 -0.192005 -0.591737 0.623434 0.511055
0.163181 -0.271977 -0.0165753 0.348619 0.263973 -0.899324
0.043477 0.27506 -0.0592381 -0.514033 0.843049 0.158234
0.109794 0.421055 -0.271124 -0.508829 0.309824 -0.803182
0.021823 -0.213968 -0.0749578 -0.511207 0.846283 0.149911
0.256601 -0.00574783 -0.340214 -0.119245 -0.307173 -0.944153
-0.0330722 0.523136 -0.0508062 -0.317616 0.913337 -0.254823
-0.082154 0.150244 0.119545 0.589156 -0.647293 -0.483639
-0.182549 0.12284 -0.12499 0.303555 -0.906407 0.293735
0.2511 0.0185339 -0.0934665 0.803891 0.409124 0.431713
-0.0607848 -0.250732 -0.0193234 -0.328673 0.910518 -0.25086
-0.0837809 0.170831 -0.0659826 -0.803891 -0.409126 -0.431712
-0.00411851 -0.202077 0.063318 -0.223932 0.880621 -0.417565
-0.156174 0.184796 0.456456 -0.938338 -0.0541036 0.341459
0.429557 -0.235612 -0.193234 0.591899 -0.621605 -0.513092
0.073972 -0.0866855 0.310426 0.56604 -0.749139 -0.344078
0.250095 -0.378037 0.137297 -0.231761 -0.966575 -0.109638
-0.244997 0.186959 0.0812833 -0.953265 0.300299 0.0332645
-0.211068 -0.0239397 0.169937 -0.504992 0.0860165 0.858828
-0.082029 0.498409 0.0300279 0.419319 -0.904612 0.0764697
-0.115342 0.166114 -0.00274301 -0.803891 -0.409126 -0.431712
0.157571 0.389251 -0.270627 0.803891 0.409125 0.431712
0.308171 -0.100692 -0.30318 -0.0662756 -0.490825 -0.868734
0.315935 -0.0611862 -0.324302 -0.0821353 -0.425157 -0.901385
0.312886 -0.389101 0.166095 0.364104 -0.91245 0.186715
0.0163438 0.325927 -0.115151 -0.56529 0.299849 0.768464
-0.0432648 -0.0342972 -0.251149 -0.41015 -0.144336 0.900524
-0.133297 0.177922 0.188598 0.00121368 -0.726966 0.686672
-0.0578477 0.0359116 0.154506 0.803891 0.409126 0.431712
0.0727039 -0.182862 -0.181685 0.594551 -0.572753 -0.564325
0.0738896 -0.119463 0.0564441 0.803891 0.409126 0.431713
-0.18324 -0.0658775 0.245521 -0.421428 0.904002 -0.0719653
0.11622 0.426484 -0.228912 0.803891 0.409126 0.431712
-0.155698 0.150478 -0.201113 -0.617092 0.393899 -0.681206
-0.250818 0.0809033 0.106103 -0.463524 -0.0239292 0.885761
0.189386 -0.133672 -0.274969 -0.0590416 -0.528023 -0.847175
-0.0250087 0.0163492 0.422746 0.803891 0.409126 0.431712
0.0709168 -0.0872726 0.268424 0.210655 -0.874638 0.436615
0.0505798 -0.129534 -0.171922 -0.591067 0.468577 0.656563
-0.167032 0.286329 0.406329 -0.588428 0.441288 0.677509
-0.149525 0.0667436 0.189872 -0.564177 0.295616 0.770919
-0.0428073 0.230767 -0.102615 -0.481602 0.873685 0.0688077
-0.205653 0.149896 0.159055 0.00121368 -0.726966 0.686672
0.117072 0.2307 -0.176706 0.587643 -0.658418 -0.470278
0.0108067 0.140943 -0.214678 0.422408 0.118272 -0.898656
-0.155404 0.427983 0.131036 0.550767 -0.238078 -0.799984
0.170331 -0.315737 0.373716 0.803891 0.409126 0.431712
-0.0458363 0.0311661 -0.285179 0.297198 0.352422 -0.887396
0.0963781 0.223227 -0.192101 0.587643 -0.658418 -0.470278
0.18783 0.00249954 -0.300231 -0.350582 0.912283 -0.211735
-0.123493 -0.180247 0.245828 -0.673884 -0.626633 0.391422
0.21302 -0.241006 0.182085 -0.529398 0.161342 0.832891
0.248031 -0.322828 0.0013905 0.348619 0.263973 -0.899324
-0.0147721 -0.179794 0.367152 0.56604 -0.749139 -0.344078
-0.123811 0.0429294 0.129767 -0.803891 -0.409126 -0.431712
0.098438 -0.151503 0.202513 0.0623896 -0.779839 0.622863
-0.0641936 0.167049 -0.258166 -0.464464 0.266319 -0.844599
0.0741355 0.35088 -0.0823761 -0.56529 0.299849 0.768464
0.3251 -0.388739 0.106424 -0.180876 -0.960862 -0.20983
-0.214561 -0.103694 0.179658 -0.815478 -0.387684 0.429764
-0.0707937 -0.0863161 0.461737 -0.775997 -0.463872 0.427378
-0.0295914 0.100897 0.203666 0.566206 -0.304144 -0.766099
0.324671 -0.325093 0.0288183 0.22716 0.459552 -0.85861
-0.0219982 0.0124842 -0.283319 0.346198 0.268348 -0.898964
0.152718 -0.123323 -0.159043 0.571084 -0.733757 -0.368054
-0.155258 0.433107 0.140603 -0.913897 0.388644 -0.117251
0.115932 0.263816 -0.074219 0.803891 0.409126 0.431712
-0.00292454 -0.00978586 0.0955407 0.803891 0.409126 0.431712
0.133031 -0.0905753 0.229791 0.803891 0.409126 0.431713
-0.0452244 -0.187512 0.165119 -0.0540399 -0.672596 0.738034
-0.0178517 -0.0271971 0.211363 0.341371 0.277009 -0.898182
-0.0463094 -0.0317742 0.197165 0.803891 0.409126 0.431712
-0.0472651 0.00674739 0.361542 -0.421428 0.904002 -0.0719653
0.176807 -0.233428 2.1618e-05 0.348619 0.263973 -0.899324
-0.150937 0.127964 0.0631425 0.578106 -0.708112 -0.405426
0.056073 0.124672 -0.141741 0.803891 0.409126 0.431712
0.08653 -0.0498499 0.231742 0.154199 0.557662 -0.81562
-0.038571 0.0585608 0.208198 0.518891 -0.127648 -0.845256
0.0165421 0.0257946 0.0131391 -0.803891 -0.409126 -0.431712
-0.135744 -0.143755 0.277283 -0.719924 -0.558198 0.412462
0.0572978 -0.0892236 -0.187823 -0.566206 0.304143 0.766099
-0.00950808 0.05698 0.0320932 -0.803891 -0.409126 -0.431713
0.0284404 -0.145373 0.363299 0.56604 -0.749139 -0.344078
-0.219566 0.257158 0.162796 -0.959381 0.27307 0.0708638
-0.241442 0.19803 0.0695346 -0.944278 0.328976 -0.0106709
0.316068 -0.00174884 -0.195221 0.803891 0.409126 0.431712
0.0113866 -0.0926207 0.188292 0.154199 0.557662 -0.81562
0.147265 -0.145299 -0.0281301 -0.538937 0.808104 0.237729
-0.00222075 0.251288 -0.0783186 -0.463558 0.885748 0.023779
-0.23693 0.13401 -0.0774822 -0.803891 -0.409126 -0.431712
-0.0149154 0.146237 -0.0299915 0.803891 0.409126 0.431712
-0.102053 0.160061 0.186197 -0.443427 -0.071535 0.893451
-0.0201795 0.231828 -0.261484 -0.486855 0.288966 -0.8243
-0.0380968 -0.187427 0.165655 -0.0249521 -0.702002 0.711737
0.140329 -0.164767 0.174509 0.176428 -0.857198 0.483823
-0.0537849 0.160141 0.0167769 -0.803891 -0.409126 -0.431712
0.222342 -0.151593 -0.0311575 0.557636 -0.771241 -0.306969
-0.0168532 0.140486 -0.0902339 0.110311 -0.815804 0.567711
-0.15185 -0.056719 0.147606 0.43111 0.0992468 -0.896824
0.244825 -0.352655 0.251995 -0.522907 0.832218 0.18434
-0.158211 0.198163 0.434888 0.561318 -0.297067 -0.772446
-0.114142 0.195405 -0.128157 -0.360102 0.912459 -0.19428
0.112071 -0.130361 -0.00432465 0.803891 0.409126 0.431712
-0.117393 0.0884897 0.503694 -0.489102 0.0417076 0.871229
0.187448 0.357883 -0.332144 0.135991 0.580181 -0.803055
0.083994 -0.328291 0.0498426 -0.232207 -0.966565 -0.108773
0.0476876 0.154301 -0.195931 0.364545 0.234597 -0.90115
0.324271 -0.108197 -0.300028 -0.0628051 -0.50718 -0.859549
-0.0642078 -0.0242193 0.521452 -0.391894 -0.181654 0.901898
0.0454626 -0.0305312 0.232019 0.264965 0.403496 -0.875777
0.0877292 -0.103923 0.0159468 0.803891 0.409126 0.431712
-0.0514476 0.236627 -0.0689402 -0.279034 0.900425 -0.333728
0.203597 -0.104019 -0.122936 0.594646 -0.538182 -0.597291
0.0941424 -0.289303 -0.0484235 0.348619 0.263973 -0.899324
-0.172061 0.323832 0.37356 -0.594199 0.520452 0.613235
0.250035 -0.0641439 -0.0302718 -0.589156 0.647294 0.483638
0.034649 -0.10992 0.43132 0.803891 0.409126 0.431712
0.053872 0.458406 -0.212414 -0.596057 0.380052 -0.707303
0.197161 0.0154681 -0.259806 -0.350582 0.912283 -0.211735
0.0721036 -0.115128 0.23939 -0.0829979 -0.641574 0.762558
-0.0464721 -0.107647 0.128453 -0.803891 -0.409125 -0.431712
-0.0612768 0.142434 -0.0809766 -0.803891 -0.409126 -0.431712
-0.141092 0.154863 -0.0536486 0.398885 -0.909257 0.118924
-0.00890831 0.176276 -0.0696444 0.803891 0.409126 0.431712
0.0440689 -0.315019 0.0182445 -0.223158 -0.966657 -0.1256
0.257167 0.0454417 -0.230015 -0.350582 0.912283 -0.211735
0.398807 -0.0852927 -0.270116 0.803891 0.409125 0.431713
-0.203336 0.23734 0.0451628 0.268941 0.397362 -0.877368
0.0946576 -0.223731 0.110263 -0.310238 -0.330901 0.891211
-0.135443 -0.0425292 0.234499 -0.528247 0.824688 0.202101
0.0165145 0.0155431 0.34619 0.803891 0.409126 0.431712
0.0247023 0.030326 -0.260008 0.346198 0.268348 -0.898964
0.164477 0.113926 -0.181211 0.322085 0.310758 -0.894254
0.0496406 -0.279697 0.0857331 -0.529398 0.161342 0.832891
