ply
format ascii 1.0
comment Created by Open3D
element vertex 800
property double x
property double y
property double z
property double nx
property double ny
property double nz
end_header
0.111976 0.0372563 -0.0934177 -0.0143247 0.432101 -0.901712
0.344862 -0.0724948 -0.0551223 0.0667123 0.803376 0.591724
0.32161 -0.0585619 0.07632 0.0143247 -0.4321 0.901712
-0.410474 -0.0200169 0.0704605 -0.00125811 0.600331 -0.799751
-0.286665 -0.0174941 -0.0815842 -0.056617 -0.341525 -0.938166
0.0784833 -0.0864399 0.0513476 -0.021419 -0.835159 0.549591
0.0920536 -0.0718646 -0.0152855 0.0589472 0.983204 0.172731
0.373087 -0.0635874 0.073094 0.0143247 -0.432101 0.901712
-0.403869 0.0729716 -0.0273878 -0.0118575 -0.745228 0.666704
0.176794 -0.0636605 -0.0481683 0.0667123 0.803376 0.591724
0.357363 0.0697669 -0.0424441 0.617997 0.0669248 0.783326
-0.315532 -0.0765993 0.0457245 -0.0355878 -0.939922 0.33953
0.476057 -0.04671 -0.122843 -0.05157 -0.217257 -0.974751
0.386682 0.0606777 0.0408752 0.0667123 0.803375 0.591724
-0.235436 0.050364 0.0661001 -0.0633973 -0.554958 -0.829459
-0.292792 0.0500691 -0.0804358 -0.0206803 0.34125 -0.939745
-0.476541 0.0973175 -0.0571227 0.0071643 0.696149 -0.717862
-0.387963 -0.0519609 0.0831063 -0.0118575 -0.745229 0.666704
-0.231581 0.0997586 0.055632 0.065708 0.882106 0.466445
-0.458535 0.118456 0.062773 0.99777 -0.0526107 -0.0410627
-0.487462 0.113562 -0.0381236 0.020085 0.82346 -0.567018
0.125721 -0.0687815 0.0221805 0.0312639 0.911995 -0.409008
-0.0176585 0.0417143 0.0551302 -0.0643491 -0.595253 -0.800957
0.147754 -0.0165352 0.120736 0.0369459 -0.0769506 0.99635
-0.347386 -0.0138964 -0.0455647 0.0610332 0.470418 0.88033
0.0377523 -0.075701 0.0641415 -0.0118575 -0.745229 0.666703
-0.131452 -0.00484366 0.103517 0.0351817 -0.10819 0.993507
-0.148659 -0.00762666 0.072222 -0.0268345 0.247075 -0.968625
-0.431113 0.0454162 -0.0462225 0.0206804 -0.341249 0.939746
0.29149 0.0323978 -0.0984127 -0.0110906 0.476001 -0.879375
-0.192555 0.00118146 0.104371 0.0472544 0.991404 -0.122002
0.368269 -0.105774 0.0328302 -0.0245122 -0.86116 0.507743
0.125873 -0.108235 -0.00792304 -0.997771 0.0526105 0.0410626
0.348838 -0.0961388 0.0105003 0.615154 -0.124991 -0.778436
0.503781 0.0283887 0.0283586 0.997771 -0.0526018 -0.0410723
-0.179616 0.058878 0.0931094 0.0622912 0.513316 0.855936
0.390195 -0.0441709 -0.0798066 0.0562755 0.335342 0.940414
-0.504215 -0.0207792 -0.0486537 -0.99777 0.0526125 0.0410625
0.387129 -0.0865322 -0.089543 -0.0657802 -0.671393 -0.738176
-0.315017 0.0494009 -0.0801894 -0.0206803 0.34125 -0.939745
-0.177403 0.0703827 -0.02246 -0.0298542 -0.90213 0.43043
-0.140893 0.0749382 0.0138082 -0.0571812 -0.991186 -0.119499
0.00771422 -0.0541992 -0.0419513 0.0667123 0.803376 0.591724
0.466614 0.0414576 -0.00317813 -0.0608622 -0.969746 -0.236407
0.461014 -0.099702 -0.0929025 -0.066448 -0.72584 -0.684646
0.186839 -0.0420041 -0.0996127 0.0472544 0.991404 -0.122002
-0.326003 0.112352 -0.0132743 0.0397154 0.961861 -0.270641
-0.00964163 0.0677544 -0.00926527 -0.0472883 -0.991305 0.122797
-0.447842 -0.0131592 0.0754728 -0.00454939 0.560219 -0.828332
0.305912 0.00659925 -0.10872 -0.0268345 0.247075 -0.968625
0.27822 -0.0837257 -0.0823315 -0.066256 -0.707054 -0.704049
-0.274119 0.0742926 -0.0207646 -0.0275456 -0.885062 0.464658
-0.474779 -0.0508285 0.0926495 -0.0104409 -0.730745 0.682571
-0.308585 0.084234 0.0129796 -0.0528411 -0.998598 -0.00305732
0.14329 0.10815 0.0472518 0.0652759 0.897414 0.436333
-0.225861 -0.0863038 0.0206098 -0.0481966 -0.993622 0.101948
-0.32062 -0.0259927 0.0657673 0.00203637 0.638982 -0.769219
0.405245 -0.00410614 0.080682 0.0505536 0.192808 0.979933
0.403221 -0.0656825 0.0347137 0.00203634 0.638981 -0.76922
-0.279836 0.0470155 0.104316 -0.0472544 -0.991404 0.122002
-0.332958 0.101691 -0.0380492 0.0245122 0.86116 -0.507743
0.219459 -0.0671257 -0.0482738 0.0667123 0.803375 0.591724
-0.284405 -0.0190543 0.0704107 -0.00782948 0.518743 -0.854895
-0.111745 0.0344442 0.0672658 -0.0472544 -0.991404 0.122002
-0.0274002 -0.0938477 -0.0254696 -0.0621393 -0.956801 -0.284026
-0.187981 -0.0465875 0.0453371 0.021419 0.835159 -0.549591
-0.40391 -0.0599014 0.0728715 -0.0182739 -0.807126 0.590097
0.34299 0.0273216 0.0737722 0.0610332 0.470419 0.88033
0.127249 0.0757134 -0.0596297 0.021419 0.835159 -0.549591
0.449382 -0.0358238 0.0795751 0.0351818 -0.10819 0.993508
-0.491396 0.095987 0.0991833 0.0655075 0.654447 0.753265
-0.469431 -0.0724449 0.00101501 -0.0594369 -0.980328 -0.188215
0.151587 -0.117429 0.0583478 -0.0236494 -0.85407 0.519621
0.166604 -0.0387684 -0.0678724 0.0598218 0.432288 0.899749
-0.461221 0.0203301 0.12322 0.99777 -0.0526119 -0.0410634
0.452525 0.0351182 -0.0522242 -0.0245121 -0.861159 0.507744
-0.380571 0.0842396 -0.0129244 0.0471275 0.11979 0.99168
0.376797 0.0198391 0.0750936 0.0580746 0.381296 0.922627
0.0245415 -0.0939587 -0.0357105 -0.063265 -0.941524 -0.330952
-0.166626 0.0224811 -0.0909792 -0.0327274 0.150493 -0.988069
-0.471213 0.0655363 0.116782 0.0588998 0.404867 0.912476
-0.158132 -0.0487955 0.0431451 0.021419 0.835159 -0.549591
0.298222 0.0388411 0.0702489 0.0633974 0.55496 0.829458
0.0381519 -0.0273997 0.0938823 0.0268345 -0.247075 0.968625
0.0513848 -0.101591 -0.00334641 -0.0513944 -0.998345 0.025806
-0.116818 -0.0338025 0.0596505 -0.00125811 0.600331 -0.799751
-0.135538 0.0743616 -0.00435086 -0.0464203 -0.989081 0.139873
-0.157157 -0.0274099 0.0641752 -0.00782945 0.518743 -0.854894
0.254167 0.0833904 0.0099535 0.0594369 0.980328 0.188215
-0.501134 -0.0488923 0.0622302 -0.99777 0.0526142 0.0410681
0.422405 -0.0319285 0.0498201 -0.0319607 0.16919 -0.985065
0.35691 0.0201361 0.0410501 -0.0633973 -0.554958 -0.829459
-0.24853 0.037464 -0.0531282 0.0206803 -0.34125 0.939745
-0.243885 -0.0550892 0.00835727 0.0534783 0.998362 0.0203187
0.391214 0.0427627 0.00851366 -0.0642366 -0.923953 -0.377073
0.395929 0.0445761 -0.0902328 0.00532557 0.676072 -0.736816
0.501067 0.0634755 -0.0523141 0.0471275 0.11979 0.99168
0.477212 -0.113701 0.0375252 -0.0232117 -0.850423 0.525587
-0.443151 -0.0527362 -0.0450116 -0.0667227 -0.773126 -0.630734
-0.119332 0.0664123 -0.0265987 -0.0275456 -0.885062 0.464658
0.00793598 0.0675273 -0.0015869 -0.0522524 -0.998581 0.0102815
0.142114 0.0477936 0.0337561 -0.0667123 -0.803376 -0.591724
-0.403386 0.0808899 0.0493165 -0.065708 -0.882106 -0.466445
-0.0146259 0.0791042 -0.0595662 0.0150839 0.777123 -0.629168
-0.493056 0.0750416 0.0997281 -0.997771 0.0526103 0.0410617
-0.0446377 0.0901119 -0.0434841 0.0275454 0.88506 -0.464661
0.434761 0.0271314 -0.0637119 -0.0118575 -0.745228 0.666704
0.272367 0.0701533 -0.0623165 0.0245122 0.86116 -0.507743
-0.356102 0.0810181 0.0915696 0.065144 0.634096 0.770506
-0.407118 0.0405219 0.113757 0.0504944 0.192811 0.979936
0.403989 -0.0804386 -0.0959417 -0.064349 -0.595251 -0.800959
-0.285639 -0.0503756 0.0857086 -0.00532565 -0.676073 0.736816
-0.110436 -0.0818695 0.0499909 -0.0275455 -0.885061 0.46466
0.0142655 -0.0140935 0.0659822 -0.0294251 0.20544 -0.978227
0.352637 0.0417357 -0.0456228 -0.0275455 -0.885061 0.464659
0.0678325 -0.0871559 -0.0557965 -0.0665394 -0.831667 -0.551274
-0.205257 0.0228262 -0.0633634 -0.0472544 -0.991404 0.122002
0.428141 -0.0096466 0.0490769 -0.0504923 -0.19281 -0.979936
-0.42475 0.102699 -0.0399951 0.0182739 0.807126 -0.590097
0.316916 -0.0757065 0.0205304 0.0245121 0.861159 -0.507744
0.479278 -0.0870461 0.00857249 -0.0471275 -0.11979 -0.99168
0.331109 -0.0651152 0.034683 0.00860199 0.711517 -0.702616
-0.268448 0.0249715 -0.0704057 -0.0472544 -0.991404 0.122002
0.410193 -0.0229653 -0.115699 -0.0409536 0.0031703 -0.999156
-0.102713 -0.0788062 -0.0477347 -0.0662044 -0.857932 -0.50948
0.204289 -0.0505586 -0.0989744 -0.0580746 -0.381296 -0.922627
-0.0546087 -0.068451 0.0705313 -0.00860199 -0.711517 0.702616
0.220011 -0.0503374 0.0466605 -0.00454937 0.560219 -0.828332
-0.415627 -0.00556327 0.0791676 -0.0175239 0.387147 -0.921852
-0.309788 0.00277013 0.110605 0.0327273 -0.150493 0.988069
-0.300891 -0.0430396 0.0461095 0.0245121 0.861159 -0.507744
-0.200611 -0.0422163 -0.0754305 -0.0622912 -0.513315 -0.855937
0.344811 -0.0101186 0.0532766 -0.0470149 -0.11743 -0.991968
0.175633 0.1148 -0.0351975 0.0410176 0.968769 -0.244549
-0.466926 0.0839337 0.106555 0.0639245 0.576636 0.814497
0.277858 -0.104352 -0.0531826 -0.0650515 -0.904131 -0.422274
0.338273 -0.0343855 -0.0798377 0.0525497 0.242241 0.968792
-0.0720163 -0.0611239 -0.0172267 0.0621394 0.956801 0.284027
-0.219872 0.109209 -0.00660015 0.0454501 0.986204 -0.159172
-0.0594154 -0.0278451 -0.0799354 0.0472544 0.991404 -0.122002
-0.476354 0.128089 0.0427257 0.0600473 0.976215 0.208322
0.176538 -0.132226 -0.0402707 -0.0612207 -0.966493 -0.249284
0.481763 0.054807 0.0488207 0.0666744 0.758908 0.647775
0.0524351 -0.0681708 0.0161516 0.0388856 0.958166 -0.283559
0.141231 0.00833036 -0.0718368 0.0268347 -0.247073 0.968625
-0.218861 0.102174 -0.0303394 0.0305117 0.906806 -0.420443
0.0140822 0.0198421 0.0961415 0.0507481 0.186371 0.981168
-0.331088 -0.0613046 -0.0462918 -0.0667123 -0.803375 -0.591725
-0.0200359 0.0764824 0.0649031 0.0667227 0.773125 0.630734
0.198662 -0.0213899 0.0724811 0.0472544 0.991404 -0.122002
-0.213208 0.0988761 0.0547127 0.065708 0.882106 0.466445
0.000546965 -0.0501005 0.0457796 0.0118575 0.745228 -0.666704
0.34972 -0.0644965 -0.101933 -0.0610332 -0.470418 -0.88033
0.34821 -0.078761 0.0637817 0.00125808 -0.600331 0.79975
0.264818 0.0153097 0.0576281 -0.0472544 -0.991404 0.122002
-0.355623 -0.0648259 0.067274 -0.021419 -0.835159 0.549591
-0.231728 -0.0826095 -0.018625 -0.0621393 -0.956801 -0.284026
-0.0521837 -0.0665051 -0.0685323 -0.066256 -0.707054 -0.704049
-0.0318572 -0.0561232 -0.0345298 0.0662044 0.857932 0.50948
-0.0358194 -0.0199165 -0.0629114 0.0556231 0.315369 0.947338
-0.494227 0.0543182 0.0978379 -0.99777 0.0526126 0.0410614
0.330784 -0.115595 -0.00172779 -0.046293 -0.988783 0.142004
-0.0462936 0.0477191 0.0526408 -0.0657801 -0.671392 -0.738177
-0.0802343 0.0953838 -0.0347877 0.0334036 0.926341 -0.375202
0.392921 -0.0349257 -0.113994 -0.0482033 -0.144225 -0.98837
0.171588 -0.015283 0.11162 0.0472544 0.991404 -0.122002
0.480631 -0.0758198 0.0255694 0.0118576 0.745229 -0.666703
-0.370581 0.11416 0.0441153 0.0621393 0.956801 0.284026
0.142161 -0.132096 -0.0317072 -0.0598179 -0.977831 -0.200672
0.364133 0.0336901 -0.0575003 -0.015084 -0.777124 0.629167
0.15719 -0.0693828 -0.0363403 0.0650515 0.904131 0.422273
0.309114 -0.0633083 0.0362322 0.00532565 0.676073 -0.736816
0.20222 0.0699875 -0.0653218 0.0182738 0.807125 -0.590097
-0.475483 0.108995 0.0302648 -0.0471275 -0.11979 -0.99168
0.138347 -0.0600516 0.0369863 0.015084 0.777123 -0.629168
0.172854 -0.13358 0.0188875 -0.0435945 -0.979658 0.19588
-0.0716061 -0.0463788 -0.0823226 -0.0622912 -0.513316 -0.855936
0.0797658 -0.102755 -0.01148 -0.0561553 -0.994306 -0.0905689
0.473429 0.00660879 -0.0795521 0.0110905 -0.476003 0.879374
-0.213103 0.0404351 0.0701633 -0.0598219 -0.432291 -0.899748
-0.287931 0.0269943 -0.0615145 -0.0472544 -0.991404 0.122002
-0.402905 0.000288783 -0.0800603 -0.0510413 -0.203799 -0.977681
0.478238 -0.0610541 0.0379409 -0.00782945 0.518743 -0.854894
0.0151224 0.0647482 0.0174645 -0.0621394 -0.956801 -0.284027
0.459838 -0.0322864 0.048506 -0.0356494 0.101598 -0.994187
-0.44728 0.068843 0.0691605 -0.0657801 -0.671392 -0.738177
0.140555 -0.0432876 -0.127876 -0.0543607 -0.283756 -0.957354
0.125328 -0.104653 -0.0257331 -0.997771 0.0526106 0.0410618
-0.265291 -0.0111588 0.0739599 -0.0175239 0.387147 -0.921852
-0.26798 0.0815366 0.0198644 -0.0574982 -0.990042 -0.128495
0.242 -0.0932128 -0.0675817 -0.0667123 -0.803375 -0.591725
0.18598 -0.0266505 0.118328 0.0341253 -0.126558 0.991372
-0.248934 0.111555 0.0199919 0.0565534 0.993213 0.101639
0.197917 -0.106429 0.0153043 -0.0415682 -0.97124 0.234448
-0.417934 -0.0268827 0.102993 0.0110906 -0.476002 0.879374
0.341058 0.0287055 0.0354166 -0.0657801 -0.671392 -0.738177
0.299689 -0.0842907 0.0588202 -0.00532558 -0.676072 0.736816
0.0771424 -0.097143 -0.0367067 -0.063265 -0.941524 -0.330952
0.0486948 -0.0907057 -0.0469891 -0.065708 -0.882107 -0.466445
0.0188881 -0.0730455 -0.0686338 -0.0665705 -0.740993 -0.668205
0.0714302 0.0266819 -0.0635959 0.0143248 -0.4321 0.901712
0.465441 0.0395827 -0.0974423 -0.997771 0.0526087 0.0410643
-0.341223 -0.0772323 0.0405149 -0.0394627 -0.961978 0.270262
0.0708935 0.0933136 0.0161445 0.0594369 0.980328 0.188215
-0.207786 0.0958601 -0.0418966 0.0245122 0.86116 -0.507743
0.0235299 0.0562687 0.0353523 -0.0665394 -0.831667 -0.551274
-0.405064 -0.0438676 0.0908169 -0.00532565 -0.676073 0.736816
-0.126021 0.0179244 -0.092975 -0.0351817 0.10819 -0.993507
0.203239 -0.016855 0.114603 0.997771 -0.052608 -0.0410619
-0.365355 -0.0627233 -0.0403698 -0.0665394 -0.831667 -0.551274
0.16175 -0.0492613 0.0476081 -0.00125809 0.600331 -0.799751
0.212798 -0.108793 -0.0250806 -0.0578666 -0.988521 -0.139559
0.357673 0.0142528 0.0784762 0.0565194 0.335276 0.940423
0.504261 0.0124313 0.0604662 0.997771 -0.0526103 -0.041062
0.399852 0.0234022 0.0349953 -0.065144 -0.634096 -0.770505
-0.156955 -0.0427865 -0.0782656 -0.0622912 -0.513316 -0.855936
0.440098 0.00888944 0.0418126 -0.0610332 -0.470418 -0.88033
-0.466 -0.0367528 -0.0102015 0.0650515 0.904132 0.422271
0.0897218 0.0632307 -0.0033642 -0.0521694 -0.998579 0.0109183
0.077887 -0.07195 0.000529099 0.0498976 0.996585 -0.0657929
0.130467 -0.0861597 0.0754419 -0.997771 0.0526104 0.0410614
0.141451 0.00322748 -0.0883367 -0.0472544 -0.991404 0.122002
-0.301711 -0.0284009 0.0638169 0.00203634 0.638981 -0.76922
-0.247694 -0.0842116 0.0277746 -0.0440416 -0.981519 0.18623
-0.184523 0.0202862 -0.0759728 -0.0472544 -0.991404 0.122002
-0.435647 0.0810902 -0.0618958 -0.00125808 0.600331 -0.79975
-0.19147 0.0454842 -0.0843304 -0.0206803 0.34125 -0.939745
0.0407295 0.026732 0.0636527 -0.0472544 -0.991404 0.122002
-0.304623 -0.0386644 0.0947151 0.00454933 -0.560219 0.828332
-0.258859 0.0944667 -0.0461181 0.0182739 0.807126 -0.590097
0.493181 -0.101279 -0.0630687 0.997771 -0.0526118 -0.04106
-0.00134313 -0.062508 0.0264192 0.0329108 0.923209 -0.382886
0.201216 0.0886976 -0.0697992 0.997771 -0.0526109 -0.0410614
0.377696 -0.100243 -0.0266749 0.0471275 0.11979 0.99168
-0.346759 -0.0652247 -0.0388409 -0.0665394 -0.831667 -0.551274
0.348685 0.0207585 -0.10501 -0.0175238 0.387148 -0.921851
0.345551 -0.0559252 -0.0707957 0.0633973 0.554958 0.829459
-0.387749 0.0595409 0.0716019 -0.0633973 -0.554958 -0.829459
-0.231498 -0.0473536 0.0421033 0.0275455 0.885061 -0.464659
0.275805 -0.0638893 0.0352474 0.00860199 0.711517 -0.702616
-0.460562 0.0791418 0.0591421 -0.0667123 -0.803376 -0.591724
-0.300659 -0.0159659 -0.0476985 0.0610332 0.470418 0.88033
-0.501254 0.055421 -0.0743369 -0.997771 0.0526115 0.0410616
0.246369 -0.0409958 0.0845721 0.0237863 -0.294523 0.955348
-0.345551 -0.00425017 0.110417 0.0268345 -0.247075 0.968625
-0.278676 0.103713 -0.0313614 0.0305117 0.906806 -0.420443
0.294043 -0.0681007 0.0714723 0.00782945 -0.518743 0.854894
-0.368642 0.00424099 -0.0510668 0.0526033 0.240925 0.969117
0.167067 0.0367331 0.0436199 -0.0657801 -0.671392 -0.738177
-0.464112 -0.00483064 0.0803052 -0.0143248 0.4321 -0.901712
0.259853 -0.0778819 -0.0331259 0.063265 0.941524 0.330952
0.244917 -0.078756 -0.0839429 -0.0657801 -0.671393 -0.738177
0.39603 -0.0579065 -0.108007 -0.0580745 -0.381294 -0.922628
0.19407 0.0568916 0.0028122 -0.0583662 -0.986236 -0.1547
0.442791 0.066379 0.0234699 0.0650515 0.904132 0.422273
0.472751 0.0211798 -0.0692364 -0.00532562 -0.676072 0.736816
0.102653 0.00594311 -0.0812966 -0.0472544 -0.991404 0.122002
0.369838 0.0572075 -0.0773949 0.0150839 0.777123 -0.629169
-0.334261 -0.0708983 0.0576198 -0.0275455 -0.885061 0.46466
0.477617 -0.036555 0.047284 -0.0327703 0.150496 -0.988067
0.0817523 0.0311511 0.0889787 0.056617 0.341525 0.938166
0.408338 -0.0892414 0.055063 -0.00532558 -0.676072 0.736816
0.193648 -0.0768593 -0.0213944 0.0597686 0.978166 0.199045
-0.358311 -0.0509345 -0.0553605 -0.066256 -0.707054 -0.704049
-0.303 0.0816401 0.0301275 -0.0608622 -0.969746 -0.236407
-0.239346 0.0860429 -0.0561669 0.0118575 0.745229 -0.666704
0.466271 -0.0144908 -0.124133 -0.0369036 0.0777064 -0.996293
-0.245221 -0.0187278 -0.0500661 0.0610332 0.470418 0.88033
0.237767 -0.0776949 0.00938441 0.0388856 0.958166 -0.283559
-0.195012 -0.0842133 -0.0212551 -0.0621393 -0.956801 -0.284026
-0.288755 0.0830546 0.0162483 -0.0533387 -0.998387 -0.0194613
-0.42914 0.0789164 -0.0202609 -0.021419 -0.835159 0.549591
0.0459335 -0.0594979 -0.0388648 0.0665394 0.831667 0.551274
-0.149316 -0.0764646 0.0575526 -0.0245121 -0.861159 0.507744
-0.386601 -0.0334052 -0.025727 0.0667123 0.803376 0.591724
0.185335 -0.12001 -0.071355 -0.0658881 -0.874428 -0.48066
-0.456407 -0.0700216 -0.0118707 -0.063265 -0.941524 -0.330953
0.414621 0.0766277 -0.00791595 0.0565534 0.993212 0.10164
0.379872 -0.00897591 -0.082625 0.0326847 -0.15049 0.988071
0.212646 0.0271455 -0.0647218 0.00454939 -0.560219 0.828332
-0.00117083 0.0400305 0.0905402 0.0580745 0.381294 0.922628
0.137898 0.0816956 0.0409389 -0.997771 0.052612 0.0410606
0.0305693 -0.0990423 -0.0183478 -0.0594369 -0.980328 -0.188215
-0.244694 0.0240913 -0.0683584 -0.0472544 -0.991404 0.122002
-0.156547 0.0631632 0.0465607 -0.0667123 -0.803376 -0.591724
0.138742 0.106141 0.0301193 -0.997771 0.0526112 0.0410617
0.0601797 -0.0740663 0.0662502 -0.00860199 -0.711517 0.702616
-0.253495 0.0421197 0.0747349 -0.0472544 -0.991404 0.122002
-0.05943 -0.0646197 -0.00301855 0.0560908 0.994408 0.0894801
-0.145965 0.0380703 -0.0879739 -0.0237863 0.294523 -0.955348
-0.103462 0.0971205 0.0414814 0.0642365 0.923954 0.377072
-0.479331 0.00420685 -0.0836463 -0.0515703 -0.217258 -0.974751
0.00942448 -0.0355322 0.057721 -0.00782948 0.518743 -0.854895
0.00434105 -0.0579724 -0.0805303 -0.0643491 -0.595253 -0.800958
0.399268 0.0111078 -0.0761815 0.0110905 -0.476003 0.879374
0.280073 0.0841153 -0.0113591 0.0515187 0.998511 -0.0179549
-0.361274 0.0765816 0.051154 -0.0665394 -0.831667 -0.551274
-0.320272 0.0532448 0.0706478 -0.0622912 -0.513316 -0.855936
-0.463092 -0.0381391 0.047449 -0.0471275 -0.119789 -0.99168
0.296434 0.0817817 -0.0289504 0.0440788 0.981517 -0.186232
0.0773143 -0.0517453 0.0832887 0.0110906 -0.476002 0.879374
-0.0226086 -0.0976956 -0.000360414 -0.0525888 -0.998616 0.000886509
-0.383053 0.101072 0.0728135 0.0667123 0.803375 0.591724
0.0616167 0.0591458 0.0245183 -0.0642366 -0.923953 -0.377073
0.25746 0.0776024 -0.048624 0.0334037 0.926341 -0.375201
0.400653 -0.0303331 0.0507907 -0.0329412 0.148391 -0.98838
0.155951 0.0463822 0.108564 0.0589017 0.404923 0.912451
-0.316852 -0.0682464 0.0634031 -0.0245121 -0.861159 0.507744
-0.34429 0.0535901 -0.0780239 -0.0206803 0.34125 -0.939745
0.49545 0.0579607 -0.00971207 -0.0471276 -0.11979 -0.99168
0.415125 -0.071091 0.0685489 0.00782954 -0.518742 0.854895
0.016136 0.0912851 -0.0363274 0.0334036 0.926341 -0.375203
0.298699 -0.0665973 -0.0574489 0.0665705 0.740992 0.668206
0.191511 -0.0830111 -0.0856098 0.997771 -0.0526104 -0.0410627
-0.0488656 -0.0418072 -0.086409 -0.0596265 -0.426376 -0.902578
-0.266452 0.111843 0.025719 0.0578666 0.988521 0.139559
-0.479809 -0.0354921 0.0499764 0.0275455 0.885061 -0.464659
0.109251 0.0573216 -0.0296226 -0.0330859 -0.924544 0.379637
0.389593 0.0611842 -0.071484 0.0214191 0.83516 -0.54959
0.218029 0.0644296 -0.0721139 0.0150839 0.777123 -0.629168
-0.450017 -0.0364591 -0.0600153 -0.0643491 -0.595253 -0.800958
0.440573 -0.11524 0.0138176 -0.0471276 -0.11979 -0.99168
0.140734 -0.1311 0.0236907 -0.0410176 -0.968769 0.24455
-0.301214 0.0445947 0.074023 -0.0598219 -0.432291 -0.899748
-0.0397152 -0.0650699 -0.00888271 0.0578065 0.988917 0.136756
0.202855 0.0880285 -0.0291244 0.997771 -0.0526109 -0.0410617
-0.371536 0.0404857 0.0799635 -0.0545507 -0.288456 -0.955938
-0.418315 0.0889117 -0.011695 0.0471275 0.11979 0.99168
-0.185052 -0.0310012 0.0618606 -0.00125811 0.600331 -0.799751
-0.182057 -0.0245495 -0.0512994 0.0622912 0.513316 0.855936
-0.370422 -0.0486815 0.00264949 0.0471275 0.11979 0.99168
0.131565 0.0603314 -0.0149474 -0.0458375 -0.987562 0.150398
0.477123 -0.116202 -0.0731317 -0.0659443 -0.871825 -0.485358
-0.320514 0.0752983 -0.0213963 -0.0245121 -0.861159 0.507744
0.240076 -0.0414342 -0.0743611 0.0472544 0.991404 -0.122002
-0.3615 -0.0493879 0.0428593 -0.367256 -0.0963078 -0.92512
0.0727565 -0.0341546 0.0910038 0.0237863 -0.294523 0.955348
-0.12839 0.091393 -0.04564 0.0245122 0.86116 -0.507743
0.45679 0.00195477 -0.114084 -0.0268345 0.247075 -0.968625
0.439563 -0.00665602 -0.0839244 0.0268345 -0.247075 0.968625
0.410748 -0.0109411 0.0501927 -0.04846 -0.146081 -0.988085
0.391047 0.045957 0.0571028 0.0657801 0.671393 0.738176
-0.204504 0.109661 0.00761385 0.0520455 0.99849 -0.01756
0.448581 0.0720331 0.00666147 0.0608623 0.969746 0.236408
0.133148 0.0914966 0.00306628 0.0561581 0.994306 0.0905687
0.199205 -0.039762 -0.0766035 0.0472544 0.991404 -0.122002
0.334878 0.00420347 -0.0780448 0.0206804 -0.341249 0.939746
0.213875 -0.0763117 -0.0834 -0.0657802 -0.671393 -0.738176
-0.471654 -0.0207435 0.0696446 0.00532562 0.676072 -0.736816
0.0738732 -0.0635494 0.0293571 0.0275455 0.885061 -0.464659
0.0153188 -0.0382102 -0.0574077 0.0633973 0.554958 0.829459
0.300942 0.0420016 0.0233435 -0.0662044 -0.857932 -0.50948
-0.0867618 -0.0551696 -0.075294 -0.0643491 -0.595253 -0.800958
-0.112483 0.104014 0.0173347 0.0578666 0.988521 0.139559
0.187821 0.0170219 -0.0700249 0.0175239 -0.387147 0.921852
-0.461467 -0.0149852 -0.07177 -0.0580745 -0.381295 -0.922628
-0.479811 0.0618455 -0.0374463 0.00782944 -0.518743 0.854894
-0.130058 0.0520437 -0.0452739 -0.00532565 -0.676073 0.736816
0.168016 -0.0328574 0.0565728 -0.0206804 0.341249 -0.939746
-0.493479 0.118476 0.0337957 -0.997771 0.0526113 0.0410597
0.386589 0.0703526 0.0235885 0.0642365 0.923954 0.377072
-0.343477 -0.0490624 0.0243347 0.045667 0.986885 -0.154831
-0.12161 -0.0404678 -0.0442739 0.0657801 0.671392 0.738177
0.234346 0.0831967 -0.0349231 0.0404267 0.966 -0.255361
-0.0256733 -0.0908566 0.0365361 -0.0334036 -0.926341 0.375202
0.155226 0.0237805 0.0840151 -0.0472544 -0.991404 0.122002
-0.413682 0.0583106 -0.0747476 -0.0175239 0.387146 -0.921852
0.297382 0.0461951 -0.0402043 -0.0304196 -0.906332 0.421469
0.300568 -0.103624 -0.0580397 -0.065708 -0.882107 -0.466444
0.372536 -0.097962 -0.0758507 -0.0667123 -0.803375 -0.591724
-0.0285338 0.0502234 -0.0847277 -0.0110905 0.476002 -0.879374
0.025286 -0.0621701 0.0291039 0.0275456 0.885062 -0.464658
0.20378 0.0892734 -0.00823789 0.997771 -0.0526111 -0.0410617
0.436246 0.0143403 0.0736241 0.0580745 0.381295 0.922628
0.00889251 -0.00192297 0.0984617 0.0401444 -0.0161924 0.999063
0.151006 -0.0420492 0.116197 0.025182 -0.273 0.961685
0.13807 0.0416952 0.0963698 -0.99777 0.0526119 0.0410619
0.357863 0.0601708 -0.00754863 0.560036 -0.127431 -0.818609
-0.104663 0.0526096 0.0533883 -0.066256 -0.707055 -0.704048
-0.116423 -0.0504846 0.042204 0.021419 0.835159 -0.549591
0.00152578 0.0716299 -0.067962 0.00860202 0.711517 -0.702616
0.00601489 0.0369027 -0.0917164 -0.0175239 0.387146 -0.921852
-0.424742 0.0804503 0.0528972 -0.0662044 -0.857932 -0.50948
0.0890316 -0.0602084 -0.0855515 -0.0633973 -0.55496 -0.829458
0.14569 0.091935 -0.0849009 0.0173085 0.79821 -0.602131
-0.167049 -0.000431503 0.101142 0.0472544 0.991404 -0.122002
0.167861 0.100358 0.0585372 0.0663361 0.849261 0.523789
0.0397666 -0.0671946 -0.021232 0.0621394 0.956801 0.284027
-0.0321449 -0.0730088 -0.0635902 -0.0665705 -0.740993 -0.668205
-0.458914 -0.0622334 -0.029327 -0.065708 -0.882107 -0.466445
0.459052 -0.0865088 0.0577046 -0.00203631 -0.638981 0.76922
0.168198 0.00775041 -0.0727318 0.0268345 -0.247075 0.968625
0.100661 0.0453956 -0.0492386 -0.0118575 -0.745228 0.666704
0.0783768 0.0562208 0.0281031 -0.065708 -0.882106 -0.466445
0.465031 0.00508975 0.0420496 -0.0596308 -0.426376 -0.902578
-0.402031 0.0224872 -0.0822794 -0.0413688 0.000410372 -0.999144
-0.00641586 -0.0429631 -0.0886674 -0.0596265 -0.426375 -0.902579
-0.423047 0.0185908 -0.0813543 -0.044912 -0.0619375 -0.997069
-0.345673 0.027779 -0.0841237 -0.0351816 0.108191 -0.993507
-0.396249 0.116963 0.0398584 0.0608623 0.969746 0.236408
-0.47762 0.0857087 0.0506608 -0.065708 -0.882106 -0.466445
0.0145023 -0.0849256 -0.0526616 -0.0662044 -0.857932 -0.50948
-0.0336101 0.0278944 -0.0938819 -0.0268345 0.247075 -0.968625
-0.386806 -0.0730267 0.0480379 -0.0471276 -0.11979 -0.99168
0.117441 -0.0845856 -0.0652518 -0.0667123 -0.803375 -0.591725
0.158669 0.111762 -0.0481056 0.0355633 0.939776 -0.339935
0.3812 0.00313514 -0.111689 -0.0268345 0.247075 -0.968625
0.137943 0.0704893 0.0563789 -0.99777 0.0526126 0.0410605
-0.0826586 -0.0719544 0.0660651 -0.0150839 -0.777123 0.629169
0.177752 0.0532245 0.0192432 -0.0642366 -0.923953 -0.377073
-0.157882 0.0410433 0.0998392 0.056617 0.341526 0.938166
-0.18545 -0.0521067 -0.0695759 -0.065144 -0.634095 -0.770506
0.371699 0.0231808 -0.104289 -0.0143247 0.432101 -0.901712
-0.102373 -0.0129569 0.101276 0.0298173 -0.199026 0.97954
0.447136 -0.0165557 0.0802036 0.0435023 0.0461113 0.997989
0.503773 0.0762916 0.00293879 0.0600476 0.976215 0.208322
0.0799113 -0.034335 -0.078708 0.0472545 0.991404 -0.122002
0.195717 0.0188942 -0.113971 0.997771 -0.0526099 -0.0410616
-0.300176 0.0470706 0.0968852 -0.0472544 -0.991404 0.122002
0.13245 -0.0552153 0.0839776 -0.99777 0.0526118 0.0410626
0.33691 0.076948 -0.0420983 0.0386858 0.958177 -0.283551
0.456726 0.0362502 0.0125721 -0.065708 -0.882107 -0.466445
-0.118204 -0.091962 -0.00704923 -0.0578666 -0.988521 -0.139559
-0.370061 0.0244504 -0.0525095 0.0370554 -0.0749847 0.996496
0.043074 0.0321667 -0.0943279 -0.0206803 0.34125 -0.939745
0.197282 0.0883296 -0.0880859 0.0140691 0.767256 -0.641187
-0.140121 -0.0313912 -0.0500894 0.0633973 0.554959 0.829458
-0.178707 0.0616319 0.050934 -0.0667227 -0.773126 -0.630734
0.107991 -0.070154 -0.0795333 -0.065144 -0.634095 -0.770506
0.126624 0.0915563 -0.0163317 0.0481965 0.993621 -0.10195
-0.393737 0.0627887 -0.0731487 -0.0143247 0.432101 -0.901712
0.0862503 0.0837702 0.0410952 0.065708 0.882107 0.466445
0.385658 -0.0713891 -0.100601 -0.0622912 -0.513315 -0.855937
-0.194777 0.106363 -0.015085 0.040958 0.967765 -0.248501
-0.0102762 0.0619468 0.078026 0.065144 0.634095 0.770506
0.462897 -0.0624208 -0.117477 -0.0572737 -0.359171 -0.931513
-0.0122407 0.0281752 0.0954994 0.0541994 0.278326 0.958956
0.250603 0.0404186 -0.0519112 -0.015084 -0.777124 0.629167
-0.451326 -0.0397226 0.0941593 -0.00203625 -0.63898 0.76922
0.351409 -0.112339 0.0166258 -0.0373215 -0.947556 0.317402
0.253607 0.0508545 0.0118628 -0.063265 -0.941524 -0.330953
0.125144 -0.0387692 0.0545946 -0.0110906 0.476001 -0.879375
0.310754 0.0138788 -0.0735331 0.0143248 -0.4321 0.901712
0.500832 -0.0603823 0.0704262 0.997771 -0.0526073 -0.0410615
0.140898 -0.0752503 -0.0103818 0.0551279 0.996503 0.0627836
0.186466 0.110383 -0.0490098 0.0355633 0.939776 -0.339935
0.464424 -0.0467433 -0.0833276 0.0563807 0.335285 0.940428
0.191382 -0.133678 -0.0238272 0.99777 -0.0526107 -0.0410636
0.0901101 0.0353282 0.0512181 -0.0643491 -0.595253 -0.800958
0.351835 0.012501 -0.0748291 0.0110906 -0.476001 0.879375
0.497155 -0.0921704 0.0218264 0.99777 -0.0526135 -0.0410649
-0.405365 -0.0450183 0.00201549 0.0608622 0.969746 0.236407
0.396436 -0.0252113 -0.0841113 0.0434262 0.0461175 0.997992
-0.13337 0.0540616 -0.0813279 -0.0110905 0.476002 -0.879374
-0.365976 -0.0104383 0.109239 0.0237864 -0.294521 0.955349
-0.20403 -0.0506685 0.0373229 0.0298542 0.90213 -0.430429
-0.037956 -0.00606454 0.100059 0.0366084 -0.0834872 0.995836
0.272378 0.00936842 -0.0747938 0.0206803 -0.34125 0.939745
-0.116602 -0.0259678 -0.0868298 0.0472544 0.991404 -0.122002
0.0906399 0.0883973 -0.0365817 0.0362735 0.943615 -0.329052
0.13239 0.0679422 -0.0752906 -0.99777 0.0526112 0.0410623
-0.165157 0.0252817 -0.0590248 0.0268347 -0.247073 0.968625
0.498248 -0.0359785 0.0844698 0.0369037 -0.077705 0.996293
0.25867 0.0626816 -0.0732987 0.0150839 0.777123 -0.629168
-0.482677 -0.0170043 -0.0767423 -0.0588996 -0.404868 -0.912476
0.368223 0.0393452 -0.0944961 -0.00125804 0.600332 -0.79975
-0.474966 0.00541062 0.123099 0.0312231 -0.175791 0.983932
0.365637 -0.0707747 -0.0594852 0.0665705 0.740993 0.668205
0.260622 0.0499879 -0.0861369 0.00203634 0.638981 -0.76922
-0.178956 0.107772 0.0180205 0.0565534 0.993213 0.101639
-0.496543 0.0126783 0.0948977 -0.99777 0.0526155 0.0410625
0.477545 0.061573 -0.00929753 -0.0471275 -0.11979 -0.99168
-0.314844 0.0688921 0.0564363 -0.0667227 -0.773127 -0.630732
0.317399 -0.0841849 -0.0215477 0.0572587 0.991251 0.118925
0.325893 -0.00340881 -0.111236 -0.0327272 0.150494 -0.988069
-0.496257 -0.0638936 0.0751237 -0.0232117 -0.850423 0.525587
0.20952 0.0548788 -0.0249569 -0.0409226 -0.968621 0.245149
0.493809 -0.113482 -0.0321872 0.997771 -0.0526113 -0.0410597
-0.496527 -0.00253543 0.114799 -0.997771 0.052609 0.0410615
0.0607748 0.0641977 0.00632174 -0.058063 -0.987832 -0.144277
0.321216 0.0665035 -0.0660658 0.0214191 0.83516 -0.54959
-0.154843 -0.046102 -0.0346176 0.0667123 0.803376 0.591724
0.204817 0.083212 0.0247334 0.997771 -0.0526108 -0.0410622
0.123324 -0.0802672 -0.105675 -0.997771 0.0526107 0.041062
-0.33099 0.0835711 -0.00195407 -0.0417922 -0.972092 0.230847
0.255066 -0.0698576 0.0272425 0.021419 0.835159 -0.549591
0.361851 -0.00153032 0.0507701 -0.0531834 -0.254839 -0.96552
-0.166242 -0.0818546 0.0462172 -0.0305116 -0.906805 0.420445
0.257436 -0.10092 0.0355128 -0.0275454 -0.88506 0.464661
0.1115 0.0264421 0.0887075 -0.0472544 -0.991404 0.122002
0.497534 0.0535739 -0.0892514 0.0136917 0.763548 -0.645606
0.49112 -0.104881 0.0101641 -0.0471275 -0.11979 -0.99168
0.117646 0.048518 -0.0449779 -0.0182738 -0.807125 0.590098
-0.229536 0.0392468 -0.0855304 -0.0237863 0.294523 -0.955348
-0.375801 0.0948174 -0.0487858 0.0118575 0.745229 -0.666704
-0.169195 0.106319 -0.00995449 0.044501 0.982897 -0.1787
-0.419765 0.0899292 0.0893616 0.0657801 0.671393 0.738176
0.100489 -0.0360241 -0.0844639 0.0472545 0.991404 -0.122002
0.133154 0.0327126 -0.126169 -0.022065 0.320613 -0.946953
-0.340862 0.0688356 0.0591673 -0.0665705 -0.740992 -0.668206
-0.335786 0.0182446 -0.0653728 0.844158 -0.535523 0.0247239
0.105465 0.0207532 -0.0995564 -0.0268345 0.247075 -0.968625
0.434533 0.0389234 -0.0461865 0.0471275 0.11979 0.99168
0.137358 0.0238983 0.0780518 -0.0472544 -0.991404 0.122002
0.129472 -0.103986 0.0740905 -0.997771 0.0526106 0.041061
-0.161297 0.0741806 -0.0107061 -0.0405005 -0.966351 0.254017
-0.118608 0.0915447 0.0550434 0.0662044 0.857932 0.509479
0.0864048 -0.0724364 0.0681556 -0.00532562 -0.676072 0.736816
-0.492617 -0.0146477 0.0746201 -0.00125811 0.600331 -0.799751
0.280281 0.0478034 -0.0878995 0.00203634 0.638981 -0.76922
0.330484 -0.0509842 -0.106637 -0.056617 -0.341526 -0.938166
0.0635019 -0.0219409 0.0626773 -0.0237864 0.294521 -0.955349
-0.49777 0.102375 -0.0498439 -0.997771 0.05261 0.0410612
0.0406631 0.0658136 -0.00154531 -0.0521694 -0.998579 0.0109183
-0.396018 0.0945748 -0.0494166 0.0118575 0.745229 -0.666704
-0.224448 -0.0269708 -0.0817358 -0.0580745 -0.381295 -0.922628
-0.115129 -0.02256 -0.0585667 0.0472544 0.991404 -0.122002
0.181079 -0.127061 0.0409669 -0.0327 -0.921746 0.386413
-0.365299 0.0448646 -0.0478174 0.0175238 -0.387147 0.921851
0.234687 -0.102887 -0.0496676 -0.0650515 -0.904131 -0.422274
-0.20208 -0.0389792 0.054607 0.0118575 0.745228 -0.666704
0.206394 0.0980106 0.0441006 0.99777 -0.0526102 -0.0410634
-0.503425 -0.0754845 -0.00627235 -0.061416 -0.964604 -0.256451
-0.0114209 -0.0917925 -0.0349658 -0.0642365 -0.923954 -0.377072
-0.128034 0.0641711 0.0417243 -0.0665394 -0.831667 -0.551274
-0.187714 -0.0778072 0.0531473 -0.0275455 -0.885061 0.46466
0.0349163 -0.0381884 0.0558758 -0.00782945 0.518743 -0.854894
-0.161984 0.0495672 0.0608893 -0.0643491 -0.595253 -0.800957
-0.445327 -0.0319954 0.0574297 0.0182738 0.807125 -0.590098
-0.225572 -0.0200405 0.0691556 -0.0110905 0.476003 -0.879374
0.347935 0.0729372 0.0238402 0.0642365 0.923954 0.377072
-0.425383 0.0447726 0.081697 -0.0562813 -0.335291 -0.940432
0.419816 0.0557974 -0.00585638 -0.0471275 -0.11979 -0.99168
-0.296781 -0.0385341 -0.0288901 0.0667123 0.803375 0.591724
-0.265942 0.0321932 -0.0544697 0.0268345 -0.247075 0.968625
0.498707 -0.0717529 0.0333787 0.997771 -0.0526096 -0.0410614
-0.082488 0.0374408 0.0627865 -0.0610332 -0.470418 -0.880331
-0.440695 0.111754 0.0282784 -0.0471275 -0.11979 -0.99168
-0.130973 0.0396555 0.0987205 0.056617 0.341526 0.938166
-0.0559253 -0.0791337 -0.0529612 -0.0665394 -0.831666 -0.551275
-0.253759 0.0730628 -0.0219002 -0.0275456 -0.885062 0.464658
-0.174455 -0.0411804 -0.0384961 0.0665705 0.740993 0.668205
-0.181998 0.0426533 -0.0517751 0.0110905 -0.476003 0.879374
-0.115477 0.0740465 0.00597841 -0.0531842 -0.9985 -0.0129874
-0.348656 0.0939128 -0.0492834 0.015084 0.777123 -0.629168
-0.258154 -0.0756961 0.0528297 -0.0305116 -0.906805 0.420445
-0.1959 -0.00130243 0.0828904 0.0472544 0.991404 -0.122002
-0.397789 0.0749372 0.099296 0.0633974 0.554961 0.829457
0.236497 0.0256073 0.0815409 0.0580746 0.381296 0.922627
0.299322 0.0553611 0.0564664 0.066256 0.707054 0.704049
0.16092 0.0304184 0.114509 0.055479 0.311878 0.948501
-0.146869 -0.0220708 -0.066885 0.0472544 0.991404 -0.122002
-0.229668 0.0423505 0.0858386 -0.0472544 -0.991404 0.122002
0.20144 -0.0365179 0.0960856 0.997771 -0.0526096 -0.0410618
-0.431155 -0.0683625 -0.0208727 -0.0642365 -0.923954 -0.377072
-0.296976 0.0611173 0.0627934 -0.0657801 -0.671392 -0.738177
-0.0380426 -0.0615604 0.0254707 0.0345598 0.933663 -0.356482
-0.371819 -0.0408712 -0.0630187 -0.0643491 -0.595253 -0.800958
0.0944008 -0.0403648 -0.0619341 0.0622912 0.513316 0.855936
-0.150858 -0.00979015 0.103395 0.0298173 -0.199026 0.97954
0.125712 -0.0996213 -0.0921201 -0.0664685 -0.728119 -0.68222
0.473862 -0.106057 -0.0305427 0.0471275 0.11979 0.99168
-0.0474271 0.0550691 -0.0409607 -0.015084 -0.777123 0.629168
0.41344 0.0552878 -0.0787206 0.0150839 0.777123 -0.629169
0.0380844 0.0741106 0.061662 0.0667227 0.773125 0.630734
-0.456726 0.0970012 0.0856886 0.0665705 0.740994 0.668204
-0.368718 -0.0171862 0.0723148 -0.00454939 0.560219 -0.828332
-0.0135191 -0.0663273 -0.0107691 0.0586682 0.984731 0.163897
0.175177 -0.0597302 0.0381215 0.0118576 0.745229 -0.666703
-0.278169 0.090088 -0.0523177 0.015084 0.777123 -0.629168
0.132642 0.0869887 -0.035991 0.0362735 0.943615 -0.329052
0.156895 0.118935 -0.00807768 0.0527555 0.998604 0.00244437
0.267436 0.0292561 -0.099721 -0.0143247 0.4321 -0.901712
0.441523 -0.0836005 -0.0966073 -0.064349 -0.595251 -0.800959
0.0296001 -0.0108358 0.0838618 0.365571 0.921831 -0.128788
0.163154 -0.0168024 0.0960063 0.0472544 0.991404 -0.122002
-0.41639 -0.0381184 -0.0147212 0.065708 0.882107 0.466445
0.477226 -0.12743 -0.045737 -0.0614158 -0.964604 -0.256452
0.450435 -0.0574026 0.0743036 0.0206803 -0.34125 0.939745
0.329684 -0.0634016 -0.0636304 0.0657801 0.671392 0.738177
-0.191958 -0.0204615 0.101816 0.0237863 -0.294523 0.955348
-0.440873 0.0173523 0.116776 0.0381313 -0.0524362 0.997896
-0.0868526 0.0593976 0.0438156 -0.0667123 -0.803376 -0.591724
-0.365852 -0.0318775 0.0596324 0.0118575 0.745228 -0.666704
0.356125 0.0664031 -0.0646335 0.0245121 0.861159 -0.507744
0.140817 -0.0712399 -0.0292668 0.063265 0.941524 0.330952
0.114073 -0.0835103 0.0565082 -0.015084 -0.777123 0.629168
-0.41328 -0.0327418 0.0574011 0.0182738 0.807125 -0.590098
-0.265741 0.108913 -0.0166488 0.0393021 0.960011 -0.27719
-0.232294 0.0627276 0.0946345 0.0622912 0.513316 0.855936
-0.485214 0.0327483 -0.0475474 0.0355581 -0.101593 0.99419
-0.109739 0.0391848 -0.0545639 0.0110905 -0.476003 0.879374
0.485989 0.0389904 0.00119263 -0.063265 -0.941524 -0.330953
-0.494369 -0.0465956 0.0966207 -0.00716418 -0.696149 0.717861
0.0351243 0.0555161 -0.0818335 -0.00125808 0.600331 -0.79975
-0.395255 -0.03664 0.0523753 0.021419 0.835159 -0.549591
-0.0591631 -0.0199948 0.066243 -0.0206803 0.34125 -0.939745
0.454408 -0.0119469 0.0481761 -0.0504923 -0.19281 -0.979936
-0.309607 -0.0571388 0.0787121 -0.0118575 -0.745229 0.666704
-0.149133 0.0999817 -0.0295699 0.0334036 0.926341 -0.375203
0.268118 -0.0693061 -0.0507993 0.0667123 0.803376 0.591724
0.318756 -0.0509464 -0.0719158 0.0622912 0.513316 0.855936
-0.095114 -0.0392078 -0.0845817 -0.0596265 -0.426376 -0.902578
-0.137775 -0.0529272 0.037043 0.0275455 0.885061 -0.464659
-0.149623 0.105465 -0.00973632 0.0452124 0.985428 -0.163971
-0.0559566 0.100536 0.0185287 0.0578666 0.988521 0.139559
-0.298542 -0.0720912 0.0574651 -0.0275455 -0.885061 0.464659
-0.0513064 0.101345 -0.00448572 0.0502225 0.997096 -0.0572543
-0.375434 -0.0314604 0.0998367 0.00782946 -0.518743 0.854894
-0.318975 0.00731629 0.0946524 0.382521 0.914944 -0.128663
0.223146 0.0408072 -0.0927704 -0.00782953 0.518742 -0.854895
-0.275952 -0.0164945 0.10513 0.0237863 -0.294523 0.955348
0.178881 -0.0661746 0.10631 0.0124163 -0.458191 0.888767
0.37186 0.0150872 -0.0736188 0.00782948 -0.518743 0.854895
0.145424 0.0544267 -0.0334679 -0.0310638 -0.910734 0.411823
0.299502 -0.0454633 -0.0734919 0.0598218 0.432288 0.899749
0.109723 0.0716373 -0.0658078 0.0150839 0.777123 -0.629168
0.203309 -0.0689068 0.0714067 0.00125808 -0.600331 0.79975
-0.498031 0.0738611 -0.0278699 -0.00860199 -0.711517 0.702616
0.181575 -0.136782 -0.00586512 -0.0527555 -0.998604 -0.00244437
-0.302584 -0.0578283 -0.0534816 -0.0665705 -0.740993 -0.668205
0.412417 0.0399425 0.0116266 -0.0650515 -0.904132 -0.422271
0.170123 -0.0488054 0.113654 0.0220651 -0.320613 0.946953
-0.352374 -0.072931 -0.0230994 -0.0642365 -0.923954 -0.377072
0.294045 0.0215026 0.0449407 -0.0633973 -0.554959 -0.829458
-0.384218 0.00459443 -0.0818135 -0.0485846 -0.146977 -0.987946
0.190793 0.00159775 -0.0824688 -0.0472544 -0.991404 0.122002
-0.296761 -0.073655 -0.0303871 -0.0650515 -0.904132 -0.422273
-0.266631 -0.0301033 0.0624956 0.00203634 0.638981 -0.76922
-0.379947 0.0849843 0.0903109 0.0657801 0.671393 0.738176
0.403747 0.0621603 0.0365853 0.0665394 0.831667 0.551273
0.449135 -0.0504208 0.0438904 -0.0175238 0.387147 -0.921851
-0.296943 0.0723221 0.049815 -0.0665394 -0.831667 -0.551274
-0.06892 0.0706602 0.0756229 0.0657801 0.671393 0.738176
0.349842 0.0735797 -0.0223213 0.977708 -0.0709352 -0.197622
-0.200408 -0.0882748 0.0113393 -0.0511426 -0.998041 0.0360259
-0.229811 0.0218815 -0.0805508 -0.0472544 -0.991404 0.122002
-0.192212 -0.0556406 0.0248715 0.0410305 0.968865 -0.244165
-0.269153 -0.0420386 0.0490862 0.021419 0.835159 -0.549591
0.342237 -0.100912 -0.0115676 0.945302 -0.00485502 0.326159
-0.242621 0.00237631 0.0946882 0.0472544 0.991404 -0.122002
0.170723 0.0891162 -0.0877275 0.0140691 0.767256 -0.641187
0.196564 -0.000809191 -0.0997925 -0.0472544 -0.991404 0.122002
0.166308 -0.0697724 0.0229695 0.0298542 0.90213 -0.430429
0.349555 0.0532233 -0.0823409 0.00860203 0.711517 -0.702616
-0.298983 0.0248748 -0.0830188 -0.0472544 -0.991404 0.122002
-0.208481 -0.0555238 -0.0646702 -0.0657801 -0.671393 -0.738176
0.0618747 0.0430363 -0.0521515 -0.00532562 -0.676072 0.736816
-0.0351377 0.0643814 -0.0250389 -0.0327522 -0.922044 0.385696
-0.109026 0.0573094 -0.0797148 -0.00782956 0.518742 -0.854895
0.294681 0.0520387 -0.00472229 -0.0568231 -0.992386 -0.109274
0.253676 -0.0230611 0.0802085 0.0472544 0.991404 -0.122002
-0.20535 0.0593652 0.0946655 0.0610332 0.470418 0.88033
-0.193717 -0.0196307 -0.0652018 0.0472544 0.991404 -0.122002
-0.201247 -0.085972 0.0293253 -0.0425599 -0.97553 0.215709
-0.0489127 0.0977413 -0.024627 0.0389735 0.958595 -0.282092
-0.351616 -0.0120888 -0.0795796 -0.0552785 -0.306478 -0.950271
0.240583 -0.0762537 -0.0340743 0.063265 0.941524 0.330952
-0.324621 0.0772108 0.0451785 -0.065708 -0.882106 -0.466445
-0.153346 0.075655 0.0786033 0.0657801 0.671393 0.738176
-0.0475169 -0.00828845 0.0835935 0.0472544 0.991404 -0.122002
-0.00316258 -0.0985651 -0.00548875 -0.0533658 -0.998325 -0.0223541
0.125665 -0.129525 0.0143067 -0.997771 0.0526108 0.041061
-0.0131957 -0.0672163 -0.0714377 -0.0657801 -0.671393 -0.738176
0.238108 0.0214098 -0.0685573 0.00782944 -0.518743 0.854894
0.196899 0.0368061 -0.108208 0.997771 -0.0526107 -0.041062
-0.0816263 -0.085934 -0.0372383 -0.0650515 -0.904132 -0.422273
0.135327 -0.0161393 0.103805 -0.997771 0.052611 0.0410622
-0.133395 -0.0248433 0.0989748 0.0206803 -0.34125 0.939745
-0.342843 0.0860221 0.0159804 -0.0538679 -0.998099 -0.029934
0.428533 0.0729815 0.00793213 0.0608623 0.969746 0.236408
-0.0235385 -0.0665656 0.00548368 0.0499215 0.996704 -0.0639425
-0.133423 -0.0227978 0.066442 -0.0143247 0.432101 -0.901712
0.222061 -0.0619154 -0.0943768 -0.0622912 -0.513317 -0.855936
0.0175734 0.04624 0.0482818 -0.066256 -0.707055 -0.704048
0.394354 0.0679148 -0.0477791 0.0471276 0.119789 0.99168
-0.411406 0.0690963 0.0656979 -0.066256 -0.707055 -0.704048
0.0415695 -0.100177 0.0113592 -0.0462729 -0.988784 0.142005
0.35105 -0.0331156 0.0832509 0.0327273 -0.150493 0.988069
-0.317438 -0.0507827 0.00515581 0.056474 0.993473 0.0991019
-0.0778089 -0.0941774 0.0138642 -0.0481966 -0.993622 0.101948
0.433819 -0.0822539 -0.0510241 0.065708 0.882106 0.466445
-0.281222 0.094047 0.0708712 0.0667123 0.803375 0.591724
0.35592 -0.0374335 0.0506205 -0.0237864 0.294521 -0.955349
0.127944 0.0166912 -0.117644 -0.99777 0.0526115 0.041062
0.129993 0.0532284 -0.114675 -0.997771 0.0526111 0.0410617
0.00964677 -0.0308783 -0.0945301 -0.0552365 -0.304558 -0.950891
-0.12804 -0.0808618 -0.0407085 -0.065708 -0.882107 -0.466445
0.159634 0.00110072 -0.0985763 -0.0472544 -0.991404 0.122002
0.0197877 0.0977179 0.00400608 0.0543075 0.997668 0.0413544
0.338327 0.0518409 0.056331 0.066256 0.707054 0.704049
-0.305654 0.113159 -0.0062453 0.0435934 0.979102 -0.198644
0.408493 0.0515239 0.0499216 0.0665705 0.740993 0.668205
0.0750325 0.00943018 -0.100971 -0.0327273 0.150494 -0.988069
-0.49596 -0.0682492 -0.0268436 -0.0653551 -0.894867 -0.441523
-0.115766 -0.0585359 -0.0701766 -0.065144 -0.634095 -0.770506
0.227693 0.0554854 -0.0172178 -0.048155 -0.993487 0.103274
-0.204524 0.0698643 -0.070686 -0.00125808 0.600331 -0.79975
-0.370137 -0.0759628 -0.0107347 -0.0621393 -0.956801 -0.284026
-0.496563 -0.027571 0.0618833 0.015084 0.777124 -0.629167
-0.094748 0.0187026 -0.0939355 -0.0327274 0.150493 -0.988069
0.433965 -0.116517 -0.0497997 -0.063265 -0.941524 -0.330952
0.370835 -0.05811 -0.106337 -0.0580745 -0.381294 -0.922628
0.206525 0.0603347 0.0955535 0.997771 -0.0526098 -0.0410627
0.0486269 0.0279205 -0.0626401 0.0143248 -0.4321 0.901712
-0.473892 0.0468946 0.0838436 -0.0562813 -0.335291 -0.940432
-0.164665 0.10461 0.0309093 0.0608623 0.969746 0.236408
0.471741 -0.0304705 -0.0871127 0.045906 0.095285 0.994391
0.0647042 -0.0953008 0.0336102 -0.0334036 -0.926341 0.375202
-0.137617 0.0649783 -0.03007 -0.0245121 -0.861159 0.507744
-0.170265 0.0548644 -0.0429764 -0.00532565 -0.676073 0.736816
0.304135 -0.0287788 0.0854654 0.0327273 -0.150495 0.988069
0.250063 0.0197478 -0.103393 -0.0206804 0.34125 -0.939745
0.383384 -0.0119719 0.0516678 -0.0470149 -0.11743 -0.991968
0.0672557 0.0457837 0.0440645 -0.066256 -0.707055 -0.704048
0.015656 -0.0260507 -0.0752507 0.677504 0.725686 -0.119866
0.153445 0.0955519 0.0676486 0.0666186 0.821975 0.565613
-0.387442 -0.02856 -0.0700236 -0.0622912 -0.513316 -0.855936
0.41388 -0.0200529 0.0817866 0.0409513 -0.00317018 0.999156
-0.0318008 0.0885683 0.0486512 0.065708 0.882107 0.466445
0.0958529 0.0163263 -0.0683758 0.0237864 -0.294521 0.955349
0.139152 0.0765437 0.0779981 -0.997771 0.0526103 0.0410624
0.278678 0.0472212 0.0166447 -0.0650515 -0.904132 -0.422271
0.341324 0.00839283 0.0486077 -0.0582281 -0.382902 -0.921952
-0.357579 0.0973025 0.0257611 -0.224104 -0.108423 -0.968515
0.00166904 0.0603638 -0.0309465 -0.0275455 -0.885061 0.464659
-0.0517239 0.0515439 -0.0837204 -0.0110905 0.476002 -0.879374
0.102688 -0.0681852 -0.030359 0.0642365 0.923954 0.377071
-0.168598 -0.00296644 0.0799432 0.0472544 0.991404 -0.122002
0.486754 0.0337663 0.0672233 0.0639246 0.576637 0.814496
0.171671 0.105736 -0.0615992 0.0297548 0.901416 -0.431931
-0.500133 -0.0442553 0.0806267 -0.997771 0.0526094 0.0410593
0.170277 -0.105978 0.0750328 -0.0140691 -0.767256 0.641187
0.284092 -0.00397147 -0.109882 -0.0351817 0.108189 -0.993508
0.289628 0.00870798 -0.0754133 0.0206803 -0.34125 0.939745
0.493136 -0.082956 -0.0876411 0.997771 -0.052611 -0.0410621
0.180779 0.112633 0.0283325 0.0624708 0.952746 0.297276
-0.0513325 0.0674543 0.0228877 -0.0621393 -0.956801 -0.284025
0.197821 0.0567517 -0.111359 0.997771 -0.0526113 -0.0410618
-0.0961157 -0.0291117 -0.0548179 0.0622912 0.513316 0.855936
-0.462999 0.0535133 -0.0422483 0.0143247 -0.432101 0.901712
-0.204616 0.0654125 -0.0318494 -0.0182738 -0.807125 0.590098
0.0894734 -0.0695585 0.0165308 0.038358 0.955612 -0.292121
0.0492703 -0.0989782 -0.0243025 -0.0608623 -0.969746 -0.236408
-0.297004 0.069095 -0.07083 -0.00454934 0.560219 -0.828332
-0.487413 -0.0792468 0.0119014 0.0471275 0.11979 0.99168
0.446935 0.0598803 -0.0712307 0.0214191 0.83516 -0.54959
-0.0698165 -0.0640774 -0.0692471 -0.0657801 -0.671393 -0.738176
-0.380609 0.0202173 0.114488 0.0408166 -0.00316308 0.999162
-0.192437 -0.0396636 -0.0383866 0.0665705 0.740992 0.668206
0.262246 0.0534434 -0.0203377 -0.046337 -0.98897 0.140685
0.086737 0.0252271 0.0692434 -0.0472544 -0.991404 0.122002
-0.261901 0.0738475 0.0894247 0.064349 0.595251 0.800959
0.196728 -0.102425 0.0660368 0.997771 -0.0526106 -0.041061
0.323155 0.00121428 0.0724086 -0.945845 -0.313865 0.0828646
-0.00712287 0.0880817 0.0460952 0.065708 0.882107 0.466445
-0.249956 -0.0438214 0.0471252 0.021419 0.835159 -0.549591
0.487724 0.0762566 -0.0115549 -0.0471275 -0.11979 -0.99168
-0.207158 0.0456435 -0.0497746 0.00782944 -0.518743 0.854894
-0.470016 -0.0163125 -0.0348284 0.0643491 0.595253 0.800958
0.125129 -0.0743899 -0.000414083 0.0495947 0.996219 -0.0713328
-0.175189 -0.0535032 0.0331877 0.033123 0.924639 -0.379402
-0.221252 3.78811e-05 0.0839626 0.0472544 0.991404 -0.122002
-0.320125 -0.0814196 0.0237883 -0.0477884 -0.992884 0.10908
-0.162475 0.0684512 -0.071813 -0.00125805 0.600332 -0.79975
-0.185013 0.108327 -0.000183276 0.0502225 0.997096 -0.0572543
-0.28054 0.0379825 -0.0844678 -0.0268345 0.247075 -0.968625
0.344321 -0.0996553 0.0416258 -0.021419 -0.835159 0.549591
0.445942 -0.0177538 -0.116988 -0.038301 0.0524451 -0.997889
0.440549 -0.0685837 0.0323417 0.00532565 0.676073 -0.736816
-0.329984 0.0159946 0.0830272 0.898573 0.428536 -0.0944631
0.358373 -0.0780079 -0.0940834 -0.064349 -0.595251 -0.800959
0.449318 -0.0525617 -0.113062 -0.0543968 -0.288466 -0.955944
0.0897893 0.035008 -0.0941046 -0.0175239 0.387146 -0.921852
-0.382476 0.106844 -0.0316408 0.0275454 0.88506 -0.464661
0.0233913 0.0664655 -0.0728406 0.00532561 0.676072 -0.736816
0.376383 -0.0839977 -0.0380033 0.063265 0.941524 0.330952
-0.415945 0.0876223 0.0346656 -0.0608622 -0.969746 -0.236406
-0.2816 -0.0474274 -0.0157531 0.0650515 0.904132 0.422271
-0.120018 -0.072917 0.0638605 -0.0182739 -0.807126 0.590097
0.309837 -0.108031 0.0240051 -0.0334037 -0.926341 0.375201
0.417495 -0.112828 0.0217457 -0.0334037 -0.926341 0.375201
-0.341164 0.0931784 0.0784087 0.0667227 0.773125 0.630734
-0.34431 0.111164 0.04789 0.063265 0.941524 0.330952
0.150094 -0.122855 -0.060899 -0.065276 -0.897414 -0.436334
-0.0528108 0.0516838 0.0881947 0.0610332 0.470418 0.88033
0.0355571 0.0419548 -0.0532624 -0.00203638 -0.638982 0.769219
0.276425 -0.0630357 0.074666 0.0110906 -0.476001 0.879375
0.426545 0.0575341 0.040649 0.0667123 0.803376 0.591724
0.0029606 0.032244 0.0596394 -0.0610332 -0.470418 -0.880331
0.0347849 0.0853103 0.0454326 0.065708 0.882107 0.466445
0.445158 -0.0751425 0.0658155 0.00782945 -0.518743 0.854894
-0.36367 0.0832176 -0.0601861 0.00203632 0.638981 -0.76922
0.0313211 -0.0624729 0.0765069 0.0012581 -0.600331 0.799751
-0.394012 -0.000236146 -0.0484233 0.0545495 0.288457 0.955938
0.239897 0.0174782 0.065597 -0.0472544 -0.991404 0.122002
0.126927 -0.0630529 -0.0432777 0.0665394 0.831667 0.551274
0.287841 -0.0486244 0.0810694 0.0206803 -0.34125 0.939745
-0.245974 0.0809125 0.0085613 -0.0516795 -0.998388 0.0234527
-0.465402 0.0363423 -0.0477176 0.0298221 -0.199027 0.97954
