ply
format ascii 1.0
comment Created by Open3D
element vertex 826
property double x
property double y
property double z
property double nx
property double ny
property double nz
end_header
0.155007 0.308135 -0.161507 -0.573135 0.819152 0.0225118
0.255444 0.372057 -0.248289 0.917471 -0.175065 -0.357209
0.0308429 -0.481597 0.0659594 -0.893417 -0.229447 0.386213
-0.129534 -0.00762537 -0.0863325 -0.950655 0.122318 -0.285118
0.261314 0.164372 -0.0203966 0.923572 -0.354861 -0.145215
-0.0529831 -0.354205 -0.358331 -0.917343 -0.386122 0.096914
0.0870725 -0.294347 -0.0574298 0.882162 -0.271104 -0.385087
-0.00291064 0.174506 0.0376803 -0.490477 0.80093 0.343429
0.0774994 -0.0658778 -0.317604 0.900488 -0.319031 -0.295536
0.255976 0.0954258 0.0415469 0.892623 -0.265061 -0.364646
0.361467 0.099523 0.36677 -0.514867 0.562173 0.647204
0.0144942 -0.020403 0.116545 0.130951 0.22852 -0.964692
0.0939978 -0.25523 -0.0680118 0.910754 -0.341943 -0.23152
0.217354 -0.0734888 0.345571 -0.49838 -0.0432591 0.865879
0.29213 0.364568 0.0123948 -0.493121 0.806703 0.325671
0.312836 0.000702583 0.311986 0.906576 -0.243497 -0.344715
-0.0878162 -0.281714 -0.208702 -0.97709 -0.209187 0.0391799
0.0181354 0.196396 -0.181875 -0.688891 0.709389 -0.148985
0.161121 -0.0106995 0.290706 -0.410587 0.205057 0.888465
0.368408 0.34814 0.121307 0.87068 -0.4063 -0.277195
0.0939005 -0.122738 -0.136346 0.533721 0.527491 0.66098
-0.148181 -0.0153823 -0.022766 -0.963499 -0.0255559 -0.266489
-0.00500248 -0.347811 0.0926071 -0.863247 -0.253414 0.436562
0.134511 0.159684 -0.375967 0.879589 -0.309349 -0.361422
-0.0382123 0.0590627 -0.292999 -0.764402 0.448315 -0.463362
0.152842 0.31152 -0.197485 -0.669898 0.740262 0.056995
0.126656 0.253178 -0.394894 -0.751108 0.654233 -0.0884064
0.00789488 -0.285992 -0.292122 0.885501 -0.390155 -0.252325
0.173787 -0.0557893 0.311755 -0.592701 0.281985 0.754447
0.310955 0.275134 0.0135376 0.905083 -0.267474 -0.330579
0.227024 -0.0215863 0.0789889 0.904357 -0.274419 -0.326853
-0.00931945 -0.0318435 -0.477623 -0.926393 0.236897 -0.292703
0.265153 -0.231693 0.399802 0.905946 -0.228457 -0.356468
0.143608 -0.0889099 0.0674274 -0.221177 0.409466 -0.885109
0.240123 0.0812157 0.0146521 0.877139 -0.251942 -0.408843
0.346926 0.236424 0.168925 0.90838 -0.269087 -0.320059
0.14553 -0.00848684 0.0748404 -0.435157 -0.0839583 -0.896431
0.323502 0.347057 0.087106 -0.472009 0.766814 0.434977
-0.0535492 -0.0698888 0.0611842 0.5881 0.525698 -0.614638
0.00568473 0.115302 -0.333768 -0.814247 0.4834 -0.321445
-0.0600532 0.0527934 0.0554236 0.662172 -0.486932 -0.569584
-0.13369 -0.0792707 -0.0522463 -0.978676 -0.205381 0.00332328
0.0288385 0.213926 -0.134722 -0.655961 0.753638 -0.0417619
0.321119 0.149503 0.305355 -0.453669 0.394678 0.799008
-0.0113669 -0.131372 -0.503125 0.890252 -0.268855 -0.367654
0.365161 0.259215 0.189474 0.879204 -0.371946 -0.297751
0.185191 0.00469468 0.299273 -0.439151 0.249612 0.863041
0.17283 -0.349646 0.251084 0.892581 -0.335579 -0.301142
0.0280947 0.112699 0.0220154 0.1268 -0.919585 -0.371867
0.0538436 0.227467 -0.0544041 -0.455888 0.889965 0.0113188
0.140558 -0.199558 0.00390267 0.893288 -0.340748 -0.293135
0.231515 0.0261748 0.31861 -0.49426 0.363199 0.789806
0.287898 0.12485 0.104544 0.887254 -0.345038 -0.306151
0.0249057 -0.35119 0.135817 -0.826937 -0.204383 0.523834
0.256768 -0.10611 0.37633 -0.680338 0.301427 0.668044
-0.0826884 -0.302789 -0.18101 -0.960883 -0.273225 -0.045301
-0.0406826 0.0947639 -0.0179185 0.464486 -0.866251 0.184015
-0.0236115 -0.37967 -0.296269 0.893315 -0.343744 -0.289531
0.0792682 -0.0638382 -0.294246 0.906331 -0.333994 -0.258867
0.0688652 0.0717868 -0.467328 0.89709 -0.374417 -0.234609
0.293507 -0.118594 0.375945 0.911507 -0.240491 -0.333646
0.0527267 -0.18461 -0.2646 0.896726 -0.311223 -0.314677
0.184647 0.112235 -0.181534 0.896669 -0.310994 -0.315068
0.312157 0.32328 0.116828 -0.412954 0.833578 0.3669
-0.0406856 -0.459666 -0.158841 -0.923106 -0.33165 0.194638
0.242747 -0.251339 0.384833 -0.602461 -0.00433308 0.798137
0.300417 0.197766 0.0688322 0.892087 -0.330693 -0.307933
0.304446 -0.103983 0.371744 0.90982 -0.359189 -0.207873
0.315759 0.0288804 0.281816 0.900543 -0.327377 -0.286089
0.102559 0.194862 -0.456297 -0.751196 0.551193 -0.363168
-0.0324256 -0.408772 -0.283589 0.87117 -0.427375 -0.241689
0.213787 -0.167614 0.188736 0.887832 -0.351738 -0.296707
-0.122768 -0.0364668 0.0791777 -0.889618 -0.139625 0.434839
0.0677216 0.0262643 -0.433822 0.828376 -0.266011 -0.492982
0.177816 0.260685 -0.354653 0.896826 -0.279355 -0.343023
0.251201 -0.132225 0.375484 -0.573194 0.209284 0.792243
0.0407628 0.0199537 0.112274 -0.136164 -0.20939 -0.968305
0.128395 0.288274 -0.250809 -0.697696 0.713532 -0.0639745
-0.0412587 -0.113358 -0.0142185 0.538159 0.822756 0.182914
-0.0519868 -0.0328527 -0.345003 -0.951643 0.128087 -0.279228
0.32114 -0.0503556 0.377893 0.901523 -0.322305 -0.288749
0.0863714 -0.177859 -0.176631 0.919646 -0.361358 -0.153857
0.0467213 -0.425251 0.129438 -0.852768 -0.256599 0.45491
-0.0212456 0.167627 0.0193239 -0.554051 0.79314 0.252897
0.255195 0.101526 0.0246765 0.89262 -0.250051 -0.375105
0.292096 0.083715 0.145228 0.895671 -0.338102 -0.288895
0.0840434 -0.241854 0.246363 -0.69734 -0.116006 0.70729
0.251224 -0.0034487 0.128714 0.906118 -0.322232 -0.274073
-0.0441728 -0.010487 0.0898263 0.565628 -0.0270018 -0.824219
0.207354 0.226153 -0.233711 0.886061 -0.212457 -0.412016
0.170083 -0.0179425 0.297722 -0.565605 0.282354 0.774834
0.139954 0.000331225 0.079332 -0.354633 -0.327634 -0.875723
0.0720837 -0.239176 -0.161719 0.915693 -0.240441 -0.322016
0.228475 -0.00582935 0.061204 0.908485 -0.212693 -0.359745
0.277664 0.273963 -0.0810487 0.909389 -0.174032 -0.377789
0.24613 -0.242134 0.384246 -0.581646 -0.067734 0.810617
0.067333 0.0473862 0.0971628 -0.32822 -0.418087 -0.847039
0.0359089 -0.47103 0.0867177 -0.857391 -0.295749 0.421204
0.371781 0.102882 0.366312 -0.478149 0.419662 0.77153
0.18398 0.299946 -0.383246 0.889806 -0.227859 -0.39538
-0.144559 -0.0397704 0.0105656 -0.982047 -0.171741 0.0780259
0.0974118 0.256024 -0.293589 -0.718201 0.687198 -0.109301
0.047425 0.0303154 0.203224 -0.493686 0.273376 0.825554
0.13543 0.0848917 -0.296789 0.906651 -0.271139 -0.323216
0.116501 -0.174522 -0.0833152 0.458816 0.878274 0.134617
0.288064 0.160123 0.275552 -0.491126 0.603556 0.628104
0.202763 0.239298 -0.25216 0.843568 -0.285703 -0.454715
0.0743813 -0.494194 0.136018 -0.876816 -0.164381 0.451854
-0.111552 0.0971603 0.0562786 -0.520354 0.747578 0.412746
-0.0293777 -0.0536447 0.168082 -0.606019 -0.0290667 0.794919
0.10398 -0.331144 0.0234704 0.874199 -0.429447 -0.226609
-0.116796 0.0870477 -0.0355877 -0.764761 0.605307 -0.22078
0.104309 -0.25421 -0.0494003 0.879395 -0.211211 -0.426678
-0.0552349 -0.266923 0.0496576 -0.878833 -0.308645 0.363857
0.0848108 0.249814 -0.0527716 -0.550498 0.820124 0.156043
0.103074 -0.391188 0.100003 0.896299 -0.343937 -0.27992
0.326262 -0.0280148 0.368728 0.912472 -0.213603 -0.348954
0.369671 0.315114 0.141257 0.897273 -0.314571 -0.309752
0.353564 0.104827 0.307812 0.904409 -0.285709 -0.316881
0.0749289 -0.483209 0.0890641 0.887732 -0.290278 -0.35731
-0.0279737 -0.172095 -0.488407 -0.957128 0.0829325 -0.277539
-0.0208791 0.0689199 -0.340205 -0.825898 0.418567 -0.377749
0.0281488 0.136129 -0.366083 -0.752589 0.522816 -0.400341
0.320221 0.398317 -0.0777884 0.916227 -0.106097 -0.386357
-0.0435131 -0.363891 -0.0150319 -0.882234 -0.392362 0.260221
0.218072 -0.12244 0.141096 0.897111 -0.314481 -0.310313
0.316602 0.150435 0.178395 0.898968 -0.344605 -0.270377
-0.00583052 -0.262275 0.137495 -0.794899 -0.251752 0.552048
0.16713 0.304008 -0.0415201 -0.53462 0.813466 0.229029
0.311605 0.341855 -0.044346 0.898634 -0.314924 -0.305418
0.283683 0.385352 -0.0696344 -0.474822 0.857731 0.197081
0.213958 0.170926 -0.15618 0.872063 -0.195507 -0.448647
0.259321 0.12851 0.278483 -0.459092 0.480409 0.74729
0.336414 0.189227 0.164676 0.89662 -0.328605 -0.296801
0.31544 0.101097 0.330661 -0.465264 0.444421 0.765519
0.0475544 0.046383 -0.508259 0.893983 -0.301534 -0.33147
0.238142 -0.19763 0.291821 0.902284 -0.340234 -0.264811
0.0674911 -0.080053 0.0894118 -0.140709 0.477648 -0.86721
-0.105534 -0.199271 -0.154012 -0.982858 -0.124305 -0.136157
-0.112373 -0.101915 0.0583477 -0.842166 -0.364974 0.396927
0.0934674 0.0359621 -0.141238 0.0927002 -0.549187 0.830542
0.0572829 0.121622 -0.484196 -0.884728 0.415009 -0.212187
0.0448802 -0.170442 0.217017 -0.654552 -0.181976 0.733789
0.353678 0.126548 0.286542 0.901502 -0.321844 -0.28933
0.00784873 -0.0323706 -0.50547 -0.873883 0.323769 -0.362633
-0.0286853 0.0913807 -0.0467981 0.438621 -0.815553 0.377473
0.189542 -0.363569 0.306991 0.860515 -0.203127 -0.467177
-0.077021 0.12676 -0.034402 -0.691649 0.719351 -0.0644675
0.128649 0.00861508 -0.24594 0.899738 -0.275123 -0.338789
0.3128 0.382608 -0.0784026 0.893287 -0.286341 -0.346477
-0.0500368 -0.423593 -0.321278 -0.984421 0.0117182 -0.175434
-0.00720942 -0.493061 -0.0552792 -0.949171 -0.228531 0.216444
0.165487 0.276559 0.0398249 -0.481424 0.80647 0.343275
0.304649 0.406845 -0.131331 0.886439 -0.274765 -0.372465
-0.0211324 -0.0424203 0.101539 0.414511 0.231255 -0.880171
-0.058228 0.141921 -0.0049664 -0.584353 0.807366 0.0818011
-0.149056 -0.0140432 0.0290352 -0.959205 -0.270007 0.0837932
0.161772 0.186542 -0.32805 0.908053 -0.264464 -0.324806
0.126569 0.0246208 -0.147662 0.0697564 -0.590537 0.80399
0.300437 0.299424 0.140954 -0.46477 0.664362 0.585331
0.0914597 -0.267957 0.249355 -0.68664 -0.180463 0.704244
0.0400882 -0.0886132 -0.403677 0.862265 -0.435467 -0.258588
-0.0980471 0.000873173 -0.0172547 0.996127 -0.0877718 0.00519845
0.187428 -0.121882 0.0552684 0.854101 -0.248433 -0.456939
0.337007 0.315666 0.044278 0.878045 -0.254175 -0.405502
0.00572259 -0.413873 -0.164768 0.899876 -0.197726 -0.388752
0.000259784 0.0979875 -0.357872 -0.771357 0.536314 -0.342601
0.0863581 0.108329 -0.470956 0.895722 -0.33437 -0.293051
0.292068 -0.0181445 0.252865 0.897397 -0.311386 -0.312599
0.0222919 -0.489396 -0.0512643 0.894592 -0.29894 -0.332174
0.0179526 0.0127785 -0.130558 0.280402 -0.246877 0.927592
0.251752 0.0336745 0.330775 -0.48958 0.390546 0.779606
0.198725 0.255736 -0.279893 0.874239 -0.278161 -0.397911
0.0598453 -0.170622 0.233231 -0.713191 -0.0184515 0.700727
0.262859 0.237823 0.186668 -0.477834 0.608125 0.633923
0.132877 -0.337284 0.275069 -0.761874 -0.0993743 0.640056
-0.0735057 -0.00302266 -0.0831104 0.793053 -0.0740223 0.604638
0.337114 0.211824 0.164055 0.86068 -0.199687 -0.468353
0.0903812 0.0582263 -0.398328 0.898591 -0.385878 -0.208883
0.17751 -0.296574 0.215166 0.898331 -0.320953 -0.299985
-0.0890148 -0.270073 -0.073299 -0.908589 -0.386684 0.157931
0.215061 0.137961 -0.130945 0.900478 -0.296632 -0.31804
0.0738251 -0.242983 0.239376 -0.685002 -0.170662 0.70827
0.101562 0.0747112 -0.386124 0.90906 -0.234509 -0.344407
0.113151 0.101518 0.20247 -0.451637 0.441463 0.775329
0.236765 -0.274333 0.356959 0.910131 -0.391308 -0.13616
0.235481 0.297806 0.075726 -0.487043 0.758223 0.433459
-0.0929568 -0.160684 -0.253441 -0.992216 -0.114464 -0.0490423
-0.0443708 0.120767 0.0792523 -0.461914 0.755594 0.464448
0.0555276 0.221858 -0.0121115 -0.480831 0.765818 0.426995
-0.0314799 -0.0434594 -0.407663 -0.896173 0.256093 -0.36234
0.236725 0.173382 0.233864 -0.451764 0.559937 0.694535
-0.0080777 0.0482473 0.094688 0.271492 -0.450001 -0.850759
0.359233 0.107884 0.357301 -0.467019 0.397083 0.790075
0.143987 -0.298963 0.118349 0.904193 -0.277293 -0.324874
0.00756182 -0.0976963 -0.480814 0.89754 -0.312294 -0.311278
0.192701 -0.0809172 0.327049 -0.536558 0.134635 0.833054
0.0879684 -0.0922459 -0.260108 0.901761 -0.344278 -0.261343
-0.0149808 0.17714 -0.0706169 -0.620348 0.776423 -0.111064
-0.0261402 -0.422132 -0.0338193 -0.941913 -0.266717 0.204113
-0.0774492 -0.17915 -0.303639 -0.974202 -0.0112375 -0.2254
0.0567184 0.0609414 -0.497574 0.872195 -0.43181 -0.229817
0.082 -0.306737 -0.0565988 0.921917 -0.185955 -0.339839
0.352127 0.265956 0.157174 0.900676 -0.322845 -0.290781
0.00179129 -0.16045 -0.431084 0.88394 -0.383758 -0.267169
0.290952 0.021116 0.359423 -0.448946 0.303538 0.840424
0.0617797 -0.168071 -0.258283 0.912488 -0.195186 -0.359539
0.100624 -0.135402 0.266627 -0.601475 0.000324218 0.798891
-0.0222204 -0.328961 0.0651375 -0.827971 -0.368925 0.422325
0.0509262 -0.442029 0.129574 -0.790311 -0.299479 0.534529
0.064789 0.106363 0.175609 -0.439708 0.494382 0.749829
-0.0906031 -0.173165 0.0452875 -0.905767 -0.264907 0.330773
0.0934922 0.0112315 -0.338537 0.917706 -0.215415 -0.333783
-0.0368037 -0.110235 -0.443704 -0.958437 0.134935 -0.25138
-0.0298352 0.0483373 -0.104784 0.494815 -0.450208 0.743284
-0.0450968 0.0489441 -0.287223 -0.856655 0.366847 -0.36272
-0.0785917 -0.0733022 0.0161577 0.773207 0.556674 -0.303752
0.0610202 -0.290331 0.214718 -0.736566 -0.211253 0.642528
-0.0669834 0.104371 -0.137954 -0.800062 0.542675 -0.255743
-0.106318 -0.0102953 0.10276 -0.683754 -0.0935658 0.723689
0.246721 0.31301 0.058971 -0.474488 0.751833 0.45783
-0.0173736 -0.256074 -0.387094 0.87558 -0.245522 -0.416028
-0.065086 -0.30795 -0.328456 -0.984689 0.0717039 -0.158888
0.155788 -0.392194 0.285891 -0.740902 -0.127 0.659497
-0.00953137 -0.079767 -0.504152 -0.906641 0.178195 -0.382424
0.384335 0.290293 0.22254 -0.442914 0.644134 0.623634
0.00895219 -0.150418 0.193358 -0.531869 -0.289217 0.795908
0.047377 -0.121526 -0.113495 0.448601 0.664462 0.597702
0.234492 -0.0634754 0.140153 0.896465 -0.308716 -0.317874
0.0413177 -0.397584 -0.0902728 0.900579 -0.281501 -0.331231
0.258393 -0.205189 0.389588 -0.523921 0.023499 0.851442
-0.0529637 -0.414725 -0.182892 -0.97401 -0.223661 0.0357805
0.0446494 -0.507129 0.0687922 -0.883718 -0.272146 0.380761
0.258938 0.069298 0.0803337 0.899455 -0.27503 -0.339616
-0.080184 -0.108172 0.0993563 -0.75956 -0.302216 0.575963
0.253307 0.109542 0.0231553 0.906154 -0.256264 -0.336473
0.0450671 0.128629 0.143726 -0.473984 0.579806 0.662694
-0.01814 0.0917681 0.048135 0.317221 -0.820573 -0.475428
0.0773708 -0.474784 0.152661 -0.836909 -0.267766 0.477373
0.250513 0.241159 -0.120928 0.917965 -0.346246 -0.193531
-0.123193 -0.046828 0.0649051 -0.846827 -0.291681 0.444755
0.165062 -0.0616726 0.0764694 -0.328756 0.136795 -0.934455
0.194987 -0.330691 0.293372 0.854852 -0.28983 -0.43038
0.104678 0.0208724 0.246678 -0.50789 0.346252 0.788769
0.201477 -0.197054 0.35467 -0.596686 0.10553 0.795505
0.101413 0.00717328 -0.3132 0.900653 -0.300592 -0.313798
-0.0233843 -0.241436 -0.419858 0.914486 -0.322355 -0.244546
0.195825 0.346542 -0.198032 -0.59659 0.787241 -0.155986
-0.0665991 -0.100171 0.127598 -0.662623 -0.304801 0.684125
-0.0637031 -0.200868 0.0762496 -0.865735 -0.218975 0.450059
0.147576 0.0764664 -0.0686054 -0.300758 -0.911596 0.280245
-0.0420885 -0.122769 -0.430683 -0.885962 0.29374 -0.35887
0.276031 0.180879 0.00573499 0.903091 -0.22211 -0.36755
0.151292 -0.167555 0.000777392 0.134771 0.849574 -0.509962
0.110601 -0.375904 0.107602 0.900529 -0.331509 -0.281335
0.166788 -0.383276 0.261142 0.893378 -0.302476 -0.332241
0.222005 0.260997 -0.221236 0.897494 -0.307053 -0.316581
-0.0275921 -0.031136 -0.116346 0.449807 0.0940497 0.88816
-0.0396509 -0.408596 -0.0611175 -0.902183 -0.376163 0.211109
0.0857718 -0.100041 -0.244844 0.897043 -0.311635 -0.313364
0.304497 0.396435 -0.126262 0.891864 -0.366615 -0.2649
-0.10835 -0.115414 -0.195065 -0.986709 -0.116206 -0.113586
0.188302 0.214818 0.158329 -0.447551 0.631656 0.633015
0.332392 0.0751958 0.276331 0.867451 -0.25342 -0.428145
0.27413 0.242092 0.188671 -0.486116 0.74161 0.462284
0.329427 0.254758 0.0923128 0.895616 -0.343344 -0.282818
-0.0227409 -0.121426 0.0027367 0.4296 0.898086 -0.0942599
-0.100114 0.0422421 -0.139149 -0.891664 0.319254 -0.320956
-0.105074 0.0192633 0.107306 -0.594557 -0.0136787 0.803937
0.216641 0.217985 -0.183466 0.843288 -0.485298 -0.230978
0.101305 -0.257203 -0.0429135 0.892567 -0.347972 -0.286775
-0.0363351 -0.481631 -0.208714 -0.937149 -0.346497 0.0411183
0.320831 0.276372 0.0424771 0.884844 -0.297316 -0.358684
0.0127817 0.198265 -0.0407161 -0.595389 0.79871 0.0870342
0.300944 0.276853 0.175865 -0.475279 0.643414 0.600106
0.0294526 0.186954 -0.249082 -0.751968 0.636293 -0.172267
0.200774 0.24728 -0.268927 0.910914 -0.125622 -0.393007
0.126764 -0.221621 -0.0143536 0.88616 -0.253983 -0.387573
0.242547 0.148096 -0.0593397 0.887606 -0.360179 -0.2871
-0.0631731 -0.292574 -0.350328 -0.977647 -0.173289 -0.119069
0.361999 0.351439 0.0872308 0.916794 -0.355024 -0.182883
0.208639 0.189127 -0.187163 0.883325 -0.373025 -0.283882
0.0389531 0.122885 0.139303 -0.453729 0.60466 0.654612
-0.0482657 0.0773802 0.0335921 0.588162 -0.727121 -0.354063
0.220437 -0.05758 0.0879851 0.901253 -0.388433 -0.191996
0.321424 0.159284 0.157827 0.917084 -0.336284 -0.214174
0.157089 -0.41595 0.273256 0.88862 -0.285979 -0.358567
-0.0981198 -0.210973 -0.0275227 -0.937844 -0.303438 0.168446
-0.0400624 0.155308 -0.0715472 -0.686166 0.725713 0.0501665
-0.0111964 -0.18143 0.159121 -0.744342 -0.177445 0.643792
0.00224696 -0.395966 -0.199135 0.901195 -0.278352 -0.332216
-0.0122177 -0.202525 -0.440407 0.849975 -0.497119 -0.1744
-0.0620056 -0.236204 0.0524564 -0.892431 -0.256746 0.371009
-0.0453438 -0.216678 -0.448998 -0.96906 -0.0155046 -0.246336
0.190688 -0.293925 0.338467 -0.632215 -0.0654482 0.772024
0.129828 0.0834359 -0.0680473 -0.136831 -0.96235 0.234859
0.0076082 -0.333218 -0.252213 0.888035 -0.348755 -0.299607
-0.0596551 0.0588675 -0.237719 -0.829309 0.394007 -0.39624
0.317085 0.253701 0.0572434 0.901527 -0.335587 -0.273185
0.0262748 -0.315261 -0.213808 0.895984 -0.342327 -0.282885
0.380879 0.302299 0.196581 0.895037 -0.341587 -0.286754
-0.108624 0.014871 -0.145813 -0.916603 0.238221 -0.321075
0.039072 0.22286 -0.122276 -0.671987 0.737829 0.063577
0.105258 0.0961439 -0.014211 -0.354302 -0.931266 -0.0849283
-0.0107094 0.181 -0.121764 -0.783121 0.621636 -0.0170169
-0.00638491 -0.0731763 -0.517123 -0.911125 0.24614 -0.330553
0.0554787 -0.494117 0.0501407 0.897825 -0.332702 -0.288477
-0.0125121 -0.35407 0.0685967 -0.890582 -0.205119 0.405944
0.20484 0.0290565 0.0219407 -0.412413 -0.646875 -0.641457
-0.139965 -0.0640757 -0.0367593 -0.959054 -0.276969 -0.0591832
-0.0135834 0.0668401 -0.100721 0.348279 -0.629984 0.694134
-0.0882158 -0.0841355 -0.266686 -0.973054 0.0804454 -0.216091
0.0548845 0.112068 -0.0241428 -0.337884 -0.929843 0.145692
0.0173959 -0.104377 -0.440058 0.889585 -0.366502 -0.272607
-0.0291418 0.103463 -0.253311 -0.812868 0.501061 -0.296957
-0.0987023 -0.200585 -0.0213956 -0.958663 -0.241336 0.150742
-0.132083 -0.0521229 -0.0784719 -0.977362 -0.211564 0.00222084
0.103191 0.131464 -0.449952 0.860139 -0.491315 -0.137008
0.147961 0.2462 -0.426244 0.871269 -0.463461 -0.161537
-0.0397558 0.115634 -0.204173 -0.778394 0.53146 -0.334145
-0.0104721 0.0467201 0.0953372 0.215583 -0.397404 -0.891961
0.0046675 -0.0985337 0.0795982 0.231603 0.649406 -0.724315
-0.0426342 -0.1286 -0.4162 -0.952353 0.121371 -0.279809
-0.105959 -0.170115 -0.191715 -0.987504 0.0959684 -0.125005
0.268033 0.151115 0.0289313 0.897382 -0.293049 -0.329891
0.186194 0.164107 -0.228808 0.907135 -0.255945 -0.334062
-0.0245333 -0.242991 0.118151 -0.888023 -0.118497 0.444268
0.266427 -0.216999 0.37912 0.897352 -0.327338 -0.295988
0.300273 0.168087 0.100826 0.824796 -0.268027 -0.497869
-0.0424926 -0.0786249 -0.415438 -0.91017 0.209831 -0.357158
0.200736 -0.190108 0.349752 -0.548342 -0.0939711 0.830957
-0.0327814 -0.106192 -0.442466 -0.932315 0.180962 -0.313116
-0.0392334 0.0904996 0.118046 -0.513013 0.598987 0.614843
0.0188855 0.0735794 0.165118 -0.477574 0.47827 0.737008
-0.0728267 -0.320887 -0.121831 -0.972685 -0.226737 0.049751
0.102296 0.176706 -0.484644 0.869996 -0.286493 -0.401283
-0.0301353 -0.304544 -0.36788 0.876347 -0.285082 -0.388259
0.346101 0.161748 0.227743 0.894725 -0.262279 -0.361492
0.0928222 0.252732 -0.0365261 -0.502744 0.862261 -0.0612758
0.196271 0.0924098 -0.131681 0.847615 -0.462555 -0.259984
0.311513 0.0547413 0.243165 0.891492 -0.300177 -0.339318
0.252623 -0.150653 0.274358 0.878416 -0.397719 -0.264961
-0.109482 -0.168823 -0.0377265 -0.976568 -0.195989 0.0889028
0.118854 0.281836 -0.161258 -0.670174 0.740045 0.0565683
0.374405 0.287768 0.214411 -0.443847 0.621716 0.645344
-0.0885689 0.00096936 -0.0531558 0.919477 -0.127029 0.372057
-0.0989261 -0.167559 0.0229819 -0.905827 -0.316404 0.281719
-0.0326065 0.165192 -0.093175 -0.697413 0.708436 -0.108318
-0.0303516 0.151368 -0.153509 -0.719443 0.631051 -0.290131
0.0610889 -0.121984 -0.117989 0.440589 0.545951 0.712614
-0.0387301 -0.180799 0.130703 -0.812031 -0.213382 0.543207
0.129166 -0.401449 0.258102 -0.77229 -0.114486 0.624869
-0.000939468 -0.260891 -0.341828 0.901101 -0.352167 -0.252974
0.255959 -0.153032 0.384353 -0.59083 0.180401 0.786369
-0.0448795 -0.261218 -0.46016 -0.977046 0.00223875 -0.213019
0.346128 0.115532 0.279745 0.894325 -0.297419 -0.334253
0.242358 -0.151242 0.251486 0.887208 -0.370498 -0.274943
0.264073 0.136426 0.276699 -0.455349 0.53156 0.714214
0.0179235 -0.312046 -0.2345 0.873599 -0.404266 -0.270913
-0.123135 -0.0283557 -0.130946 -0.941513 0.128895 -0.311352
-0.0780316 -0.308241 -0.113721 -0.945374 -0.290719 0.147477
0.22257 -0.015723 0.0473769 0.899825 -0.320355 -0.296122
0.0456702 -0.195985 -0.284091 0.894403 -0.352582 -0.275188
0.227457 0.0917364 -0.0409542 0.842727 -0.512443 -0.164964
0.235718 0.0238243 0.043823 0.888129 -0.416945 -0.193348
0.064905 -0.0213418 -0.405349 0.837534 -0.491197 -0.239296
0.00180132 -0.356102 -0.239687 0.899288 -0.3007 -0.317585
0.228105 0.067176 -0.0107628 0.896543 -0.297276 -0.328386
0.0872618 0.0250174 -0.371527 0.898627 -0.323395 -0.296454
0.0864735 -0.269104 -0.0764267 0.874007 -0.242321 -0.421179
0.187108 0.321864 -0.367203 -0.654126 0.731615 -0.191986
-0.0385494 0.152783 -0.125049 -0.73241 0.659371 -0.169723
0.0627124 -0.0881659 -0.331446 0.898113 -0.31411 -0.307779
0.0474664 0.0663117 -0.11089 0.00462539 -0.623071 0.782151
0.248596 -0.182479 0.379597 -0.616819 0.151023 0.77248
-0.00267171 0.0800754 0.0777224 0.263623 -0.67155 -0.692477
0.371827 0.229339 0.241759 0.904899 -0.186673 -0.382506
0.142436 -0.2828 0.0895141 0.911896 -0.256774 -0.320176
0.12781 0.0546962 -0.118659 0.0242409 -0.847733 0.529868
-0.0890719 -0.274521 -0.180912 -0.993712 -0.015302 -0.110919
0.129515 0.00639422 -0.238708 0.921661 -0.320482 -0.218708
0.019048 -0.380058 0.112451 -0.761206 -0.315749 0.566452
0.153328 0.293049 -0.359951 -0.750777 0.647991 -0.128225
0.109478 0.23555 0.0387664 -0.496686 0.782091 0.376347
0.0968028 -0.396014 0.0706458 0.891166 -0.303814 -0.336928
0.0911476 0.0226728 -0.36289 0.901768 -0.319438 -0.291159
-0.078057 0.124467 0.0223082 -0.499024 0.865374 0.0458534
-0.0746169 0.0929356 0.0923933 -0.393127 0.699792 0.596442
-0.0461747 -0.175058 0.113254 -0.705971 -0.381983 0.596401
0.187202 0.0611692 -0.0865959 -0.301185 -0.891779 0.337665
-0.039723 -0.125798 -0.422492 -0.957812 0.0877098 -0.273685
0.365796 0.262102 0.237187 -0.381018 0.764411 0.520096
-0.0833011 0.0853617 0.093775 -0.388647 0.53048 0.753355
0.0444244 -0.246462 -0.222274 0.915211 -0.333 -0.226935
0.364842 0.309175 0.131576 0.879429 -0.293866 -0.374496
0.145591 0.181948 -0.363226 0.89096 -0.331387 -0.310439
0.267397 0.174832 0.250329 -0.481771 0.578779 0.65796
0.087871 -0.0123644 -0.342136 0.902843 -0.376435 -0.207777
-0.0973695 -0.20713 -0.0224929 -0.956466 -0.258288 0.135866
-0.00353294 -0.32023 0.109921 -0.840388 -0.272107 0.468728
0.023907 -0.522237 -0.00806063 0.887258 -0.35358 -0.296233
0.207307 0.355719 -0.237108 -0.534211 0.82703 -0.175042
0.334096 0.391304 -0.0220511 0.908651 -0.347344 -0.231744
0.201939 0.255064 -0.274176 0.898586 -0.352387 -0.26147
-0.104806 -0.170162 -0.193107 -0.980074 -0.198547 0.00589182
-0.0120342 -0.506385 -0.108592 -0.958184 -0.176577 0.225175
0.118211 -0.267305 0.00448298 0.899801 -0.325412 -0.290631
0.00451901 -0.108149 -0.485838 0.889347 -0.361517 -0.279942
0.0613346 -0.039403 0.105458 -0.197311 0.187091 -0.962323
0.161699 -0.0726327 0.304292 -0.548053 0.189836 0.814617
0.112119 0.188806 0.126826 -0.457543 0.703916 0.543283
0.292469 0.195538 0.253617 -0.471734 0.473509 0.743812
0.256368 0.0512714 0.0909828 0.896924 -0.317967 -0.307287
-0.078179 -0.288623 -0.263561 -0.988835 -0.146775 -0.025725
-0.0338189 0.0494054 -0.320551 -0.870897 0.375747 -0.316783
0.149834 0.253785 0.0701688 -0.528024 0.784422 0.325381
-0.112431 -0.151803 -0.127597 -0.968173 -0.13757 -0.209081
0.0224794 0.0819254 0.158036 -0.490436 0.517977 0.700837
0.0754389 0.172057 0.113136 -0.45649 0.707637 0.53932
-0.0131079 -0.337328 -0.306467 0.897624 -0.31345 -0.309872
0.176362 0.256075 0.0904202 -0.459133 0.735256 0.498593
0.0456397 -0.113177 0.0606683 -0.0684415 0.858633 -0.508001
0.173921 -0.345285 0.31515 -0.645924 -0.130215 0.752214
-0.0726349 -0.182122 -0.333101 -0.973216 0.0218836 -0.228851
-0.120469 0.00588211 -0.119798 -0.927539 0.191188 -0.32112
0.23073 0.328379 -0.265185 0.910801 -0.346399 -0.224609
0.0275658 -0.395916 0.11775 -0.786984 -0.335516 0.517769
-0.0546652 -0.287861 0.0308455 -0.891485 -0.306796 0.333362
-0.0412939 -0.469564 -0.233892 -0.973118 -0.230217 0.00641952
0.32154 0.0302415 0.375894 -0.518223 0.413878 0.748432
0.385696 0.296453 0.220472 -0.464402 0.577274 0.671629
0.124108 -0.372552 0.260275 -0.809043 -0.154295 0.567135
0.176602 0.273407 -0.355751 0.902025 -0.333689 -0.273866
0.0809691 -0.130418 -0.236853 0.855899 -0.286734 -0.430371
-0.0752249 -0.155574 0.0818868 -0.69805 -0.482398 0.529168
0.0685261 0.116677 -0.514187 -0.812266 0.475985 -0.337139
0.20591 -0.111429 0.116562 0.866444 -0.301631 -0.39786
0.265459 0.228087 -0.0645934 0.892698 -0.233504 -0.385444
0.33227 0.214565 0.132776 0.880713 -0.379374 -0.283585
-0.137173 -0.0485141 -0.0566359 -0.951651 -0.0227132 -0.30634
0.0565086 -0.159107 -0.269096 0.901155 -0.315289 -0.297512
-0.0362379 0.0550995 -0.311266 -0.804766 0.42938 -0.409859
-0.0399685 0.0946214 -0.0299552 0.515861 -0.841472 0.16066
0.0747719 0.221279 -0.314246 -0.65094 0.651974 -0.388853
-0.0464812 -0.202642 -0.441504 -0.962429 0.0596256 -0.264907
0.0563746 -0.424193 -0.0143787 0.894902 -0.259163 -0.363298
0.231666 0.311862 -0.245472 0.897491 -0.314267 -0.309427
-0.025799 -0.309958 -0.363879 0.848169 -0.461364 -0.260294
-0.127942 -0.0836976 0.0127977 -0.974245 -0.216881 0.0617154
0.370215 0.339892 0.15013 -0.474877 0.757418 0.448118
0.0742274 -0.151519 0.245049 -0.727513 0.0104464 0.686014
0.075603 -0.378071 -1.97133e-05 0.900505 -0.325685 -0.288132
0.0709796 -0.228732 -0.170976 0.895162 -0.32908 -0.300651
0.0655053 0.013589 0.106924 -0.404914 -0.103947 -0.908427
0.0581473 -0.36004 -0.0629259 0.91467 -0.333929 -0.227752
-0.105147 -0.189116 -0.175066 -0.974434 -0.200456 -0.101468
0.0623512 -0.0364409 -0.395213 0.885328 -0.283834 -0.368283
0.104876 0.247712 0.0121742 -0.509978 0.777576 0.36783
0.108915 0.239201 -0.37494 -0.705199 0.669252 -0.234084
0.182871 -0.358702 0.324014 -0.695196 -0.119055 0.708893
-0.0219582 -0.206422 -0.454848 0.907523 -0.226096 -0.353953
-0.0667048 -0.368377 -0.160574 -0.978164 -0.202604 0.0463287
0.175741 -0.333177 0.319904 -0.640255 -0.158417 0.75165
0.0226308 -0.469646 -0.0479908 0.895935 -0.339649 -0.286251
0.0903009 0.201172 -0.402317 -0.782984 0.577619 -0.230852
-0.0504391 0.0273806 -0.296983 -0.953566 0.178705 -0.242437
0.213707 -0.150771 0.166913 0.899413 -0.259166 -0.35198
0.273884 0.37581 -0.0683719 -0.498303 0.853006 0.155163
0.0848999 0.0890837 -0.447527 0.889787 -0.432163 -0.146676
-0.0969892 -0.00306768 -0.00541996 0.9667 -0.232754 0.106376
-0.133293 -0.0606999 0.044252 -0.851521 -0.388646 0.351947
0.00737034 -0.508732 -0.023678 -0.91594 -0.29271 0.274543
0.000348646 -0.288195 0.142222 -0.638724 -0.432388 0.636452
0.300324 -0.104407 0.369179 0.850332 -0.228196 -0.474196
-0.135623 -0.0614844 -0.0724593 -0.993362 -0.0915384 -0.0696651
-0.00969007 -0.038381 -0.474361 -0.944584 0.253973 -0.207986
-0.134379 0.010281 0.0800719 -0.749996 -0.141283 0.646178
0.109447 0.0914797 -0.0275305 -0.344963 -0.937919 0.0361612
0.159162 0.0211763 -0.155378 0.170442 -0.626913 0.760217
0.231344 0.285327 0.0823807 -0.464573 0.733626 0.495948
-0.0707661 0.0576183 -0.0481036 0.791169 -0.501779 0.34967
0.0264767 0.0289972 -0.514662 -0.881976 0.34734 -0.318549
0.0719094 -0.186286 -0.203681 0.899791 -0.176299 -0.399118
-0.108865 -0.0567775 -0.176977 -0.976036 -0.0447329 -0.212963
0.0523999 -0.137828 -0.319963 0.91661 -0.390747 -0.0845186
-0.102405 -0.195436 -0.0374047 -0.929332 -0.329604 0.166446
0.355245 0.372032 0.0732048 -0.47085 0.773403 0.424439
0.157431 -0.213996 0.0640472 0.887551 -0.253486 -0.384706
-0.076574 0.0586242 -0.0282181 0.792129 -0.568916 0.221057
0.12309 -0.043577 0.274139 -0.607726 0.233409 0.759071
0.124587 -0.162393 0.285356 -0.611112 0.0307586 0.790946
0.00763941 -0.0485309 -0.519654 -0.926312 0.242202 -0.288591
0.0155374 -0.145177 -0.412625 0.892702 -0.337577 -0.298537
-0.0133031 0.0338966 -0.116722 0.295295 -0.326036 0.898054
0.0602928 -0.0700203 -0.366263 0.877356 -0.27864 -0.390648
-0.060495 -0.13438 0.120247 -0.741304 -0.270766 0.614129
-0.0793579 0.059698 7.58847e-06 0.832303 -0.552339 -0.0468229
-0.0172178 0.002738 0.172098 -0.562504 0.266854 0.782546
0.125878 0.241746 -0.429554 -0.739215 0.623377 -0.254878
0.0369184 0.14917 -0.36597 -0.803084 0.53183 -0.268727
0.00878648 -0.298799 -0.284141 0.898763 -0.334407 -0.283542
0.044862 -0.401261 -0.068399 0.897422 -0.312044 -0.311869
0.0945085 -0.106936 -0.145551 0.411838 0.541491 0.732924
0.23019 -0.0613476 0.124618 0.898161 -0.304881 -0.316787
0.278833 -0.000573369 0.360408 -0.446873 0.265147 0.854401
-0.0749502 -0.101255 -0.319238 -0.969225 0.0893111 -0.229405
0.0801612 -0.071211 -0.303361 0.869348 -0.277207 -0.409133
-0.104557 -0.078307 0.0875239 -0.767371 -0.318351 0.556592
0.338522 0.129877 0.230754 0.910856 -0.327823 -0.250746
0.266383 0.0671019 0.0906288 0.902225 -0.329057 -0.278768
0.206033 -0.140268 0.348499 -0.660719 0.193689 0.725214
-0.00121578 -0.320491 0.113703 -0.795069 -0.370791 0.479978
0.250128 -0.141047 0.379969 -0.555612 0.108059 0.82439
0.100473 -0.414113 0.220741 -0.663473 -0.376361 0.64665
-0.0724512 0.060158 -0.197967 -0.869197 0.397432 -0.294183
0.0152701 -0.129811 -0.0465035 0.359346 0.897907 0.254231
0.188843 0.274844 -0.339065 0.893331 -0.374499 -0.248415
0.130549 -0.012901 -0.217251 0.901247 -0.286194 -0.32534
0.103766 0.0110676 -0.312858 0.897548 -0.303606 -0.319736
0.00266797 -0.0923962 -0.496568 0.885613 -0.399928 -0.236109
0.210308 -0.118244 0.11808 0.874801 -0.406874 -0.263015
0.193909 -0.228965 0.346353 -0.657573 -0.00492102 0.753375
-0.0548015 -0.189897 -0.418812 -0.947309 0.0923973 -0.306705
0.00820404 -0.207415 0.179001 -0.75071 -0.159609 0.641061
0.375219 0.262145 0.220337 0.89423 -0.331664 -0.300585
0.1309 0.0711718 -0.0985555 -0.0645717 -0.908586 0.412676
-0.103752 -0.188329 -0.0439447 -0.954029 -0.281093 0.104
0.209347 0.187029 -0.185744 0.904918 -0.353967 -0.236286
-0.0510452 -0.309057 -0.409842 -0.975294 -0.114189 -0.189109
0.217233 0.156882 -0.145845 0.880046 -0.386449 -0.275999
0.1227 -0.161265 0.282427 -0.654534 0.123357 0.745901
0.2665 -0.0756368 0.243139 0.919324 -0.318344 -0.231304
0.202044 0.337926 -0.362051 0.902163 -0.315974 -0.293703
0.161116 0.316983 -0.2329 -0.555236 0.819174 -0.143763
-0.0638736 -0.100157 -0.0174606 0.737474 0.671087 0.0759904
0.171698 0.0541768 -0.108808 -0.144991 -0.874699 0.462471
0.0533181 -0.348407 -0.0919217 0.896032 -0.190802 -0.400902
-0.070469 -0.294588 -0.0486646 -0.890234 -0.394647 0.227459
0.122754 0.0228223 -0.267648 0.905951 -0.35318 -0.233486
0.288612 0.000668623 0.217466 0.881682 -0.369157 -0.29387
0.0243942 -0.465609 -0.0676455 0.887229 -0.413381 -0.204796
-0.108525 -0.193337 -0.132395 -0.97816 -0.202782 -0.045632
0.0973501 0.247302 -0.00324268 -0.475725 0.85485 0.207165
0.0906345 0.262262 -0.169965 -0.652785 0.757543 0.000999226
0.0173545 0.106928 -0.375281 -0.830704 0.460413 -0.312971
0.250269 0.319947 -0.200212 0.877663 -0.137152 -0.459235
0.187078 -0.289403 0.336691 -0.667096 -0.0378752 0.744008
-0.0181441 -0.2729 0.116743 -0.868768 -0.217832 0.444738
0.169494 0.0220835 0.0502158 -0.441116 -0.549253 -0.709745
0.116539 0.236491 0.0549683 -0.480912 0.781349 0.397766
0.0715788 -0.471555 0.0707097 0.860187 -0.461913 -0.216135
-0.0137279 -0.282537 -0.35343 0.88614 -0.402533 -0.229614
0.28508 0.128543 0.0955509 0.897926 -0.324867 -0.296969
0.230063 -0.118395 0.184827 0.898741 -0.317498 -0.302423
0.0222982 -0.0370479 -0.135684 0.387634 0.316336 0.865836
0.307777 0.39455 -0.0361253 -0.517647 0.83633 0.18054
0.0804868 -0.497297 0.128322 0.904382 -0.242862 -0.350873
-0.0905856 -0.168603 -0.266458 -0.957766 -0.0507201 -0.283039
0.182351 -0.262506 0.334504 -0.641405 -0.0880355 0.762134
0.128594 0.219633 0.0933412 -0.438724 0.707067 0.554597
0.133597 0.0129434 -0.156785 0.272752 -0.509703 0.815971
0.0938952 -0.0400135 -0.299041 0.901371 -0.234397 -0.364127
-0.0489866 -0.227979 0.0892244 -0.867365 -0.24911 0.430839
0.0457953 0.174594 -0.334629 -0.790762 0.578984 -0.198676
-0.0635712 0.0089693 -0.279976 -0.926206 0.264317 -0.268847
0.119788 0.285986 -0.165335 -0.635706 0.764997 0.103231
0.0184092 -0.256197 -0.284774 0.909311 -0.225963 -0.349418
0.279108 0.11937 0.0838576 0.895176 -0.23461 -0.378969
0.0730849 -0.233569 -0.152628 0.8815 -0.380821 -0.279165
-0.0784802 0.121444 0.0380903 -0.506859 0.835624 0.211722
0.309497 0.0495815 0.238884 0.873265 -0.159232 -0.460492
0.173152 -0.271426 0.322728 -0.731533 0.0097166 0.681737
0.361247 0.380379 0.055764 0.896321 -0.37249 -0.240539
0.083104 0.182647 -0.429838 -0.868055 0.451943 -0.205496
0.014333 -0.136275 -0.419935 0.902659 -0.26448 -0.339497
0.188626 0.17177 0.200371 -0.451054 0.557893 0.696639
0.105427 -0.470475 0.193991 -0.787057 -0.273128 0.55312
-0.129375 0.0623798 -0.0503416 -0.913208 0.364043 -0.183094
0.274812 0.397063 -0.21546 0.869107 -0.440518 -0.224936
-0.065612 0.109699 -0.144842 -0.717099 0.626146 -0.306121
0.108954 -0.056053 0.270882 -0.55454 0.253143 0.792719
0.200828 -0.298628 0.282439 0.896622 -0.346599 -0.275568
-0.0895769 -0.0750302 0.109367 -0.78298 -0.0796668 0.616924
0.0209744 -0.121285 -0.0855018 0.406349 0.773438 0.486492
0.238886 0.28651 0.100605 -0.482692 0.826483 0.289714
0.00011568 -0.225092 0.158451 -0.793713 -0.157119 0.587651
0.328186 0.0225526 0.331718 0.922427 -0.221685 -0.316203
-0.057333 -0.343999 -0.0510517 -0.936814 -0.293506 0.190353
0.0720558 0.212728 -0.315757 -0.771749 0.631168 -0.077657
-0.104251 -0.00974464 0.105919 -0.669521 -0.0702965 0.739459
0.204659 0.201253 -0.217377 0.900566 -0.294921 -0.319379
0.000897075 -0.173185 -0.44573 0.899265 -0.174704 -0.400999
0.267535 0.193989 -0.0255994 0.896364 -0.321042 -0.305719
0.150796 -0.431389 0.261418 0.913337 -0.248138 -0.322868
0.213424 -0.104564 0.123884 0.883437 -0.396948 -0.248938
0.327947 0.133812 0.321094 -0.497154 0.283246 0.820128
0.0403471 -0.3573 -0.125234 0.914325 -0.224672 -0.336947
-0.0133376 -0.446243 -0.0129092 -0.953757 -0.211945 0.213135
-0.0139492 -0.182284 -0.468788 0.893114 -0.372448 -0.252249
0.220619 -0.297224 0.365955 -0.632447 -0.0925086 0.76906
0.0423073 0.222134 -0.129469 -0.652186 0.757655 -0.0247435
0.273289 -0.148323 0.39365 -0.54097 0.0646269 0.838555
0.234859 0.273423 0.116351 -0.465176 0.65157 0.599223
-0.109493 -0.00330171 -0.161918 -0.831809 0.306161 -0.46299
0.331354 0.235817 0.115391 0.87257 -0.442888 -0.206087
0.151901 -0.0191581 0.286181 -0.557444 0.0436086 0.829069
0.274714 0.0126484 0.180343 0.887128 -0.270828 -0.373706
-0.130369 0.043869 0.0865194 -0.562049 0.10877 0.81992
0.365466 0.188078 0.258223 0.895258 -0.292013 -0.336515
0.374947 0.139784 0.348097 -0.520827 0.583141 0.623447
0.0723996 -0.14858 0.248698 -0.610013 -0.102292 0.785761
0.123662 0.164978 -0.422774 0.91151 -0.160118 -0.37883
0.0419366 -0.371516 0.15467 -0.826004 -0.20517 0.524997
0.179162 -0.0842311 0.322521 -0.568557 0.173989 0.804034
0.329021 0.280829 0.190724 -0.459247 0.677845 0.574124
0.0915557 0.2355 0.0142165 -0.512073 0.812138 0.279666
0.100132 -0.110949 -0.211072 0.914684 -0.23376 -0.32971
0.239591 0.348442 -0.0412822 -0.477948 0.871449 0.110195
-0.0437596 -0.0753549 -0.396051 -0.976163 0.183681 -0.115616
0.137504 -0.412011 0.217066 0.896092 -0.328332 -0.298693
-0.00381582 0.0143925 -0.429093 -0.929031 0.26045 -0.262806
0.19044 0.335837 -0.149555 -0.52938 0.838 -0.132338
0.150634 -0.414629 0.255881 0.896229 -0.227316 -0.380921
0.0461703 0.16673 -0.354956 -0.690328 0.620429 -0.372176
0.0973031 0.219189 -0.383399 -0.793608 0.583699 -0.171702
0.0777487 -0.127924 0.0458882 -0.0228646 0.802469 -0.596255
0.0172379 0.201159 -0.06615 -0.589813 0.807015 0.0291279
0.016377 -0.000746661 -0.512872 -0.93674 0.249959 -0.245029
-0.0768683 0.064084 -0.187492 -0.866809 0.395276 -0.303973
-0.00811517 -0.0938435 -0.522396 0.894103 -0.366051 -0.258045
-0.0190798 -0.33835 -0.321736 0.923208 -0.192442 -0.332646
0.0162259 -0.463626 0.0532805 -0.898187 -0.268968 0.347731
0.258259 -0.194213 0.332455 0.909338 -0.34127 -0.237988
0.0511997 -0.448868 0.127381 -0.874375 -0.178002 0.451425
0.0135399 -0.148428 -0.410624 0.90778 -0.247931 -0.338328
-0.130455 -0.00186559 -0.0908392 -0.95644 0.0897945 -0.277774
0.00990406 -0.405482 -0.163352 0.881197 -0.367466 -0.297423
-0.0362384 -0.224468 -0.481502 0.897674 -0.322988 -0.299768
-0.0710215 0.0483827 -0.212844 -0.808041 0.412227 -0.420877
0.370706 0.149954 0.319662 0.903059 -0.22598 -0.365265
0.209905 0.129202 0.247059 -0.434997 0.433556 0.789181
0.1302 -0.244066 0.00456621 0.882363 -0.376861 -0.281802
0.190469 0.339077 -0.244302 -0.679847 0.71835 0.147587
0.257043 0.387812 -0.201825 -0.596956 0.800394 0.0548851
0.252729 -0.177842 0.298399 0.88954 -0.304456 -0.340625
0.325572 0.323715 0.123858 -0.504216 0.590113 0.630502
0.181606 0.298241 -0.00595906 -0.514228 0.813401 0.271933
0.116852 -0.229987 -0.0346002 0.896417 -0.316134 -0.310638
0.30047 0.36829 0.0207329 -0.45792 0.853895 0.247329
-0.0378668 0.0913436 -0.262495 -0.891928 0.381696 -0.242431
-0.0645124 0.138886 -0.0340016 -0.68399 0.72946 -0.00679111
0.150966 -0.0242877 0.0793262 -0.297227 -0.11217 -0.948195
0.117018 0.0746951 -0.339286 0.905058 -0.240019 -0.351084
-0.0183392 -0.125851 -0.0029772 0.367426 0.929162 -0.0407087
0.251305 0.0897192 0.302127 -0.523519 0.487005 0.699109
0.343703 0.060568 0.333767 0.895704 -0.304219 -0.324291
0.257702 -0.121563 0.261301 0.854532 -0.219248 -0.470856
-0.0539119 -0.426106 -0.267187 -0.977187 -0.211152 -0.0228134
0.0712382 -0.210759 -0.189216 0.89765 -0.306353 -0.316817
0.0894377 -0.308559 -0.0330156 0.897547 -0.304887 -0.318518
0.141318 0.16415 -0.360365 0.908183 -0.357814 -0.217194
0.0450038 -0.176655 0.222465 -0.623301 -0.157794 0.765896
0.075837 -0.2107 -0.183249 0.885375 -0.37416 -0.275891
0.280618 0.30398 0.111506 -0.495353 0.674732 0.54714
0.119795 0.2077 -0.465244 0.911318 -0.385374 -0.144866
0.343356 0.326269 0.0526415 0.898176 -0.284091 -0.335516
0.140838 0.263686 -0.413141 -0.782789 0.616078 -0.0876923
-0.0814232 -0.216781 -0.304799 -0.948586 0.046127 -0.313139
0.290411 0.22405 0.227306 -0.489603 0.525528 0.69578
-0.0508975 -0.118924 -0.399569 -0.954692 0.115384 -0.274316
0.101783 0.155538 0.148232 -0.396492 0.751463 0.52735
0.110677 -0.00178207 -0.280815 0.904606 -0.327125 -0.27327
0.266141 0.368681 -0.192618 0.898309 -0.315793 -0.305476
0.148339 0.292893 -0.317342 -0.668796 0.715202 -0.202974
0.188165 0.134142 -0.195733 0.879373 -0.287966 -0.379181
0.0898909 -0.137211 0.260641 -0.602559 -0.146027 0.784601
-0.119224 -0.14228 -0.120358 -0.984044 -0.171649 -0.0468405
-0.0841776 0.107595 -0.0808852 -0.850182 0.518557 -0.0910459
0.146548 0.0491595 -0.125416 0.0298031 -0.809206 0.586769
0.0129695 0.0587371 -0.441716 -0.885551 0.36575 -0.286403
0.21005 -0.24761 0.264664 0.907717 -0.258706 -0.330335
0.0415316 0.0366896 -0.51647 0.899649 -0.31839 -0.298764
0.0967296 -0.303376 0.244879 -0.703789 -0.193091 0.683664
-0.0411713 -0.37856 -0.0437773 -0.908636 -0.331999 0.253292
-0.0321539 -0.00703323 -0.379742 -0.911576 0.313344 -0.266167
-0.0582153 -0.0471999 -0.334058 -0.938626 0.194244 -0.285045
0.0308214 -0.346705 -0.174017 0.882673 -0.408476 -0.232456
0.360754 0.192846 0.250106 0.809912 -0.267268 -0.522121
-0.0908366 -0.0147253 0.0321715 0.941934 0.0409431 -0.333293
0.11708 -0.00503202 -0.264236 0.897881 -0.334519 -0.286192
-0.0766358 -0.0223285 0.0629956 0.835757 0.0732597 -0.544191
-0.0818751 -0.139156 0.0755378 -0.858417 -0.275849 0.432467
0.335835 -0.0238084 0.405974 -0.500032 0.240305 0.831999
0.0361945 0.00832891 0.202986 -0.428973 0.0934132 0.898474
-0.0468699 -0.454242 -0.27604 0.896545 -0.378253 -0.230505
0.0899771 -0.479595 0.173895 -0.823088 -0.251076 0.509398
0.220644 0.365274 -0.212802 -0.609484 0.792269 0.0289533
-0.0777376 -0.00933169 0.127554 -0.645252 0.0599482 0.761614
0.129055 0.0183169 -0.248011 0.897082 -0.315643 -0.309214
0.0538348 -0.4978 0.0490893 0.897457 -0.312584 -0.311228
-0.0637182 -0.0725902 0.0464937 0.730826 0.489668 -0.47552
-0.0125126 -0.0482967 0.103574 0.244404 0.384713 -0.890091
0.182358 0.0612422 -0.136087 0.910236 -0.360634 -0.203501
0.103939 0.101785 -0.395783 0.896375 -0.300571 -0.325837
-0.066491 -0.17927 -0.36262 -0.924139 0.130067 -0.359235
0.0387957 -0.458529 0.095038 -0.865268 -0.237995 0.441213
0.164359 0.318089 -0.199545 -0.677709 0.730426 0.0847827
0.34598 0.296568 0.187102 -0.45808 0.707964 0.53754
0.0106806 0.0148964 -0.479872 -0.961721 0.160506 -0.222106
0.200415 0.319834 -0.354805 0.895733 -0.284357 -0.341766
0.120662 -0.0607772 -0.173142 0.434506 0.0243447 0.90034
0.0949862 0.114301 -0.444522 0.880357 -0.367504 -0.299855
0.0805911 -0.134202 -0.112511 0.530793 0.568283 0.628739
0.270884 0.29395 0.124767 -0.466017 0.775512 0.425921
0.0462597 -0.525327 0.0501013 0.897454 -0.312126 -0.311695
-0.0370459 -0.233946 0.10661 -0.909368 -0.177314 0.376312
-0.106311 -0.195649 -0.0470162 -0.902909 -0.389656 0.18145
0.238154 0.0378877 0.323784 -0.514362 0.38606 0.765761
0.254436 0.179481 -0.0507794 0.88882 -0.245928 -0.386676
0.270955 -0.108332 0.29151 0.906677 -0.271894 -0.322507
0.0341632 -0.14582 -0.359161 0.896762 -0.326259 -0.298952
-0.0163895 0.0688219 0.0804701 0.332866 -0.683827 -0.649293
-0.0171139 -0.0871312 0.0817997 0.263701 0.627765 -0.732375
-0.000397019 -0.376454 -0.23064 0.872234 -0.394154 -0.289568
0.0720039 -0.103637 -0.294059 0.892384 -0.408203 -0.192406
-0.00552131 -0.456435 -0.155997 0.862003 -0.218537 -0.457376
0.214503 0.355992 -0.324947 -0.668099 0.743694 -0.0237126
0.124866 0.110726 -0.349343 0.898976 -0.356371 -0.25464
0.146098 0.278214 -0.00610471 -0.531218 0.762657 0.369002
0.0955257 -0.418307 0.211516 -0.752191 -0.255928 0.607214
0.125295 -0.256336 0.0183034 0.895185 -0.323745 -0.30632
0.0600232 0.108353 -0.504246 -0.847317 0.450711 -0.280917
0.172336 -0.279605 0.174762 0.87762 -0.395769 -0.270463
0.00511426 -0.329828 -0.260089 0.898424 -0.345348 -0.271235
0.279838 0.220441 -0.0130289 0.876806 -0.281301 -0.389975
0.363979 0.142453 0.318177 0.897488 -0.274478 -0.345221
0.123997 0.238017 -0.433692 -0.757402 0.603329 -0.249673
-0.0133278 0.0778587 -0.338959 -0.851425 0.428403 -0.302565
0.102023 -0.095328 -0.22422 0.87436 -0.251193 -0.415206
0.0658349 -0.102401 -0.137659 0.336597 0.446372 0.829129
0.309256 0.199074 0.256679 -0.453667 0.602175 0.656941
0.242686 0.205551 -0.109753 0.896768 -0.311727 -0.314061
-0.0763188 -0.308521 -0.266812 -0.980587 -0.159783 -0.113661
0.154659 -0.365896 0.211086 0.869109 -0.282268 -0.406171
-0.0480065 -0.351389 -0.390633 0.897092 -0.411581 -0.160708
0.202733 0.341641 -0.319871 -0.647338 0.755846 -0.0982382
0.205323 0.348384 -0.322455 -0.660053 0.748347 -0.065619
-0.0296133 -0.190867 -0.497448 0.858988 -0.441677 -0.258961
-0.0919465 0.000803408 0.0138898 0.9778 -0.193541 -0.0803026
0.308527 0.371109 -0.082105 0.894358 -0.359543 -0.26618
0.190077 0.142162 0.229038 -0.43825 0.42337 0.792903
0.129581 -0.106446 0.0649574 -0.172127 0.607102 -0.775757
0.120062 0.275086 -0.0624308 -0.534443 0.840224 0.091622
-0.0212747 -0.291139 0.0971405 -0.813024 -0.298202 0.500067
0.0559655 -0.506808 0.0710278 0.892121 -0.255771 -0.372427
-0.0104951 0.17119 0.0179737 -0.57263 0.703387 0.42112
-0.00485767 -0.199934 -0.412051 0.892157 -0.351961 -0.283158
0.379197 0.183108 0.316896 -0.491148 0.553814 0.672357
0.258956 0.335196 -0.189503 0.880677 -0.40907 -0.238891
0.0935744 0.258073 -0.235106 -0.69309 0.71165 -0.114806
0.0799003 -0.123897 -0.261939 0.882614 -0.364978 -0.296283
0.105238 -0.432687 0.217231 -0.773779 -0.231351 0.589697
0.240298 0.0140869 0.0795447 0.907116 -0.323391 -0.269367
0.0964683 0.0371761 0.234201 -0.483718 0.290766 0.825513
0.062026 0.20179 0.0412001 -0.485255 0.83151 0.270405
0.219108 0.217748 -0.194989 0.902688 -0.280153 -0.326603
-0.0261847 0.112913 -0.251774 -0.801215 0.487681 -0.346731
0.0823984 -0.335272 0.222721 -0.76882 -0.184455 0.612285
0.219096 -0.114331 0.144324 0.903145 -0.24446 -0.352942
-0.0319094 0.0475645 -0.102944 0.58238 -0.40458 0.705088
0.0366441 -0.49675 0.0586486 -0.819844 -0.418278 0.391023
0.173513 0.279399 0.0300365 -0.512695 0.708664 0.484704
0.116205 -0.0893637 -0.167732 0.420165 0.255106 0.870852
0.115902 -0.469374 0.202815 0.879127 -0.270289 -0.392531
-0.0452562 -0.252837 -0.451989 -0.963726 0.0393063 -0.263984
0.0829687 -0.115189 0.253859 -0.624152 0.0778196 0.777418
0.0707755 0.222537 0.0131627 -0.437344 0.869935 0.227912
0.29333 0.0502091 0.343404 -0.438134 0.236059 0.867361
0.105734 0.178087 -0.479045 0.868709 -0.195789 -0.454986
-0.0473101 -0.422603 -0.168603 -0.9629 -0.267737 0.0337779
0.0965574 0.212819 -0.40589 -0.652873 0.63763 -0.408882
-0.016663 -0.0313177 -0.441567 -0.878787 0.338598 -0.33628
-0.027591 0.0557119 -0.314734 -0.814367 0.429814 -0.389958
-0.0168682 0.106248 0.0143212 0.339317 -0.919254 -0.199591
0.0387279 -0.501615 0.0636175 -0.923323 -0.211942 0.320243
-0.10732 -0.187479 -0.120046 -0.976605 -0.21179 -0.0372511
-0.00917612 -0.0605094 -0.493088 -0.910439 0.24703 -0.331779
0.182384 0.0468072 0.0194406 -0.394525 -0.757127 -0.520681
0.055588 -0.367243 0.178561 -0.86819 -0.0772221 0.490187
0.292489 0.18935 0.046368 0.90283 -0.121295 -0.412535
0.154106 0.125462 0.218902 -0.46738 0.565766 0.679312
0.135958 -0.0997357 0.293061 -0.576623 0.0970316 0.811228
0.219304 0.347046 -0.331447 0.889011 -0.391578 -0.237331
0.378207 0.186536 0.302184 0.898669 -0.23259 -0.371882
0.294737 0.195787 0.0430928 0.898162 -0.318522 -0.303065
0.0733 0.236762 -0.0181389 -0.598969 0.767351 0.228928
0.168412 -0.385178 0.267791 0.882842 -0.208215 -0.420995
0.10241 0.0521548 -0.353432 0.897558 -0.296893 -0.325952
0.169881 0.327071 -0.219364 -0.667514 0.743079 0.0475183
0.0767697 -0.0651912 -0.157512 0.443314 0.033734 0.895731
-0.10949 0.095067 -0.0449114 -0.711223 0.645765 -0.277759
-0.0279432 0.0266462 0.155574 -0.469256 0.145759 0.87095
0.000160798 -0.453851 -0.155662 0.905326 -0.249686 -0.343571
0.342998 0.390014 0.0227268 -0.503709 0.835562 0.219345
0.284157 0.0408108 0.181174 0.892454 -0.228348 -0.38908
0.0898128 0.0594879 -0.398808 0.895818 -0.236324 -0.37638
-0.0694951 -0.0178676 0.140739 -0.61191 -0.0436146 0.789724
-0.0895316 0.0626869 -0.158028 -0.850427 0.41652 -0.32138
0.295699 0.0771933 0.159494 0.890858 -0.336073 -0.305659
0.182261 0.00862112 0.294923 -0.534238 0.33816 0.77475
0.114044 0.246278 -0.362704 -0.711527 0.665986 -0.224034
0.0972539 0.169438 -0.488618 0.905963 -0.420177 -0.0517891
-0.00599686 0.0506557 -0.108278 0.275133 -0.516366 0.810967
-0.0425045 -0.448543 -0.159316 -0.887806 -0.4048 0.218948
-0.096153 0.0457004 0.111048 -0.482525 0.204593 0.851652
-0.017395 -0.104028 -0.4887 -0.977684 0.0143471 -0.209591
0.0904499 -0.367311 0.227889 -0.701417 -0.277072 0.656693
-0.0810699 -0.169184 -0.320433 -0.969513 -0.0564066 -0.238461
0.328467 0.396218 -0.0131395 -0.501568 0.815463 0.288876
0.112624 0.178986 -0.455506 0.900675 -0.317348 -0.296774
-0.0671878 -0.336367 -0.196979 -0.974896 -0.222662 0.000666568
0.0663066 0.0540959 -0.476997 0.896009 -0.276425 -0.347502
-0.0210835 -0.0532573 -0.438827 -0.913332 0.242411 -0.327202
0.0870763 -0.228681 -0.118764 0.895424 -0.253957 -0.365681
0.0772694 0.0972111 -0.0496735 -0.217707 -0.949162 0.227363
0.136504 0.187372 -0.397204 0.892289 -0.332097 -0.305831
