ply
format ascii 1.0
comment Created by Open3D
element vertex 128
property double x
property double y
property double z
property double nx
property double ny
property double nz
end_header
0.101247 0.422974 0.187412 0.384998 0.921185 -0.056529
-0.0541096 -0.421973 -0.121484 -0.0962825 -0.925946 0.365175
0.0136617 -0.189206 0.41282 -0.00620205 -0.383543 0.923502
0.127836 -0.18197 0.0896396 0.473143 0.582958 -0.660527
-0.0974658 -0.119137 -0.411772 -0.705525 -0.206006 -0.678083
0.0500738 -0.454926 0.154166 0.358734 -0.880838 -0.308925
-0.0706407 -0.199714 -0.388334 -0.207889 -0.444958 -0.871088
-0.124467 -0.249228 0.064306 -0.804709 -0.044314 0.592014
-0.130255 -0.427462 -0.00779686 -0.129258 -0.989927 0.0577725
0.228753 0.149754 0.352711 0.211661 0.963781 0.16225
-0.219135 0.138195 -0.300538 -0.8059 -0.261823 0.531012
-0.0974259 0.191958 0.00111569 0.705463 -0.681819 0.193506
-0.214247 -0.236309 -0.327381 -0.120385 0.0323984 -0.992198
-0.0717903 0.43592 0.0178395 0.134883 0.97997 -0.14651
-0.0795311 -0.317005 -0.316029 0.193497 -0.272426 -0.942519
-0.0491 -0.108349 0.319616 -0.953872 -0.0244485 0.299216
0.157691 0.387718 0.0700725 0.988045 -0.141341 -0.061558
-0.244016 0.0386844 -0.388738 -0.877844 0.390723 -0.276994
-0.178392 0.417048 -0.200581 0.428285 0.39693 -0.811799
-0.0273708 0.248448 -0.36178 -0.558698 0.654052 -0.509973
0.0318607 0.218621 -0.0827692 -0.527925 -0.638481 0.560034
-0.0915764 0.286425 0.124913 -0.980935 0.186759 -0.0537363
-0.0652838 -0.0585655 0.239695 -0.94706 -0.0602118 0.315361
0.0252963 0.00505757 0.2097 -0.85122 -0.0729235 -0.519718
-0.189865 -0.340053 -0.2689 -0.353199 -0.17702 -0.918648
-0.0356148 0.0153261 0.350342 -0.990849 0.124469 0.0522054
-0.0815136 -0.295895 0.177565 -0.977076 0.189945 0.096139
0.22838 -0.0188091 0.349916 0.847707 0.227494 -0.479206
-0.20099 0.189709 -0.203781 -0.805739 0.586385 0.0832892
0.0536834 -0.250065 -0.271079 0.771548 0.52126 -0.364696
0.0728013 -0.413482 -0.193009 0.77619 -0.495398 -0.390012
0.031534 0.00622482 -0.256088 0.201384 0.00206288 0.97951
0.188321 0.0560884 0.178776 0.671611 -0.372891 -0.640227
0.175764 0.316412 0.181561 0.539019 0.245358 -0.805766
-0.0790977 -0.0148802 -0.479268 -0.0785112 -0.472902 -0.87761
-0.0195694 -0.122362 -0.168799 -0.72894 0.4071 0.550378
0.046721 0.206844 -0.323314 0.941594 -0.00489373 -0.336716
-0.175967 0.0790653 -0.140107 -0.991577 0.11912 0.0508506
0.167974 -0.391626 0.119137 0.694187 -0.692617 0.195925
-0.220061 0.268906 -0.263219 -0.952934 0.200469 0.227439
0.140482 -0.109674 0.433913 0.290841 -0.617602 0.730739
-0.0699538 -0.229736 0.257514 -0.912063 -0.313611 0.264176
0.0055489 -0.10342 -0.411076 0.975801 -0.15048 -0.158642
0.213864 -0.1911 0.337374 -0.367938 -0.305084 0.878376
0.0659457 0.0939993 0.126327 0.772136 -0.397873 -0.495484
0.063223 0.147948 -0.202502 0.931869 0.0793602 -0.354009
0.193019 0.168287 0.213893 0.878038 -0.477824 0.0270842
-0.0596897 -0.443719 0.0997984 0.483281 -0.846351 -0.223897
0.14962 -0.281756 0.0821851 0.958622 -0.00690419 -0.2846
-0.0817022 -0.45292 0.177609 -0.127124 -0.981472 0.143358
0.200543 -0.272202 0.271366 0.922801 0.222179 -0.31476
0.0233925 -0.203757 0.100644 -0.919113 -0.0110089 0.393841
0.0625332 0.408881 -0.207623 0.771071 0.454413 -0.446048
-0.183481 -0.292402 -0.181908 -0.966486 0.112249 0.230879
0.118672 0.174409 0.39765 0.566153 0.551525 0.612609
0.068313 0.436863 0.119795 -0.446821 0.840061 0.307649
-0.0653575 0.0811482 0.215542 -0.962635 0.0504376 0.266063
0.0763499 0.272628 -0.210286 0.944709 0.100155 -0.31224
0.0412933 -0.395186 0.257722 -0.105511 -0.283927 0.953023
0.0824993 -0.328063 -0.158972 0.952853 0.0869197 -0.290717
0.00692771 0.309484 -0.335899 0.29254 0.208302 -0.93329
-0.0489742 -0.400107 0.29212 -0.295962 -0.238404 0.92497
0.0721876 0.266263 0.335659 -0.087555 0.863663 0.496407
0.0859568 -0.0446148 0.502037 -0.106155 0.774101 0.624099
0.12729 0.364307 -0.0148305 0.980479 -0.161955 0.111494
-0.00565477 -0.0630215 0.428266 -0.98702 0.0976681 0.127488
-0.061974 0.430146 0.136795 0.491561 0.85903 -0.142955
-0.0419501 -0.241691 -0.0105774 0.962373 0.271284 -0.0156089
-0.179373 -0.0364774 -0.164463 0.996804 0.0188541 0.077628
-0.159927 0.342525 -0.047198 -0.957503 0.162384 0.238366
0.204074 -0.0139232 0.256258 0.825708 0.251675 -0.504843
-0.171614 -0.153421 -0.37802 -0.167289 -0.718415 -0.675199
0.107263 -0.223021 -0.00308489 0.94604 -0.252933 -0.202565
-0.0664344 0.439821 -0.134134 -0.09816 0.989477 0.106296
0.0738361 0.439293 -0.119363 -0.169811 0.947034 0.272562
0.0327937 0.409284 0.283873 0.243407 0.457548 0.855221
-0.0433653 0.362232 0.323834 -0.974949 0.220128 0.0319168
-0.17942 0.333728 -0.135493 -0.943064 -0.104571 0.315746
0.00400646 0.159214 0.0805902 -0.995968 0.00121053 0.0896971
-0.0711098 -0.146621 0.177904 -0.690146 0.698734 -0.188334
0.121102 0.269448 -0.071157 0.973381 -0.0370486 -0.22618
-0.156747 -0.300119 -0.0501127 -0.908922 0.416822 0.0109398
0.0280912 0.446282 -0.0169655 0.0385485 0.999202 0.0104244
0.0625205 -0.180794 -0.185918 0.819573 0.473299 0.322935
0.208213 0.306641 0.286039 0.939026 0.25975 0.225299
-0.0904094 -0.414063 -0.248364 -0.189507 -0.981143 -0.0380112
-0.0294026 0.222764 0.38263 -0.836699 -0.27564 0.473241
0.190221 -0.12146 0.196781 0.954978 0.0136192 -0.296363
-0.182706 0.150807 -0.398787 -0.596402 0.706114 -0.381717
0.122647 -0.46089 0.0255066 0.189059 -0.960533 -0.204043
-0.166564 0.230204 -0.0890201 -0.792011 0.588691 -0.161748
0.0412999 0.0679384 -0.331112 0.936041 -0.249032 0.248617
0.0978514 0.334758 -0.128861 0.985442 -0.149615 0.0807462
-0.0407906 0.154743 0.305976 -0.954992 0.287873 0.0715454
-0.0308974 0.110332 -0.210178 -0.802649 0.407451 0.43559
-0.0822224 0.131739 -0.104816 -0.283602 -0.768844 0.573104
-0.00289296 -0.265866 -0.356092 -0.178427 -0.2429 -0.953501
0.229546 0.0869041 0.292052 0.984732 -0.0214346 -0.172751
-0.203909 0.00964674 -0.23278 -0.915383 -0.130616 0.380807
-0.229784 -0.0749401 -0.349049 -0.948848 0.282909 0.140177
0.175191 0.181973 0.111541 0.81971 0.196397 -0.538055
-0.0422018 0.411532 -0.232051 0.125874 0.428741 -0.894616
-0.0659845 -0.00104242 -0.235679 -0.10087 0.267545 0.958251
0.170021 -0.374376 0.240018 0.732357 -0.372765 0.569824
0.021909 -0.290555 0.339789 0.528839 -0.534803 0.659026
-0.16557 -0.00779251 -0.46044 -0.0246981 -0.61201 -0.790464
-0.0067883 0.121267 0.431334 -0.949787 -0.0360261 0.310817
-0.206383 -0.114803 -0.241218 -0.851383 0.498949 -0.161854
0.0392746 -0.188596 -0.0421153 0.300447 0.843342 -0.44554
0.118747 -0.330074 -0.0269158 0.94591 -0.191681 -0.261748
-0.0974801 0.159792 0.144416 -0.906562 -0.116767 0.4056
0.236706 0.0483217 0.421767 0.97563 0.119721 0.183884
-0.0836242 0.322361 0.210733 -0.947166 -0.0179511 0.320241
0.0564914 0.235458 0.0159396 -0.332878 -0.76324 0.553765
0.0628289 -0.0849025 0.12948 -0.0901001 0.409338 -0.907923
0.0213286 0.143178 -0.422504 0.964844 -0.107432 -0.239864
-0.0822659 -0.126545 -0.0756368 0.83382 0.550066 0.0465924
-0.156943 -0.428537 -0.136999 0.122939 -0.968185 -0.217955
0.00862593 -0.427237 -0.0518413 -0.101259 -0.994489 0.0271546
0.133828 0.26232 0.0374105 0.958156 -0.00424251 -0.286216
-0.153075 0.240266 -0.352287 -0.0308316 0.389656 -0.920444
-0.0698391 -0.1769 0.0666835 -0.198193 0.968516 -0.150651
0.142166 0.0639604 0.406312 0.118257 0.366337 0.922937
0.0498065 -0.128104 -0.297022 0.0444532 0.569942 -0.820481
-0.169448 -0.17469 -0.112646 -0.961909 0.00834021 0.273241
0.108217 -0.245568 0.339028 0.100135 -0.485452 0.86851
-0.0782709 0.0979319 -0.44545 0.123857 0.0992479 -0.987324
0.0628223 -0.36235 -0.279172 0.809589 -0.586815 -0.0146276
