ply
format ascii 1.0
comment Created by Open3D
element vertex 128
property double x
property double y
property double z
property double nx
property double ny
property double nz
end_header
-0.00612335 -0.393411 -0.259265 -0.500003 0.860252 -0.0998133
0.224831 -0.246254 -0.147913 -0.500002 0.860253 -0.0998164
0.012047 0.0658096 -0.0782684 0.500003 -0.860252 0.0998146
-0.347698 0.292941 0.00556167 -0.395404 -0.124225 0.910068
-0.609572 0.106863 -0.156066 -0.490137 0.863045 -0.122145
0.0418887 0.118327 0.247355 -0.395404 -0.124225 0.910068
-0.11404 0.00648245 -0.029104 -0.500003 0.860252 -0.0998146
-0.262804 0.114548 -0.245621 0.395404 0.124225 -0.910068
0.34916 0.302105 0.202815 0.770488 0.494504 0.40226
-0.0672927 -0.573086 0.00141255 0.500002 -0.860253 0.0998167
0.148531 -0.369131 -0.108891 -0.500003 0.860252 -0.0998147
-0.377428 -0.116939 0.0330574 -0.395404 -0.124225 0.910068
-0.133253 -0.00977241 0.153774 -0.395404 -0.124225 0.910068
-0.36154 0.0429778 -0.186404 -0.500003 0.860252 -0.0998147
0.276879 -0.196291 0.198389 0.395404 0.124225 -0.910068
-0.0107375 0.301422 0.142321 0.357564 0.18715 -0.914944
-0.49222 -0.194267 -0.0367123 0.395404 0.124225 -0.910068
-0.219959 -0.178759 -0.321214 -0.395404 -0.124225 0.910068
-0.0735494 0.234017 0.0174269 -0.500003 0.860252 -0.0998145
0.210413 0.396059 0.251356 0.395404 0.124226 -0.910068
-0.356026 -0.17814 -0.336955 0.500003 -0.860252 0.0998146
0.0991267 0.567968 0.224821 -0.0271801 0.655954 -0.754312
0.0143041 -0.0309623 -0.207777 0.500003 -0.860252 0.0998144
-0.0707797 -0.578911 -0.31102 -0.395404 -0.124225 0.910068
-0.146602 -0.0630989 -0.273244 -0.304098 -0.269471 0.913734
0.199763 0.184354 -0.0789633 -0.608805 0.757897 0.234412
-0.38776 0.0314544 -0.0475373 -0.395404 -0.124225 0.910068
-0.225931 0.332412 -0.0778332 0.500003 -0.860252 0.0998147
-0.00903547 -0.0402642 -0.210668 -0.395404 -0.124225 0.910068
-0.0934033 -0.428789 0.0175303 -0.395404 -0.124225 0.910068
0.0420827 0.214804 -0.0952184 0.500002 -0.860253 0.0998169
0.123754 0.339514 0.000415007 0.500003 -0.860252 0.0998146
0.044525 0.53652 -0.00120119 -0.395404 -0.124225 0.910068
-0.37817 0.0628914 -0.0390794 -0.395404 -0.124225 0.910068
0.326881 0.238579 -0.038415 0.395404 0.124225 -0.910068
0.436176 -0.274368 -0.0609466 0.395404 0.124225 -0.910068
-0.479506 0.15626 -0.0703628 -0.395404 -0.124225 0.910068
0.123905 0.558811 0.237404 0.407571 0.10305 -0.907341
0.285684 0.275378 0.356609 0.598792 -0.777878 -0.190669
0.449364 -0.135139 0.293434 -0.395404 -0.124225 0.910068
-0.0334988 0.0968771 0.103554 0.395404 0.124225 -0.910068
-0.40407 -0.102556 0.0186438 -0.500003 0.860252 -0.0998132
-0.248455 0.122232 -0.0698271 -0.500003 0.860252 -0.0998145
0.220894 -0.32096 0.0149117 0.500003 -0.860252 0.0998147
-0.224809 -0.104292 0.0917535 0.395404 0.124225 -0.910068
-0.213277 0.411446 0.0801406 -0.395404 -0.124225 0.910068
0.283996 -0.177812 0.204003 0.395404 0.124225 -0.910068
-0.427293 -0.063231 -0.330587 -0.395404 -0.124226 0.910068
0.156493 0.252615 0.306139 0.395404 0.124226 -0.910068
0.0336735 0.247099 -0.0987149 0.395404 0.124225 -0.910068
-0.234892 -0.561231 -0.0737792 0.395404 0.124225 -0.910068
-0.24317 -0.515201 -0.0710928 0.395404 0.124225 -0.910068
0.130437 0.0571412 -0.136775 -0.395404 -0.124225 0.910068
0.157521 0.572202 0.0679694 0.500003 -0.860252 0.0998147
-0.107374 -0.026183 -0.0476458 -0.395404 -0.124225 0.910068
-0.508973 -0.0363427 -0.133834 -0.425042 0.868825 -0.253933
0.275947 0.175316 0.259379 0.500003 -0.860252 0.0998145
0.141049 0.615152 0.0514699 -0.395404 -0.124225 0.910068
0.182723 -0.348616 0.148445 -0.395404 -0.124225 0.910068
-0.474016 0.202407 -0.0616783 -0.395404 -0.124225 0.910068
0.340408 0.293639 0.229985 0.770489 0.494503 0.40226
0.573818 -0.0840051 0.21807 -0.500003 0.860252 -0.0998146
-0.525767 -0.034318 -0.116476 -0.395404 -0.124225 0.910068
-0.226725 0.333121 -0.0677418 0.500003 -0.860252 0.0998147
0.208386 0.38183 0.259301 -0.395404 -0.124225 0.910068
-0.256061 -0.0808848 -0.117561 -0.601558 0.355279 0.715475
0.118807 0.107353 0.0688524 -0.395404 -0.124225 0.910068
0.136015 0.356766 0.0255679 -0.500003 0.860252 -0.0998147
-0.325916 0.230371 -0.00285533 0.395404 0.124225 -0.910068
0.208549 0.131751 0.221532 0.500003 -0.860252 0.0998145
0.267133 0.237166 0.12076 0.500003 -0.860252 0.0998146
0.256258 -0.243017 -0.134837 0.395404 0.124225 -0.910068
-0.0531784 -0.490921 -0.148112 -0.500003 0.860252 -0.0998147
-0.174317 0.345423 0.0787161 0.395404 0.124225 -0.910068
-0.368801 0.0310212 -0.190968 0.500003 -0.860252 0.0998146
-0.0443211 0.49691 0.155874 0.395404 0.124225 -0.910068
-0.524784 0.103824 -0.307617 -0.395404 -0.124225 0.910068
0.0405201 0.155579 0.242505 0.395404 0.124226 -0.910068
0.192776 0.172323 -0.0656079 0.500003 -0.860252 0.0998146
-0.108358 -0.473314 -0.312933 -0.395404 -0.124225 0.910068
0.00350724 0.291061 0.157896 -0.395404 -0.124225 0.910068
-0.111528 -0.0232925 0.152028 0.395404 0.124225 -0.910068
-0.122098 0.196015 -0.173367 0.395404 0.124225 -0.910068
-0.256256 0.145628 -0.238533 0.395404 0.124225 -0.910068
-0.0656043 0.410661 -0.0662297 -0.395404 -0.124225 0.910068
-0.0974117 0.211182 0.00227254 0.500003 -0.860252 0.0998146
-0.0948587 0.490106 0.132988 0.395404 0.124225 -0.910068
-0.263257 -0.0947977 -0.090892 0.500003 -0.860252 0.0998147
-0.0364208 0.10388 0.114998 -0.395404 -0.124225 0.910068
-0.0742417 0.426017 -0.0309543 0.500003 -0.860252 0.0998147
0.130431 -0.483318 -0.215385 0.500004 -0.860252 0.0998126
-0.467563 -0.236752 -0.0224586 -0.395404 -0.124225 0.910068
-0.128251 0.176695 -0.140464 0.500003 -0.860252 0.0998146
0.249259 0.22814 0.132509 0.500003 -0.860252 0.0998146
0.447586 0.28672 0.0205998 0.395404 0.124225 -0.910068
0.38812 -0.2805 0.241755 0.500003 -0.860252 0.0998132
0.133655 0.0593773 -0.146829 0.395404 0.124225 -0.910068
0.0665849 0.40263 0.198592 -0.500002 0.860253 -0.0998161
0.479399 -0.252016 -0.0391163 0.395404 0.124225 -0.910068
-0.197298 0.1199 0.0472869 -0.395404 -0.124225 0.910068
0.103454 -0.4638 0.0879724 0.500003 -0.860252 0.0998132
0.187493 -0.326634 0.153518 -0.395404 -0.124225 0.910068
-0.443289 -0.0166173 -0.341942 0.395404 0.124225 -0.910068
-0.270518 -0.043454 -0.324712 -0.395404 -0.124225 0.910068
0.0235986 -0.337928 0.070033 -0.500002 0.860253 -0.0998168
0.0196806 -0.443271 -0.102409 -0.500003 0.860252 -0.0998147
-0.437404 0.209808 -0.264525 0.395404 0.124225 -0.910068
0.10506 0.195503 0.0749126 -0.395404 -0.124225 0.910068
-0.163744 -0.563345 -0.218437 -0.500003 0.860252 -0.0998147
0.00369473 -0.397125 -0.265606 0.395404 0.124225 -0.910068
-0.25527 -0.060619 0.0797287 -0.120343 0.732534 -0.670009
0.123225 -0.344563 -0.206498 0.395404 0.124225 -0.910068
0.426058 -0.130179 -0.0456605 0.395404 0.124225 -0.910068
-0.425621 -0.193247 -0.189662 -0.500003 0.860252 -0.0998146
-0.373312 0.244753 -0.151142 -0.500003 0.860252 -0.0998145
0.418703 -0.148125 0.266582 0.395404 0.124225 -0.910068
-0.220997 -0.177807 -0.321535 -0.395404 -0.124225 0.910068
0.286467 0.405338 0.0434863 -0.395404 -0.124225 0.910068
-0.084623 -0.570534 0.00199674 -0.395404 -0.124225 0.910068
0.594858 -0.0829735 0.1927 0.500003 -0.860252 0.0998146
-0.61299 0.0980116 -0.15911 0.500003 -0.860252 0.0998147
0.0195379 0.081267 -0.0537051 -0.500003 0.860252 -0.0998146
0.506979 -0.138831 0.080374 -0.500003 0.860252 -0.0998146
0.628851 -0.148282 0.0399773 0.395404 0.124225 -0.910068
0.296465 0.462773 0.0577231 -0.590488 0.315936 0.742636
-0.426942 -0.193366 -0.184066 -0.500003 0.860252 -0.0998146
0.279215 -0.273447 0.0611259 -0.500003 0.860252 -0.0998146
-0.542881 0.129093 -0.301962 -0.574484 0.812136 0.101996
