ply
format ascii 1.0
comment Created by Open3D
element vertex 512
property double x
property double y
property double z
property double nx
property double ny
property double nz
end_header
-0.387637 -0.355661 -0.190239 -0.495607 -0.447006 -0.744688
-0.0989226 0.3017 0.224482 -0.547884 -0.653726 0.521983
-0.0762239 -0.634305 -0.0689244 0.756043 -0.654242 -0.0191374
0.148206 0.362136 0.299758 0.372373 0.495228 0.784913
0.264971 -0.25331 0.0690042 -0.573345 -0.632151 0.52121
0.336727 -0.225541 0.0690017 0.664332 -0.745758 0.050076
0.418089 -0.169828 -0.419473 0.707917 -0.706184 0.0125455
-0.157577 0.394247 0.23185 -0.914032 0.129017 0.384578
0.125033 -0.0617095 0.177134 -0.592549 -0.554879 0.583947
0.0636355 -0.488219 0.162026 0.795616 -0.569211 -0.20735
0.0556187 0.449847 0.304027 0.391928 0.433137 0.811655
0.250662 0.379287 -0.159211 0.615859 0.522144 -0.589986
-0.171355 0.213178 0.0580717 -0.737091 -0.464139 0.491194
0.17404 0.701153 0.101985 0.333414 0.917077 0.218641
0.600072 0.0274964 -0.0683868 0.707573 -0.706317 0.0213646
-0.140141 0.415287 -0.177722 -0.702325 0.711702 -0.0148196
0.142925 -0.0409721 0.21249 -0.55287 -0.57073 0.607126
0.0618397 0.376979 -0.366294 0.585949 0.561584 -0.584198
-0.106244 0.110033 -0.566408 -0.398272 -0.425155 -0.812787
0.498173 -0.0384043 0.332627 0.760588 -0.109096 0.640003
-0.0996014 0.380468 0.299789 -0.652835 -0.499586 0.569403
-0.478616 -0.0533617 0.155885 -0.629282 -0.488773 0.604239
-0.0059891 0.56076 0.249971 -0.474661 0.826448 0.302787
0.322397 -0.264115 -0.442075 0.664871 -0.739536 0.105043
-0.353444 -0.476998 -0.0339064 -0.581856 -0.541237 0.607047
-0.196335 0.355013 0.151447 -0.885673 -0.0722089 0.458661
-0.204995 -0.40871 0.16371 -0.761911 -0.290548 0.578855
-0.326269 0.232824 -0.101952 -0.720044 0.69337 0.0278128
0.452472 -0.11501 -0.0359676 0.706225 -0.705789 -0.0557507
0.0453053 -0.121011 -0.573986 -0.446286 -0.379985 -0.81021
0.0207563 -0.541571 -0.113448 0.749313 -0.661874 0.0212602
0.309559 -0.0304839 -0.494573 0.609208 0.526184 -0.593293
0.215963 0.0430266 0.365311 -0.559838 -0.583245 0.588564
-0.0761627 -0.139599 0.152007 0.315207 0.416378 0.852804
-0.11657 -0.340586 0.272045 0.371208 -0.0816177 0.924956
-0.424063 0.126927 -0.326398 -0.721079 0.692168 0.0307855
0.0774787 -0.490517 -0.00457415 0.688269 -0.715932 0.117161
-0.447477 -0.361834 -0.0839147 -0.592071 -0.533643 0.603885
0.258382 0.115698 -0.40188 0.564636 0.567109 -0.599645
-0.592473 -0.0198142 -0.0504997 -0.636589 0.760165 -0.130012
0.381263 -0.191518 -0.557906 0.916641 -0.106553 -0.385249
0.154842 0.292869 -0.352069 0.495352 0.667406 -0.556053
0.59094 0.202678 0.0243092 0.471274 0.67529 -0.567349
-0.296585 -0.383483 -0.268846 -0.392868 -0.425426 -0.815271
-0.0160094 -0.577032 -0.0870444 0.633264 -0.73382 0.245936
-0.154751 -0.0997391 -0.438865 -0.482656 -0.318949 -0.815668
-0.104397 -0.130835 -0.468687 -0.795674 0.4622 -0.391503
0.0230411 -0.0117606 -0.570147 -0.693094 0.716198 -0.0817366
0.278513 -0.306061 -0.418058 0.650739 -0.747409 0.133859
-0.0257064 0.537872 0.123442 -0.698921 0.714983 -0.0175636
-0.17208 0.290307 0.132762 -0.591941 -0.564628 0.575152
0.165277 0.176784 0.394655 -0.814307 0.536122 0.222435
0.0555742 -0.375039 -0.393333 -0.253238 -0.330607 -0.909159
-0.194046 0.315829 -0.628259 -0.578798 0.236474 -0.780431
0.233572 0.190301 -0.361271 0.585303 0.564065 -0.582452
0.511887 0.0328373 0.3022 0.25396 0.57402 0.778463
0.182316 0.622984 0.151083 0.408425 0.405333 0.81786
-0.129426 0.270597 0.158934 -0.61878 -0.525816 0.583634
0.342731 0.186161 -0.250766 0.503387 0.68018 -0.532876
-0.199922 -0.37549 0.20734 -0.651783 -0.513389 0.558221
0.21125 0.162953 0.423359 0.236556 0.333823 0.912471
0.171457 0.278996 0.339921 0.334664 0.527393 0.780933
0.450285 -0.115405 0.0597049 0.566601 -0.820048 0.0805289
-0.101918 -0.212077 -0.454923 -0.396793 -0.204026 -0.894946
0.674341 0.140618 0.155922 0.716925 0.0394173 0.696035
0.223672 -0.0938077 0.176631 -0.692776 -0.453054 0.561074
-0.0397681 0.494863 -0.327271 -0.268941 0.904471 -0.331062
0.439935 0.443462 0.100229 0.717375 0.686476 0.118841
0.195535 -0.377427 -0.341543 0.60883 -0.780567 0.141567
-0.229055 0.0148332 0.0956056 0.374392 0.418877 0.827268
-0.131802 -0.677107 -0.134506 0.228809 -0.816708 -0.52975
0.218419 -0.283645 0.0376313 0.440793 0.317112 0.839727
-0.339053 -0.151811 -0.320896 -0.34893 -0.434621 -0.830272
0.594626 0.245417 0.143595 0.313679 0.472611 0.823556
0.479399 -0.100703 -0.34877 0.870289 -0.463695 -0.166086
0.332786 -0.244394 -0.337415 0.712172 -0.70147 -0.027393
-0.233258 0.307782 -0.440459 -0.73963 0.672703 0.0204482
0.356309 0.337186 0.253384 -0.125154 0.727312 0.674799
0.344234 -0.220042 -0.0170025 0.626209 -0.778796 0.0365903
0.293281 0.0852026 0.423862 0.290599 0.326659 0.899359
-0.0872755 0.384496 -0.507323 0.637419 0.52608 -0.562972
-0.236744 0.0785435 -0.494545 -0.415555 -0.4309 -0.801024
0.330998 -0.194286 -0.611797 0.199094 0.133971 -0.97078
0.370064 0.430191 0.160604 0.351199 0.422001 0.835808
0.397256 -0.169224 -0.527964 0.855887 0.141622 -0.497394
0.376041 0.467435 0.0414502 0.601704 0.546474 -0.58251
-0.347059 0.112695 0.102793 0.342003 0.388106 0.855808
-0.119132 0.330622 -0.59487 0.57101 0.591787 -0.568978
-0.289559 0.251709 -0.512894 -0.740914 0.610964 -0.27887
-0.139871 0.433906 0.252888 -0.818434 0.566483 0.0962421
0.665368 0.192598 0.0829744 0.586474 0.566648 -0.578756
-0.266197 0.290937 -0.130954 -0.763603 0.645671 0.00426264
-0.236513 0.317195 -0.181011 -0.614242 0.777089 -0.137257
-0.237133 0.299418 -0.569567 -0.810663 0.562041 -0.164117
0.196593 0.233065 0.351927 0.386381 0.27827 0.879361
0.334073 0.359952 0.215495 0.381348 0.374327 0.845253
0.302817 -0.265623 -0.0342299 0.700826 -0.713202 -0.013602
0.0407946 0.176583 0.249044 -0.552297 -0.59393 0.584991
0.344082 0.3664 0.205454 0.423493 0.41726 0.804082
-0.0155378 -0.347543 -0.375433 -0.412396 -0.422579 -0.807067
-0.519715 -0.0680532 0.101444 -0.550003 -0.636941 0.540187
-0.1456 0.407156 -0.320106 -0.713201 0.700952 -0.00328935
0.260555 0.0023679 -0.517014 0.576044 0.569776 -0.586113
-0.41682 -0.0705297 -0.325816 -0.370929 -0.474669 -0.798186
-0.512536 -0.171487 0.0145835 -0.711424 -0.408453 0.571876
0.0119155 0.46921 0.317463 0.345258 0.387624 0.854719
0.170135 -0.403429 -0.198781 0.703671 -0.710333 0.0165515
0.39549 -0.184855 -0.304289 0.656182 -0.734139 0.174545
-0.0368298 -0.534528 0.150288 -0.543975 -0.603912 0.582564
0.0204105 0.274439 0.31918 -0.576285 -0.56974 0.585911
0.32857 -0.252703 -0.247791 0.577812 -0.806582 0.124736
-0.455974 0.105561 -0.128498 -0.680874 0.721699 -0.124741
-0.54549 0.0242856 -0.0424543 -0.747968 0.642152 0.16788
0.237929 -0.327427 0.00153825 0.687371 -0.725129 0.0413318
-0.00829753 0.0140342 -0.568661 -0.445858 -0.396933 -0.802281
-0.556065 -0.230439 -0.0801653 -0.645162 -0.451644 0.616266
0.228991 0.462453 0.212559 0.301385 0.406247 0.86263
0.42075 -0.130978 0.299176 0.33055 -0.825647 0.457213
0.0416291 0.596568 0.206378 -0.338871 0.896115 0.286609
0.41029 -0.173872 -0.331174 0.646601 -0.758037 0.085366
-0.435949 -0.195628 -0.248314 -0.413052 -0.40356 -0.816411
0.0247974 -0.385566 0.185538 0.30595 0.406284 0.861004
0.302652 0.132811 -0.349402 0.556273 0.591865 -0.583314
0.179184 -0.306377 -0.491436 -0.316949 -0.521688 -0.792076
-0.0203168 -0.519052 0.178391 -0.490417 -0.624813 0.607535
-0.0861957 0.460901 -0.186258 -0.677795 0.731427 -0.07489
-0.301284 0.243833 -0.391398 -0.685433 0.723455 -0.0824298
0.117265 -0.373067 -0.426469 -0.396786 -0.44556 -0.802519
-0.340044 0.174875 0.0685432 0.173708 0.533847 0.827546
0.0252726 0.148889 0.211575 -0.543842 -0.560485 0.624574
0.0333066 -0.52724 -0.0173902 0.707552 -0.706531 -0.0136011
0.00986931 -0.411449 -0.360385 -0.408527 -0.458764 -0.789077
-0.116125 -0.185617 0.196508 0.410606 0.400589 0.819104
-0.00540708 0.306329 0.32209 -0.642001 -0.516935 0.566227
-0.0318612 0.536884 0.189941 -0.711001 0.703106 -0.010929
0.265925 0.0469884 -0.467514 0.637046 0.508638 -0.579189
0.249291 -0.320147 -0.507403 0.301165 -0.717499 -0.628088
0.251616 0.137562 -0.393873 0.646568 0.531349 -0.547375
-0.182346 -0.0765038 -0.440405 -0.375303 -0.306831 -0.874644
-0.241129 0.0518984 -0.475066 -0.407615 -0.557356 -0.723328
0.00553511 0.436028 -0.369342 0.695609 0.381957 -0.608471
-0.654563 -0.0887706 -0.163415 -0.71965 0.60476 -0.341128
0.398739 0.314032 -0.07244 0.613016 0.526025 -0.589499
0.0642732 0.385168 -0.356552 0.796713 0.41168 -0.442457
0.395333 -0.13215 -0.503107 0.609847 0.498883 -0.615794
0.18603 -0.0190861 0.271247 -0.587137 -0.562487 0.582133
0.0574142 -0.412308 -0.37841 -0.439868 -0.512859 -0.737219
-0.416022 0.15013 0.0246306 -0.762433 0.647034 -0.00650036
0.240717 -0.00841185 -0.541079 0.629647 0.520296 -0.57692
-0.487043 0.078369 -0.160159 -0.711964 0.702138 -0.0104015
0.0125534 0.0477611 -0.59753 -0.333084 -0.457154 -0.82466
-0.0697291 0.487042 -0.0729993 -0.6973 0.715932 -0.0348264
0.617655 0.200635 0.156394 0.51427 0.421214 0.747064
0.529067 0.0284613 -0.214058 0.482003 0.615041 -0.624018
0.0580817 -0.515414 -0.184188 0.723913 -0.689788 0.0119076
0.419808 0.0453842 -0.312018 0.443807 0.666753 -0.598729
-0.155724 0.38607 -0.354976 -0.654982 0.738367 -0.160665
-0.0306398 0.297485 -0.530565 0.378202 0.668114 -0.64077
-0.140322 0.415771 -0.107298 -0.710051 0.703788 -0.0225736
-0.04902 0.109488 0.0891833 -0.621548 -0.526646 0.579933
-0.0173599 -0.537793 -0.277407 -0.305682 -0.47145 -0.827221
-0.100252 0.464969 0.176551 -0.602572 0.768667 -0.214612
-0.461074 -0.250727 -0.00785027 -0.556758 -0.563784 0.610056
0.0557657 -0.406588 -0.379684 -0.375387 -0.44375 -0.813739
0.0462094 -0.508653 0.0673677 0.703375 -0.706595 -0.0773806
-0.154862 0.412017 0.136987 -0.726272 0.687098 0.0205991
0.296929 -0.102254 -0.57784 0.610481 0.544936 -0.574768
-0.461999 0.0865704 -0.359116 -0.77374 0.496574 -0.39337
-0.364193 -0.423881 -0.213857 -0.456454 -0.424985 -0.781689
-0.423934 0.0783808 0.161607 0.367645 0.377418 0.849937
-0.0878405 0.458045 -0.248636 -0.648115 0.740354 -0.178389
0.139196 0.573572 -0.0928733 0.599911 0.54918 -0.581814
-0.569142 -0.131055 -0.221497 -0.303947 -0.504781 -0.807968
0.283942 -0.11732 -0.602945 0.535247 0.314072 -0.784136
0.343079 0.078241 0.357651 0.695701 -0.706744 0.128499
0.0165673 -0.283442 -0.449244 0.422764 -0.876891 -0.228765
0.0727866 0.428708 -0.304497 0.515234 0.593504 -0.618293
0.0943748 0.20576 -0.485554 0.646368 0.503617 -0.573217
-0.0492901 -0.274548 -0.443052 -0.387034 -0.330985 -0.860612
0.236864 -0.340235 -0.391647 0.690511 -0.721572 0.0502879
0.0256082 -0.532492 0.0168557 0.711279 -0.702668 -0.0184427
-0.0307807 -0.0863937 -0.55101 -0.66246 -0.171373 -0.729231
-0.217759 0.0491526 0.0746742 0.451387 0.320607 0.832743
0.246982 0.457033 0.205132 0.38718 0.433599 0.813685
-0.0989138 0.477565 0.313208 -0.699917 0.714221 -0.00202098
-0.325032 0.236733 -0.0982109 -0.791507 0.60975 0.0414853
-0.0660461 -0.623495 -0.0926137 0.688285 -0.714298 0.126656
-0.0688518 -0.0516988 -0.510733 -0.530805 -0.440209 -0.724197
0.145945 0.0330815 -0.603575 0.438658 0.703962 -0.558584
-0.13104 0.423655 -0.12986 -0.725926 0.687386 0.0230454
-0.0392399 0.195122 -0.628801 0.292962 0.183267 -0.938395
-0.524185 0.0556981 0.165101 -0.889416 0.391953 0.235186
-0.616936 -0.0444736 -0.0197019 -0.806946 0.586362 0.0708356
-0.489278 0.0635267 0.18918 0.0472014 0.779504 0.624617
-0.302598 0.239211 -0.504008 -0.829732 0.558111 -0.00756828
-0.416862 -0.0330021 -0.345824 -0.46564 -0.427868 -0.774666
0.0814464 -0.146246 0.0807102 0.395123 0.424977 0.814416
0.307274 0.208334 -0.269671 0.574124 0.58174 -0.57616
-0.20214 -0.60167 -0.062537 -0.656367 -0.462961 0.595692
0.38412 0.213709 -0.186686 0.626207 0.508702 -0.590836
0.17934 -0.0972241 0.140698 0.58919 -0.801679 0.100828
0.320205 -0.0532099 0.311516 -0.501432 -0.632847 0.589975
0.223366 -0.360752 -0.435052 0.693346 -0.712843 0.105483
-0.536741 -0.164334 -0.219021 -0.397696 -0.45396 -0.797345
-0.425713 0.127992 -0.344031 -0.672657 0.737933 -0.0546511
-0.298206 0.247651 -0.269429 -0.711252 0.702676 -0.0191385
-0.00460287 -0.408082 0.212447 0.320439 0.443406 0.837084
-0.0240462 -0.0852661 0.093963 0.493021 0.325402 0.806872
-0.0413742 0.531424 0.209536 -0.663364 0.746447 -0.0525826
0.384362 0.0326586 0.361674 0.401342 0.437769 0.804539
-0.53679 -0.174187 -0.00851043 -0.506682 -0.633681 0.58457
-0.138838 0.238859 -0.626062 -0.416219 -0.446289 -0.792205
-0.576546 -0.0558759 -0.252327 -0.685487 -0.096891 -0.721609
-0.379003 0.187093 -0.0491905 -0.65164 0.751349 -0.104116
-0.238867 -0.125791 -0.381277 -0.476135 -0.365679 -0.799734
0.108166 -0.199142 -0.524997 0.52797 -0.847694 -0.0516012
0.358823 -0.226457 -0.357743 0.643941 -0.755547 0.120369
-0.432865 0.124957 -0.20862 -0.701107 0.712427 -0.0299409
0.0492665 0.608847 0.120488 -0.738713 0.666528 0.100222
0.193212 0.320471 -0.276883 0.622484 0.511824 -0.592073
0.0618311 -0.51127 -0.250229 0.631337 -0.769831 0.0936643
0.180535 0.0184285 -0.576255 0.698057 0.442482 -0.562962
-0.226887 -0.263101 0.262747 -0.353828 -0.372777 0.857813
0.119427 0.135578 -0.530468 0.580799 0.632497 -0.512464
-0.368817 0.191174 -0.113003 -0.686711 0.725133 -0.0510965
0.0328899 0.295405 0.355141 -0.545792 -0.488402 0.680863
0.0326977 -0.260311 -0.4716 0.341754 -0.832756 -0.435571
0.100108 -0.258519 0.079219 0.4005 0.423568 0.81252
0.239766 -0.0247213 -0.560666 0.581173 0.571494 -0.579338
0.494603 -0.0653686 0.310266 0.750005 -0.649985 0.122525
0.449954 0.300442 -0.0432262 0.570676 0.584528 -0.576764
0.575792 0.012303 0.220504 0.586028 -0.776981 0.229939
-0.167022 0.388012 -0.140539 -0.661269 0.747012 -0.0685346
0.391692 0.215102 -0.173876 0.517798 0.636244 -0.571908
0.166666 0.143943 -0.470066 0.589233 0.560388 -0.582039
-0.00960506 0.556489 0.173165 -0.591541 0.775332 -0.221225
0.232644 -0.182711 0.104482 -0.696158 -0.437223 0.569386
-0.440681 -0.383667 -0.14267 -0.766512 -0.368447 -0.526028
0.56821 -0.00971009 -0.109247 0.607921 -0.784056 0.125252
-0.483577 0.0867158 0.0271973 -0.67457 0.736509 -0.0500891
-0.061307 -0.624012 -0.150088 0.642165 -0.761842 0.0849778
-0.136214 -0.558189 0.0338732 -0.665869 -0.442782 0.600468
-0.120501 0.281713 0.182745 -0.601269 -0.546216 0.583201
0.300592 0.508905 0.00823939 0.593168 0.55782 -0.580507
-0.561209 0.0141901 0.02031 -0.672741 0.736555 -0.0700408
0.224003 0.321591 0.288877 0.39265 0.398003 0.829108
0.00884155 -0.486451 -0.314955 -0.317476 -0.515145 -0.796137
-0.117857 -0.658893 -0.0577619 0.0929665 -0.861217 0.499663
0.154851 0.171944 0.362792 -0.726988 0.67886 0.103139
0.037541 0.596018 0.0223048 -0.767467 0.63805 0.0623421
-0.427322 0.131726 -0.178711 -0.704478 0.709504 -0.01775
-0.0521815 0.501334 -0.120252 -0.718334 0.695698 -0.000883995
-0.0749011 -0.322106 0.235938 0.691462 -0.263812 0.67252
-0.172195 0.317427 0.164663 -0.596233 -0.560795 0.574469
0.10246 0.65865 0.0145168 -0.618269 0.774118 -0.135958
0.133714 0.385151 -0.276952 0.55236 0.580596 -0.59817
0.0885563 -0.400107 -0.399387 -0.394773 -0.429731 -0.812087
0.282629 0.39247 -0.125815 0.595483 0.55319 -0.582564
0.285073 0.542219 0.0171075 0.637778 0.496699 -0.588668
-0.00802603 -0.563331 -0.245406 0.393863 -0.742724 -0.54151
0.198634 0.164397 0.42684 0.142822 0.0825898 0.986296
0.0866033 0.292795 -0.419871 0.65957 0.431211 -0.615649
0.361548 -0.208821 -0.0323005 0.710507 -0.701117 -0.0601241
-0.176638 0.372937 -0.310905 -0.694791 0.717944 -0.0426889
-0.0342705 -0.0656896 0.0898617 0.217928 0.616675 0.756451
-0.268832 -0.0785495 -0.396414 -0.485763 -0.378753 -0.787769
0.47294 -0.0925941 0.213409 0.585342 -0.78316 0.209846
-0.390168 0.156441 -0.376052 -0.665631 0.73932 -0.101697
0.501626 -0.0538743 0.213004 0.67477 -0.718793 0.167397
0.0683056 0.618493 -0.0204938 -0.665956 0.741486 -0.0818626
0.158914 0.617834 -0.0360967 0.60033 0.549546 -0.581036
0.114967 -0.447776 0.0197604 0.729375 -0.683155 -0.0362252
0.0215983 0.303243 0.343855 -0.667861 -0.475234 0.572813
-0.315916 0.241618 -0.136103 -0.695749 0.717347 -0.0366825
0.0744707 0.617137 -0.0842321 -0.32003 0.894094 -0.313331
-0.0956932 0.109643 0.0458037 -0.588029 -0.578435 0.565363
-0.0257918 0.541228 0.259589 -0.535132 0.81276 0.230337
-0.0514108 0.201245 0.167793 -0.602727 -0.546133 0.581772
0.0623318 -0.50113 -0.109501 0.643014 -0.749278 0.158479
0.517427 -0.024808 -0.273889 0.72938 0.349749 -0.587946
0.378879 0.193278 -0.211898 0.651452 0.524549 -0.548141
-0.139603 -0.617571 -0.0213153 -0.51802 -0.592175 0.617239
-0.219541 -0.0565776 -0.432053 -0.448041 -0.399296 -0.799888
0.482321 -0.0846568 -0.358349 0.854362 0.0598813 -0.516217
-0.146941 0.417569 -0.0267214 -0.686798 0.724601 -0.0571203
0.137857 -0.421109 -0.0953927 0.69901 -0.714346 0.0330883
0.601217 0.23691 0.0665622 0.660362 0.512105 -0.549246
0.352272 -0.226004 -0.290432 0.736139 -0.6741 -0.0607342
-0.28564 0.264669 -0.202324 -0.783896 0.606314 0.133756
0.332214 0.0707037 -0.369604 0.520701 0.611819 -0.595439
0.0777214 -0.221066 0.0698126 0.49336 0.461507 0.737298
-0.163613 -0.503726 0.0549878 -0.540409 -0.558436 0.629371
0.430848 -0.157054 -0.398724 0.695208 -0.716527 0.0572217
-0.130305 0.270048 0.162957 -0.498586 -0.699492 0.51198
-0.243654 -0.359368 0.177559 -0.549915 -0.587091 0.594069
0.269682 0.0434826 0.420289 -0.192768 -0.709032 0.678317
-0.153412 0.387436 -0.330494 -0.716813 0.697201 -0.00946094
-0.179531 -0.0616931 -0.44901 -0.357531 -0.409712 -0.83923
0.120161 -0.381869 0.136961 0.438689 0.399186 0.80511
-0.538401 0.00232821 -0.291171 -0.566209 0.238163 -0.789104
-0.538287 -0.21703 -0.0511863 -0.673943 -0.414021 0.611872
0.187279 0.0212763 0.31844 -0.616668 -0.530842 0.581315
0.0416915 0.59136 -0.0316981 -0.658596 0.750428 -0.0557582
-0.142597 0.422648 0.110018 -0.713249 0.700809 -0.0119317
-0.61794 -0.0559765 -0.193272 -0.75967 0.638609 -0.122799
0.11424 0.0747061 -0.602939 0.576462 0.585065 -0.57043
0.229947 -0.355109 -0.419458 0.701972 -0.701748 -0.121593
0.41316 -0.172408 -0.463655 0.76403 -0.642348 -0.0603908
0.602125 0.0374694 0.103625 0.692524 -0.719884 0.0466596
0.182596 -0.398888 -0.370492 0.709284 -0.704866 -0.00895639
0.483357 -0.0722321 0.323328 0.762916 -0.645131 0.0420271
-0.130513 -0.322008 0.270295 0.168594 0.399426 0.90113
-0.26051 0.281745 -0.401646 -0.672561 0.737019 -0.0668125
0.0871004 0.159627 -0.54101 0.60472 0.497518 -0.621924
-0.163468 -0.174121 -0.394753 -0.708178 0.704678 -0.0437477
0.405039 -0.155912 0.235368 0.671828 -0.736416 0.0796112
0.250173 -0.230655 -0.565802 -0.392989 -0.237113 -0.888447
0.398887 -0.155336 0.231582 0.610834 -0.782661 0.119683
0.358493 -0.199442 0.0762286 0.71551 -0.696231 -0.057508
0.159764 0.0894252 -0.537656 0.641657 0.513002 -0.57018
0.154599 -0.421777 -0.384248 0.593988 -0.765881 -0.24618
-0.490549 -0.0197176 0.173032 -0.57048 -0.552465 0.607729
0.0108497 -0.49616 -0.307886 -0.303146 -0.490798 -0.816835
0.160333 0.0821409 0.34675 -0.565301 -0.628201 0.534601
-0.131722 0.432916 0.109082 -0.774054 0.631558 0.0444521
0.215604 -0.0626404 0.197218 -0.575349 -0.561896 0.594345
-0.434933 -0.0668874 -0.321299 -0.369791 -0.447843 -0.814058
-0.377921 -0.380208 -0.00860051 -0.904659 0.36329 0.222738
0.0313573 0.0521161 0.115285 -0.598546 -0.549078 0.583315
-0.282594 -0.0732066 0.162988 0.381109 0.29545 0.876051
0.634449 0.0618886 0.0665798 0.693202 -0.711685 0.113912
-0.293921 0.15856 -0.505212 -0.413387 -0.536251 -0.735898
0.465135 -0.111994 -0.193458 0.712699 -0.701359 -0.012456
0.342676 -0.094549 -0.525397 0.524866 0.64873 -0.551058
0.626335 0.248701 0.114451 0.8336 0.543102 0.100757
-0.521391 -0.0800659 -0.268865 -0.495084 -0.400755 -0.7709
0.163198 -0.385974 0.0880816 0.771618 -0.424035 0.474131
0.626943 0.229259 0.139476 0.484944 0.518242 0.704453
0.106702 -0.11223 -0.602445 -0.343214 -0.428027 -0.836061
-0.277557 -0.0925123 0.18075 0.395416 0.363988 0.843302
-0.0453425 0.120078 0.104838 -0.504183 -0.717869 0.480066
0.565248 0.0101752 0.254581 0.853327 -0.365775 0.371539
-0.00360983 -0.11569 -0.555381 -0.404601 -0.40593 -0.819462
-0.0836297 -0.345637 0.225324 0.838554 -0.5364 0.0954045
-0.0238918 0.268245 -0.548757 0.463377 0.655385 -0.59645
0.436393 -0.118261 0.240295 0.73548 -0.67743 -0.0125471
0.215713 0.636861 0.125507 0.395359 0.408962 0.822461
-0.20377 -0.634839 -0.0921223 -0.623786 -0.665008 0.410676
-0.53352 -0.00430828 0.144573 -0.688139 -0.410429 0.598341
0.499426 -0.0375585 -0.307254 0.674328 0.464158 -0.574316
-0.227463 0.300961 -0.58541 -0.860151 0.448236 -0.243362
0.0256083 -0.121535 -0.566325 -0.398289 -0.427982 -0.811293
0.224121 0.481345 0.202327 0.25478 0.51018 0.821464
0.0850602 0.598859 0.215479 0.426698 0.336889 0.839306
-0.474706 -0.352889 -0.145928 -0.662469 -0.619438 -0.421227
-0.131027 -0.2304 0.228617 0.404722 0.424065 0.810166
-0.504423 0.0519667 -0.286774 -0.694106 0.718641 -0.0420958
-0.499726 -0.138143 0.0638671 -0.543872 -0.556466 0.628131
0.307831 -0.25927 0.00665404 0.69461 -0.718063 0.04362
0.476193 0.148017 -0.15209 0.570923 0.590287 -0.57062
0.300967 0.130649 -0.351494 0.560824 0.620962 -0.547616
-0.174234 -0.380845 -0.329565 -0.248033 -0.437676 -0.864245
0.244957 0.425874 0.226548 0.451297 0.323678 0.831603
-0.237773 -0.305896 0.226274 -0.607879 -0.498834 0.617776
0.148848 0.0129909 -0.619895 0.609727 0.540528 -0.579709
0.328458 0.389924 -0.0736673 0.73437 0.370952 -0.568414
0.364947 0.483275 0.0483555 0.684715 0.511734 -0.518934
-0.0206213 -0.454127 -0.313742 -0.396326 -0.427905 -0.812295
-0.0584292 -0.352886 -0.371868 0.462596 -0.821942 -0.33229
-0.140908 -0.0216965 -0.487296 -0.43778 -0.441358 -0.783296
0.0774102 -0.477908 0.0959886 0.645212 -0.756482 0.106941
-0.0525309 -0.461543 -0.298933 -0.377913 -0.423255 -0.82343
0.519047 0.38837 0.122212 0.597001 0.681866 -0.422669
-0.310273 0.236683 -0.390442 -0.707548 0.706592 0.0101653
-0.133516 -0.143294 -0.424467 -0.397567 -0.425205 -0.813106
-0.333431 -0.440398 0.0190435 -0.546962 -0.57349 0.609871
0.360452 -0.143665 -0.556308 0.596112 0.553779 -0.58136
0.037058 0.445771 -0.32477 0.505177 0.598625 -0.621647
-0.551445 0.0199779 0.00293351 -0.656902 0.743844 -0.123188
-0.0760551 -0.207069 -0.470931 -0.280789 -0.609299 -0.741561
-0.04679 -0.0693919 -0.5099 -0.274537 -0.52135 -0.807975
0.427006 0.0543853 0.328945 0.422333 0.474938 0.772055
0.268882 0.613256 0.0977764 0.70856 0.697653 0.105937
-0.1345 0.294753 -0.631967 0.384827 0.252605 -0.887749
0.125338 -0.387239 -0.423149 -0.353386 -0.422357 -0.834705
0.166039 -0.397 0.0725384 0.813316 -0.573891 -0.0957351
0.259467 0.0889997 0.429023 -0.103808 -0.0926989 0.990268
0.122144 0.16801 -0.496074 0.578003 0.654268 -0.487694
0.473871 0.285823 -0.0258276 0.620234 0.529325 -0.578899
-0.208469 0.330915 -0.459598 -0.711595 0.701316 0.0422801
0.450453 -0.106485 0.151708 0.713163 -0.699854 -0.040037
-0.286067 -0.37271 0.120045 -0.573577 -0.543768 0.612639
0.370782 -0.22538 -0.488119 0.719866 -0.690593 -0.0698156
-0.248365 -0.289368 -0.338467 -0.560228 -0.136583 -0.817
-0.022031 0.199779 -0.613956 0.561044 0.499724 -0.659928
0.0155324 -0.120403 -0.559045 -0.413579 -0.414667 -0.810558
0.150665 -0.422082 -0.296904 0.857796 -0.511938 -0.0458888
0.207776 -0.0333194 -0.598562 0.60501 0.543736 -0.581647
0.698425 0.172608 0.0986878 0.809201 0.44912 -0.378794
0.547814 -0.0201987 0.0441975 0.650219 -0.734347 0.194804
0.213921 -0.301609 -0.511465 -0.502926 -0.424076 -0.753143
0.0468937 -0.135345 -0.568849 -0.326069 -0.464111 -0.823577
0.451551 0.390782 0.18984 0.409941 0.325072 0.852218
-0.188864 -0.307674 -0.362136 -0.355054 -0.407779 -0.841221
-0.20165 0.362772 0.0639145 -0.705743 0.708359 -0.0124095
0.46652 0.016676 -0.292882 0.654951 0.503173 -0.563788
-0.200374 -0.20517 0.232106 -0.146352 0.808756 0.569645
0.0198381 -0.280559 0.130725 0.436507 0.35687 0.825897
0.330522 -0.251942 -0.275233 0.582176 -0.789835 0.192954
-0.114046 0.195014 -0.614352 -0.408859 -0.391149 -0.824522
-0.221468 0.339897 -0.0350417 -0.745194 0.66133 0.0856054
-0.413233 0.112171 -0.41073 -0.782695 0.225632 -0.580068
0.455141 -0.0328223 0.364413 0.367196 0.4858 0.7932
-0.080986 -0.621901 -0.000168487 0.258053 -0.891885 0.371416
0.165112 0.507764 -0.132138 0.605398 0.544089 -0.580913
0.544614 0.274667 0.187885 0.814964 -0.257206 0.519306
0.0455463 0.566355 0.246347 0.227553 0.517775 0.824699
-0.483552 -0.024396 0.177035 -0.588913 -0.524632 0.61477
-0.120138 0.130794 0.0401454 -0.548211 -0.627013 0.553462
0.543455 -0.0300371 0.024121 0.702766 -0.706084 -0.0869831
-0.284706 0.259671 -0.424218 -0.696678 0.716498 -0.0356387
0.447585 0.126179 -0.200026 0.723704 0.485921 -0.490035
0.525602 0.183778 0.212756 0.475956 0.419637 0.772897
-0.136246 0.366991 0.248581 -0.653051 -0.483543 0.582847
-0.184433 0.0449908 -0.49939 -0.454273 -0.364358 -0.812945
0.151168 -0.0491196 0.2149 -0.55816 -0.575698 0.59752
-0.349566 -0.331107 0.0345069 -0.603893 -0.511978 0.610894
0.307002 -0.0500146 0.30361 -0.49519 -0.653584 0.572376
-0.571519 -0.00731206 -0.126241 -0.716823 0.693749 0.0698372
0.170396 0.605523 -0.0383209 0.491297 0.713525 -0.499509
0.402084 0.268553 -0.112432 0.565999 0.58969 -0.576118
0.167058 0.0339545 -0.576928 0.501049 0.654964 -0.565661
-0.241721 -0.238778 0.256448 -0.721539 0.36342 0.589328
-0.350399 0.204676 -0.185982 -0.738373 0.67195 0.0573518
-0.0148244 0.528821 -0.267051 -0.315125 0.895166 -0.315236
0.45242 -0.0383713 -0.357323 0.626074 0.525452 -0.576135
-0.149944 0.415128 0.0783413 -0.692752 0.715087 -0.0935175
0.203461 0.0960868 0.405828 -0.567268 -0.596812 0.56747
0.46597 -0.0734142 -0.373996 0.618698 0.495048 -0.610033
-0.386088 0.177165 -0.0877783 -0.686157 0.725768 -0.0494865
0.276273 0.187757 0.38304 0.49788 0.508181 0.702757
0.247046 -0.115306 0.179612 -0.554641 -0.589461 0.58729
0.363166 -0.210071 -0.156427 0.740234 -0.669562 -0.0611522
-0.174203 0.320393 -0.63528 -0.0352886 0.257569 -0.965615
0.573621 0.270033 0.058312 0.68561 0.485938 -0.542036
-0.0688685 -0.619779 -0.191227 0.453723 -0.71072 -0.537599
0.054076 0.371273 0.341179 0.403166 0.39697 0.824543
0.160032 0.459178 -0.186422 0.561471 0.601637 -0.56814
0.406006 0.417136 0.147025 0.316686 0.478003 0.819282
0.0970119 0.245405 0.365728 -0.298453 -0.315282 0.900846
0.436744 0.429918 0.133362 -0.600437 0.788725 0.131864
-0.177228 0.376671 -0.124985 -0.700266 0.713882 0.000181337
0.463454 0.4496 0.118398 0.791136 0.558428 -0.249525
0.126897 -0.0999078 0.140221 -0.381796 -0.753783 0.53483
-0.554233 -0.242146 -0.169605 -0.385774 -0.416132 -0.823415
-0.601602 -0.160136 -0.183355 -0.294178 -0.480329 -0.826283
0.315085 0.233176 -0.24234 0.642188 0.526007 -0.557595
0.38552 -0.0736007 -0.459613 0.708455 0.418914 -0.567982
0.354463 -0.0656346 -0.484033 0.586893 0.572674 -0.572364
-0.267797 -0.0215204 -0.424373 -0.417938 -0.334049 -0.844831
0.266543 -0.0793673 0.229586 -0.633018 -0.495128 0.595094
0.00373141 0.0125672 0.048675 -0.56292 -0.628065 0.537267
0.283456 -0.185078 -0.607727 -0.227788 -0.408777 -0.88375
0.282674 -0.30433 -0.500422 0.687475 -0.722618 -0.0721211
0.133717 -0.211845 -0.518784 -0.354519 -0.359151 -0.863323
-0.142582 0.409372 -0.164987 -0.684204 0.722969 -0.095812
0.605526 0.121999 -0.0464667 0.594602 0.555311 -0.581445
-0.523173 -0.151405 -0.234035 -0.293303 -0.419221 -0.859201
-0.15434 -0.0631996 0.102087 0.358472 0.427057 0.830132
-0.0755584 -0.511142 0.133934 -0.550897 -0.565336 0.613928
0.25398 -0.177756 -0.598103 -0.181853 -0.464087 -0.866921
0.27518 -0.234479 0.0955848 -0.524488 -0.622107 0.581287
-0.283691 0.257592 -0.439337 -0.703139 0.710728 -0.0214538
0.0800629 -0.201534 -0.536103 0.214149 -0.655267 -0.724407
0.261703 -0.246407 -0.568748 -0.494554 -0.549563 -0.673347
-0.167984 0.377642 -0.332071 -0.573673 0.811547 -0.110867
0.421803 -0.163613 -0.32671 0.71852 -0.659602 -0.220578
0.408678 -0.182677 -0.411625 0.686192 -0.725077 0.05834
0.197098 0.572066 0.171559 0.398337 0.453402 0.797342
-0.30626 -0.325278 0.141264 -0.700922 -0.376684 0.605655
0.0816108 0.639237 0.146501 -0.645223 0.761143 0.0659491
-0.143394 0.315345 -0.627136 0.469917 0.337873 -0.815487
-0.352572 -0.166077 0.169217 -0.5871 -0.533819 0.608565
0.249465 0.0635515 -0.471097 0.626161 0.497489 -0.600356
-0.0218637 -0.138046 0.122918 0.390942 0.414013 0.822045
-0.121681 0.26145 0.161231 -0.626669 -0.451978 0.634824
-0.297526 0.0737417 0.0974454 0.180441 0.418064 0.890316
0.00550004 -0.0958461 -0.569641 -0.25614 -0.545994 -0.797673
-0.327019 -0.0419008 0.177397 0.322537 0.485889 0.812331
0.569884 0.0782242 -0.12551 0.634583 0.450179 -0.628206
0.013938 0.304927 0.346912 -0.613797 -0.510476 0.602219
0.605397 0.0371141 0.0525123 0.621759 -0.770425 0.14093
0.134035 -0.371628 0.12124 0.478051 0.233268 0.84679
0.40049 0.125227 0.302527 0.366749 0.399396 0.840225
0.41114 -0.163133 -0.0997988 0.710357 -0.703422 0.0242805
-0.342299 -0.319702 -0.231295 -0.426913 -0.500566 -0.753113
0.291022 -0.094534 0.241374 -0.648475 -0.481324 0.589752
-0.433465 0.12555 -0.191436 -0.70046 0.713056 -0.0301229
0.148903 0.66527 0.139176 0.258478 0.605841 0.752426
0.05649 -0.264631 0.104263 0.205809 0.399697 0.893244
-0.439081 -0.458671 -0.112451 -0.889439 -0.0873931 0.448621
-0.169138 0.0206606 0.0671468 0.476508 0.29146 0.829452
0.350703 -0.224 -0.196503 0.721346 -0.692219 -0.0221851
-0.203608 -0.264946 -0.375895 -0.495905 -0.331465 -0.802626
0.00658705 -0.562406 -0.23398 0.480293 -0.875261 -0.056899
-0.0442939 0.22921 0.207028 -0.600477 -0.546933 0.583345
-0.0984497 0.448665 -0.258914 -0.665778 0.740136 -0.094543
0.515484 -0.0468193 0.145973 0.73057 -0.682829 0.00350277
0.0805105 -0.483791 -0.118645 0.690379 -0.722277 0.0411462
0.603642 0.0286176 -0.0872386 0.788906 -0.61186 -0.0570464
0.32043 0.323749 0.246236 -0.641382 0.765618 0.0495808
0.351884 -0.0685492 0.33433 -0.510659 -0.629513 0.585611
