ply
format ascii 1.0
comment Created by Open3D
element vertex 512
property double x
property double y
property double z
property double nx
property double ny
property double nz
end_header
-0.297054 -0.0731127 -0.173083 -0.658135 -0.352292 0.665393
0.247937 0.0671823 0.339304 -0.204058 0.924357 0.322373
0.137397 -0.051559 0.260649 -0.412836 -0.57748 -0.704331
0.0736357 -0.0239899 0.220716 -0.662973 -0.347453 0.663132
0.3352 0.111466 0.283818 0.168694 -0.949141 -0.265844
0.283092 -0.08918 0.184153 0.796038 -0.0903571 0.598464
-0.286289 0.171768 -0.216061 -0.201148 0.926778 0.317211
-0.0485459 -0.117455 -0.161411 0.394426 -0.906012 -0.153529
0.375827 0.0287951 0.336048 0.756036 -0.0669903 0.651093
-0.0242241 0.0806687 0.120623 0.733363 -0.0685168 0.676376
-0.226016 0.0392991 -0.247412 -0.73256 0.0636109 -0.677723
0.0355799 0.0989183 0.00975068 -0.527767 0.60372 0.597481
-0.0714936 -0.104162 -0.226173 0.205798 -0.945353 -0.252895
0.150806 -0.0314085 0.240268 -0.342941 -0.596291 -0.72583
-0.309489 0.068358 -0.273011 0.709746 -0.70439 0.00980424
0.315026 -0.170973 0.268758 0.918027 0.0568953 0.392414
-0.348981 0.15034 -0.230108 -0.621633 0.141254 -0.770467
0.263452 -0.00553683 0.3594 -0.0605519 -0.986993 -0.148926
-0.14686 0.0917597 -0.0518502 0.711729 -0.0616757 0.699742
0.15629 -0.0196051 0.219533 -0.16556 -0.784675 -0.59739
-0.217345 0.176576 -0.191063 -0.155168 0.963122 0.219817
0.245702 -0.117817 0.218238 0.771735 -0.020935 0.6356
-0.195873 -0.0970897 -0.332455 0.207824 -0.920875 -0.329847
0.199965 0.0591193 0.355924 0.19678 -0.935751 -0.292656
-0.217935 0.0178197 -0.165001 0.614568 -0.765506 0.190542
0.111554 0.042745 0.293652 -0.717131 -0.342347 0.607059
0.260864 -0.153757 0.280836 -0.190233 0.938326 0.288713
-0.0595501 0.0198311 -0.0274624 -0.177122 0.943483 0.280122
-0.299226 -0.15574 -0.21842 -0.646742 -0.370669 0.666581
-0.19929 0.0232188 -0.196372 0.622667 -0.69013 0.368792
0.196623 -0.101886 0.123832 -0.195919 0.939666 0.280434
0.198672 0.000803336 0.302049 0.222963 -0.919016 -0.325111
0.177041 -0.0636163 0.0328021 0.660545 0.347451 -0.665551
0.378713 0.0535582 0.297392 0.674794 0.314654 -0.667567
0.105248 0.0635533 0.232076 0.516324 0.429379 0.740974
0.191309 0.0436597 0.107152 0.660168 0.350357 -0.6644
0.298751 0.128965 0.303123 -0.165818 0.949169 0.267549
-0.0358327 -0.0612442 -0.0193242 0.723054 -0.367486 0.584933
0.345676 0.0912209 0.352312 0.20369 -0.924695 -0.321635
-0.20905 0.172641 -0.163883 -0.456747 0.875632 -0.157007
0.0542881 -0.0612245 0.18276 -0.706395 -0.263672 0.656874
-0.250409 0.121191 -0.291148 0.678615 0.318642 -0.661777
0.321077 0.123437 0.278727 0.703869 0.305296 -0.641375
0.253496 0.0152452 0.419881 -0.652175 -0.357987 0.668217
-0.134678 -0.148063 -0.134046 0.195988 -0.930737 -0.308734
0.145153 -0.134903 0.209346 -0.51001 0.860032 0.0153486
-0.176884 -0.0108728 -0.0220274 -0.697775 -0.25741 0.668469
0.108047 0.116423 0.140793 -0.178261 0.943909 0.277956
0.305429 0.0762402 0.381565 -0.515107 0.155752 -0.842856
0.376793 -0.168151 0.269794 0.240022 -0.89915 -0.365948
0.261176 0.0813172 0.303468 -0.191423 0.940222 0.281675
-0.127815 -0.0455563 -0.249879 0.169401 0.791887 0.586701
0.383225 0.110408 0.335826 0.718172 -0.059343 0.693331
0.249639 -0.0528279 0.160194 -0.75149 0.293257 -0.590985
0.290842 -0.0637127 0.148126 0.652226 0.365357 -0.664165
0.00163293 0.0186171 -0.037271 0.722544 -0.0665373 0.688116
-0.0913742 0.0352092 -0.0901252 -0.178009 0.945177 0.273778
0.291633 0.0916818 0.22954 0.607941 0.383912 -0.694995
0.13065 -0.0316212 0.119443 0.749917 -0.278244 0.600171
0.184127 0.074905 0.27852 -0.23425 0.910344 0.341176
0.0888694 0.0461209 0.253864 0.376388 0.624926 0.683959
0.140591 0.0162093 0.308402 -0.635819 -0.393646 0.663911
0.138824 -0.0336138 0.013403 0.672803 0.324257 -0.664977
0.1278 -0.0310745 0.26963 -0.704928 -0.298645 0.643341
0.286226 0.11552 0.208905 -0.196907 0.934977 0.295035
-0.139812 -0.0328254 -0.26322 0.665808 0.34328 -0.662464
0.298575 0.11125 0.259877 0.148858 -0.961078 -0.232744
0.134299 -0.0312025 0.238439 -0.115372 -0.780765 -0.614081
0.0810915 0.00902728 0.130992 -0.710304 0.0786944 -0.699482
-0.16987 -0.0386622 -0.295934 0.666813 0.340575 -0.662849
0.30772 -0.14279 0.311477 -0.646378 0.421006 0.636356
0.365536 0.0590502 0.286464 0.662524 0.349293 -0.662613
-0.178927 -0.0569164 -0.0731165 -0.719085 0.114864 -0.685363
-0.318084 0.138157 -0.145041 -0.19905 0.926774 0.318543
0.103921 -0.0226844 0.186811 0.600199 -0.795246 0.0857057
0.168821 0.138263 0.2029 -0.204426 0.950151 0.235422
-0.241979 -0.0532526 -0.239673 -0.722952 0.0629432 -0.688025
-0.120524 -0.135794 -0.167974 0.177576 -0.946816 -0.268339
-0.0999563 -0.0115578 0.0548817 -0.676568 -0.332083 0.65725
-0.300195 0.165921 -0.309121 0.111121 -0.960703 -0.254366
0.1031 0.0403312 0.258263 -0.0807617 0.898723 0.431015
-0.365272 0.0812343 -0.304538 0.529337 -0.163079 0.832591
-0.230096 0.0985988 -0.0771637 -0.774902 0.316078 -0.547377
0.0361881 -0.135335 0.060365 -0.324582 -0.654154 -0.683176
-0.400111 -0.135984 -0.319658 -0.741761 0.0765865 -0.666277
0.219288 -0.144418 0.0936804 0.176275 -0.254125 0.950972
0.391044 -0.120954 0.259019 -0.195761 0.934774 0.296436
0.331802 0.101785 0.308505 0.2024 -0.932682 -0.29856
0.252544 0.0863901 0.402208 -0.221349 0.922843 0.315222
0.247949 0.0572992 0.393821 0.223888 -0.921724 -0.316701
0.00288117 0.0684465 0.0397674 -0.75827 0.117944 -0.641183
0.154 -0.138379 0.238372 -0.632336 -0.356246 0.687924
0.203452 0.144117 0.196886 0.0827928 0.763031 0.641038
0.316518 0.129617 0.298924 -0.173278 0.953207 0.247733
-0.186303 0.0488783 -0.0116203 0.672446 -0.0805562 0.735749
0.351839 0.115118 0.259652 -0.199875 0.930968 0.30553
0.017667 -0.0709413 -0.117103 0.674145 -0.684938 0.276385
0.170069 0.0625549 0.302203 -0.166422 0.951259 0.259635
-0.164884 0.0257457 -0.257277 0.629711 0.387542 -0.673257
-0.405485 0.125775 -0.280771 -0.223039 0.920885 0.319724
0.11556 -0.148555 0.0500166 -0.0122044 -0.90713 -0.420673
0.184396 0.0707827 0.285795 -0.19762 0.933521 0.29914
0.161987 0.0744357 0.193591 0.119277 0.879078 0.461513
0.20073 0.0716026 0.293806 -0.257085 0.900931 0.349615
0.314706 -0.172143 0.240962 0.202553 -0.931468 -0.302224
-0.400964 0.156848 -0.248412 -0.188327 0.950035 0.248932
-0.0517364 -0.0387546 0.0903495 -0.680879 -0.322103 0.657765
-0.0811962 0.0806691 -0.120984 0.7028 -0.138152 0.697844
0.114036 -0.0198407 0.156105 0.647044 -0.699114 0.30426
-0.196719 -0.0381268 -0.287537 -0.722026 0.0632472 -0.688969
0.161544 0.0318064 0.0708712 0.634586 0.374143 -0.676253
0.184785 0.0630468 0.333004 0.197691 -0.927588 -0.317015
-0.226299 -0.00424404 -0.250918 -0.731835 0.0579455 -0.679014
-0.142927 -0.104452 -0.278451 0.204485 -0.940862 -0.27012
-0.16407 0.130897 -0.0862951 -0.125318 0.954366 0.271072
0.120385 -0.0970177 0.136853 0.433241 0.508905 0.743854
0.225468 0.0784322 0.405122 -0.161494 0.962003 0.220161
-0.439551 0.133767 -0.250038 -0.726851 0.0644921 -0.683761
0.111064 0.100957 0.109791 -0.720307 0.065793 -0.690528
-0.312768 0.105958 -0.0942439 -0.62866 -0.401074 0.666278
0.0273222 0.136688 0.0212596 -0.132967 0.956449 0.259855
-0.288134 -0.11906 -0.188582 -0.597559 -0.422221 0.681654
-0.0986534 -0.0305745 0.0473802 -0.654291 -0.368621 0.66032
0.315842 -0.126908 0.245315 -0.363813 0.929011 -0.0676622
-0.308724 0.115516 -0.085698 -0.652757 -0.363029 0.66492
0.219585 -0.0853219 0.249597 0.669312 -0.0582952 0.740691
-0.328868 -0.0968796 -0.284513 -0.25922 0.768917 0.584441
-0.105375 -0.0289542 -0.147512 -0.79054 0.249051 -0.559481
-0.0900668 -0.142329 -0.0785521 0.460517 -0.887247 0.0267741
-0.178534 -0.111076 -0.297965 0.200188 -0.930381 -0.307109
-0.20833 -0.142721 -0.119384 -0.66644 -0.33064 0.668233
-0.354639 0.106911 -0.302687 0.094141 -0.337579 0.936578
-0.33186 0.0967297 -0.123352 0.182002 -0.939369 -0.290621
-0.261099 -0.106885 -0.342973 0.134235 -0.957563 -0.255056
-0.343715 0.155838 -0.274889 -0.746982 -0.321277 0.582065
-0.385682 0.108929 -0.166259 -0.673733 -0.31041 0.670619
0.162425 -0.0223532 0.221873 -0.23055 -0.69212 -0.683972
-0.294808 -0.0942958 -0.406939 0.201369 -0.930882 -0.304808
-0.181599 0.176254 -0.191884 0.645776 -0.738847 0.192555
0.00191417 0.100996 0.0954889 0.807999 -0.0237519 0.588705
-0.243085 -0.124592 -0.276375 0.142671 -0.957248 -0.251637
0.250474 -0.164887 0.178282 0.279928 -0.907718 -0.31255
-0.227064 0.157755 -0.146828 -0.613884 0.739815 -0.275354
-0.246582 0.144796 -0.235285 -0.22474 0.916247 0.331637
-0.0940395 0.0112722 0.0620279 0.742819 -0.0495652 0.667655
-0.193056 -0.126539 -0.24099 0.2031 -0.926486 -0.316817
0.0792317 -0.13282 0.0391256 -0.206775 -0.777322 -0.59415
0.268305 0.0801146 0.317222 -0.22944 0.89528 0.381877
-0.18328 0.033736 -0.207998 0.64752 -0.713377 0.267974
0.149828 -0.010789 0.107459 0.696093 -0.525812 0.488852
0.265205 -0.13205 0.0862404 0.701073 0.321669 -0.636417
0.244752 0.0934742 0.252103 -0.19558 0.936474 0.291144
-0.268722 0.155863 -0.259183 0.20108 -0.93252 -0.299956
-0.222072 -0.124766 -0.271618 -0.715794 0.0702691 -0.694767
-0.00702231 0.008952 -0.0286601 0.730938 -0.066432 0.679203
0.022018 0.119941 0.0740865 -0.196003 0.950447 0.241317
-0.344217 0.156485 -0.277689 -0.646411 -0.390993 0.655192
0.274349 -0.144883 0.10012 0.17071 -0.94448 -0.280743
-0.279781 -0.0887079 -0.202289 -0.756217 0.0731641 -0.650218
-0.328921 0.0550888 -0.137173 -0.686485 -0.309233 0.658114
0.366395 0.10181 0.342862 0.202877 -0.906739 -0.369681
-0.0817707 -0.0758322 -0.225022 0.680747 0.33733 -0.650225
0.138853 0.118745 0.190311 -0.754172 0.469702 -0.458916
0.328984 0.0789891 0.37646 0.264761 -0.904845 -0.333401
0.338147 0.102741 0.287362 -0.208174 0.91928 0.334048
0.204046 -0.195766 0.21893 0.177558 -0.947584 -0.265629
0.211519 -0.0218611 0.264951 0.701866 -0.0532814 0.710314
-0.222658 0.140229 -0.176456 0.167949 -0.947203 -0.273129
-0.0667349 0.12442 -0.00491377 -0.751986 0.0633036 -0.656133
-0.292824 0.159018 -0.32972 0.217882 -0.916287 -0.336075
0.0451368 -0.136155 0.0556844 -0.293191 -0.70617 -0.644487
0.164367 0.0885824 0.173883 0.396359 0.587314 0.705664
-0.164551 0.0408145 -0.234553 0.675896 -0.634447 0.375022
-0.333488 0.140751 -0.362116 -0.734602 0.0589917 -0.675929
-0.336525 0.149495 -0.288071 0.198883 -0.933516 -0.298317
-0.208321 0.14799 -0.191123 0.209669 -0.921767 -0.326166
-0.0201272 -0.0258087 -0.0206108 0.731474 -0.189284 0.65507
-0.343725 0.0750678 -0.138795 -0.644816 -0.357021 0.675832
0.228657 0.126585 0.1632 0.698306 -0.113524 0.70674
-0.293997 0.130262 -0.0955023 -0.190394 0.932331 0.307423
0.0919041 0.0230025 0.0701033 -0.197764 0.938714 0.28232
-0.00973627 0.095475 0.108167 0.725764 -0.0719699 0.684169
0.110152 -0.0874146 -0.0240757 -0.3561 -0.634204 -0.686279
-0.360369 0.0487496 -0.259636 0.18944 -0.940506 -0.282066
-0.155529 -0.0830742 -0.164421 -0.341243 0.93601 0.0862477
-0.130128 0.0413356 -0.162767 -0.121131 -0.782311 -0.610996
0.289524 -0.181144 0.350809 -0.664808 -0.336453 0.666956
0.107004 -0.0163983 0.255984 -0.682084 -0.32205 0.65654
0.132559 0.123732 0.213452 -0.535513 0.836968 -0.112743
-0.131719 0.14091 -0.0982698 -0.193846 0.929007 0.31523
-0.0128077 0.0131928 -0.113236 0.699951 0.302754 -0.646845
0.156026 -0.175243 0.223952 -0.656903 -0.35545 0.664932
-0.225159 0.0153108 -0.114287 0.251219 -0.935742 -0.24754
-0.321784 0.090038 -0.27466 -0.975102 -0.221206 -0.0156492
0.207287 0.0144857 0.373155 -0.671497 -0.337575 0.659647
-0.340614 0.185838 -0.302209 -0.25378 0.891663 0.374877
-0.325345 -0.131183 -0.306772 0.19768 -0.933821 -0.298161
0.260255 0.061219 0.184101 0.647947 0.362776 -0.669745
0.0616032 0.140828 0.0287074 0.673874 0.306461 -0.672292
0.195135 -0.0444615 0.280327 0.763714 -0.0639523 0.64238
-0.196581 0.150991 -0.192361 0.668442 -0.0519241 0.74195
0.227362 -0.1466 0.108838 0.269292 -0.892548 -0.361719
0.275149 -0.00912831 0.342033 -0.634665 -0.771253 0.0486739
0.0414375 0.114259 0.00340878 -0.729812 0.0799972 -0.678952
-0.183334 0.16954 -0.148959 -0.0112702 -0.84558 -0.53373
-0.326332 -0.0898294 -0.302518 0.321373 0.215265 -0.922161
-0.33799 -0.0950549 -0.351974 0.768997 -0.0337197 0.638363
0.259664 0.0215995 0.282344 0.196497 -0.935347 -0.294135
-0.372495 0.0609502 -0.178466 -0.695798 -0.320793 0.642617
0.0209481 -0.000416846 0.0155652 -0.713275 0.0783922 -0.696486
0.245991 -0.00762971 0.230322 0.763446 -0.0358801 0.644874
-0.132487 0.034767 -0.0738475 0.700679 -0.0595537 0.710987
0.127309 0.134926 0.0938273 0.688929 0.341366 -0.63941
0.261655 -0.164201 0.316272 -0.189262 0.939805 0.28451
0.0110258 -0.0293855 0.155165 -0.687537 -0.297358 0.662473
-0.333584 0.135407 -0.267319 -0.95554 -0.247663 0.160021
-0.0826689 0.106111 0.052943 -0.201186 0.929686 0.308557
0.273785 -0.199283 0.303925 0.200487 -0.932931 -0.299073
0.281063 0.0630334 0.324032 0.39152 -0.156377 0.906785
-0.278273 -0.0629027 -0.358449 0.039637 0.987903 0.14992
-0.359126 -0.139324 -0.265568 -0.654337 -0.367039 0.661155
0.0838438 0.0245865 0.132877 -0.722362 0.0653404 -0.688421
0.170223 -0.077525 0.290619 -0.653226 -0.356909 0.667766
-0.191222 0.124056 -0.231444 0.670699 0.32643 -0.666038
0.279745 0.0949366 0.270552 -0.203374 0.944498 0.257996
-0.00847181 -0.130257 0.0820718 -0.661795 -0.345595 0.665275
-0.230117 0.0126506 -0.11046 0.324854 -0.92943 -0.175012
-0.193363 0.0217053 -0.119651 0.0733029 -0.904005 -0.421191
-0.361586 -0.139841 -0.272809 -0.623779 -0.366481 0.690356
-0.160821 0.127189 -0.160331 -0.667768 0.681608 -0.299161
-0.40869 0.0494106 -0.22013 -0.654727 -0.358614 0.665379
-0.292767 0.10958 -0.0908523 0.710144 -0.352835 0.609265
-0.165201 0.100666 -0.0314875 0.73243 -0.0609314 0.678111
-0.192299 0.179043 -0.168849 -0.427327 0.903663 0.028032
-0.0330965 0.118172 -0.0163655 0.667078 -0.297912 -0.682829
-0.10451 0.0740656 -0.172355 0.693022 0.314455 -0.648721
0.206236 -0.176105 0.161519 0.153431 -0.969585 -0.190694
-0.357548 0.108749 -0.342909 -0.734008 0.0779007 -0.674658
0.37802 0.102835 0.294005 0.197654 -0.934596 -0.295744
0.281314 0.129813 0.281717 -0.244443 0.914292 0.322983
-0.187519 0.16869 -0.195781 0.769351 -0.474962 0.427211
-0.154559 -0.160299 -0.105834 0.191309 -0.939498 -0.284154
-0.218899 -0.0574896 -0.344186 -0.153618 0.955223 0.252884
-0.243187 -0.0520516 -0.367182 -0.207085 0.927835 0.310223
-0.0491584 0.0753857 0.14668 0.728519 -0.0648414 0.68195
-0.158605 -0.110535 -0.292574 0.198782 -0.926472 -0.319587
0.0287095 -0.101942 0.0371957 -0.471249 -0.496414 -0.729039
-0.133749 0.103281 -0.182279 0.615712 0.401309 -0.678122
0.137751 0.112826 0.199293 0.736348 -0.544294 0.401916
0.0721727 -0.171632 0.139665 -0.652511 -0.394109 0.64723
-0.229586 0.177732 -0.206072 -0.230276 0.913223 0.336149
-0.4081 0.0694805 -0.206699 -0.665172 -0.336634 0.666501
-0.190944 0.121133 -0.231206 0.664603 0.341968 -0.66435
-0.19978 -0.163021 -0.122813 -0.63935 -0.426366 0.639878
-0.188338 0.114235 -0.126853 -0.676873 0.613969 -0.40606
0.158866 -0.127561 0.197529 -0.479802 0.877345 -0.00751509
-0.409336 0.0437556 -0.2286 0.197201 -0.927897 -0.316415
-0.395421 0.150367 -0.255501 0.983831 0.158846 0.0827362
0.184806 0.000874211 0.179985 -0.17556 -0.831999 -0.526267
0.32743 -0.204271 0.357157 0.186935 -0.953991 -0.234428
-0.36022 -0.142863 -0.296757 0.200915 -0.924673 -0.323441
0.142257 -0.0152957 0.21405 -0.0194789 -0.889941 -0.455659
0.0567248 0.102996 0.00152053 0.645131 0.38384 -0.660661
-0.110895 0.0214517 -0.0610229 -0.202489 0.932213 0.299962
-0.238615 0.156913 -0.244601 0.176187 -0.947389 -0.267231
-0.184709 0.159809 -0.202266 0.769555 -0.250848 0.587248
-0.0202521 -0.0233063 0.0554513 -0.678084 0.0687431 -0.731762
0.190695 -0.200323 0.244544 0.212321 -0.950754 -0.225803
-0.194928 -0.0951625 -0.153496 -0.125626 0.935803 0.329379
0.322209 0.110243 0.229553 0.139038 -0.960405 -0.241434
0.0758628 0.0817815 0.0154764 0.7394 -0.0781 0.668721
0.217437 0.124384 0.174168 -0.664675 -0.33519 0.667723
0.282716 -0.14001 0.252969 -0.158612 0.963102 0.217432
-0.160712 -0.150351 -0.0775798 -0.599083 -0.362152 0.714105
-0.0578359 -0.116828 -0.181621 0.274358 -0.926037 -0.259196
0.106593 -0.122766 0.0135593 -0.217642 -0.77295 -0.59597
0.0607793 -0.112846 0.160129 -0.661862 -0.264141 0.701547
0.166961 -0.0367814 0.040629 0.572491 0.403452 -0.713779
-0.30735 -0.148753 -0.265086 0.188912 -0.950597 -0.246328
-0.148856 -0.13068 -0.0547531 -0.583059 -0.392491 0.711332
0.209435 -0.175024 0.275789 -0.701203 -0.245916 0.669208
0.300267 -0.181352 0.263948 0.201551 -0.908302 -0.366557
-0.138013 0.123288 -0.17788 0.659767 0.350634 -0.664653
-0.105201 -0.0954833 -0.25928 0.685971 0.322394 -0.652308
-0.389457 0.17274 -0.302729 -0.719213 0.0652959 -0.691715
-0.27735 0.10854 -0.132345 -0.188257 0.898881 0.395693
0.348546 0.0870969 0.283816 0.664437 0.331955 -0.669574
0.312485 0.0938791 0.406284 0.693441 -0.07247 0.716859
-0.115583 0.0123338 0.0513898 -0.670812 -0.343866 0.65709
0.304537 0.0669671 0.39849 0.174492 -0.943573 -0.281467
-0.270126 0.125335 -0.164452 0.197739 -0.937075 -0.28773
0.337059 0.103753 0.285475 -0.220978 0.911652 0.346495
-0.175027 0.139252 -0.118359 -0.160112 0.970945 0.177845
-0.220941 -0.0782268 -0.262952 -0.754225 0.0785917 -0.651895
0.169585 -0.0402962 0.0769171 0.696401 0.0845791 0.712651
-0.383063 0.104394 -0.164724 -0.600786 -0.421948 0.678982
0.0040092 -0.125687 0.0669408 -0.296605 -0.569076 -0.766927
0.368483 -0.141808 0.32602 0.069764 0.862235 0.501681
-0.20957 0.0691567 -0.00849438 -0.673029 -0.309292 0.671842
0.2144 -0.193656 0.244385 0.198331 -0.929769 -0.310152
0.254634 0.104977 0.202445 0.681821 0.309975 -0.662597
-0.124825 -0.0919443 -0.0122849 -0.637599 -0.392166 0.663078
-0.000666248 -0.0909225 -0.139568 0.603679 -0.794365 0.0675012
0.17031 -0.0428535 0.0396314 0.689461 0.260086 -0.676016
-0.348525 0.120027 -0.227528 -0.234162 0.901565 0.363798
0.229326 0.0684205 0.342968 0.232639 -0.924521 -0.301893
0.182108 0.128471 0.224385 0.309716 0.725745 0.614305
0.0652234 0.076541 -0.00231063 0.649858 0.352844 -0.673191
0.237889 -0.177131 0.178795 0.180969 -0.947492 -0.263647
0.310838 0.0195394 0.293366 0.24681 -0.611038 -0.752142
0.29843 0.0614797 0.411418 0.221938 -0.917574 -0.329849
0.240191 0.0335015 0.148069 0.676068 0.32192 -0.662797
-0.134228 -0.116098 -0.230873 0.233599 -0.899424 -0.369415
-0.346603 0.146723 -0.285622 0.190201 -0.938762 -0.287314
-0.355022 -0.0754904 -0.344327 -0.741267 0.66857 0.0594797
0.17542 -0.11202 0.218629 -0.733079 0.597037 -0.325795
-0.00668828 -0.0465957 -0.0462859 0.764371 -0.355769 0.537741
-0.00249017 -0.0672075 0.12228 -0.687308 -0.303395 0.659969
-0.36081 -0.120349 -0.359864 -0.728769 0.0607569 -0.682059
0.235058 0.0617063 0.424243 -0.645212 -0.370233 0.668303
0.187731 0.0528386 0.370256 0.235653 -0.911808 -0.336264
0.0335988 0.0796587 0.0590439 0.680766 -0.088517 0.727133
0.274183 -0.0453851 0.13994 0.69086 0.340848 -0.637601
0.287054 0.0467473 0.317537 0.405179 -0.196549 0.89286
-0.32695 0.121636 -0.211847 -0.198075 0.938884 0.281536
0.28965 0.0293532 0.369287 0.269975 0.348767 -0.897483
-0.354576 0.14611 -0.311512 -0.204029 0.922835 0.326722
-0.169294 -0.104924 -0.313805 0.210426 -0.914037 -0.346781
0.138864 0.0564636 0.221088 -0.183338 0.903974 0.386287
-0.250948 0.157529 -0.156595 -0.171677 0.944325 0.280673
-0.0687955 0.0583848 0.124063 -0.646627 -0.375581 0.663937
0.115367 0.0580273 0.30764 -0.652789 -0.356997 0.668147
-0.328698 -0.145324 -0.272269 0.237938 -0.900955 -0.362858
-0.207019 -0.125226 -0.27537 0.215261 -0.927936 -0.304298
-0.273983 0.176714 -0.234978 -0.172644 0.952821 0.249652
0.326804 0.090425 0.392509 0.701569 -0.0511516 0.710764
0.25366 0.0753193 0.342297 0.201709 -0.929012 -0.310243
0.246738 -0.145605 0.244778 -0.211514 0.922825 0.321955
0.191966 -0.10112 0.0317476 0.66952 0.332787 -0.664075
-0.200347 0.124274 -0.0928096 -0.193621 0.936067 0.293751
0.291704 0.116771 0.211847 -0.214802 0.917878 0.333705
-0.205326 -0.133247 -0.231831 0.734775 -0.0953402 0.671577
0.279636 -0.0530133 0.143427 0.641379 0.378228 -0.667516
0.315032 0.0816376 0.333025 -0.162289 0.955652 0.245747
0.325931 0.025437 0.297135 0.378054 -0.670491 -0.638371
0.422312 -0.114484 0.251965 0.5881 0.422563 -0.689622
0.262777 0.0973234 0.281097 0.183758 -0.940786 -0.284875
0.209647 0.0281129 0.133854 0.0907984 -0.934968 -0.342914
-0.0106476 0.062614 0.102532 0.763423 -0.0310283 0.645153
-0.363383 0.0891532 -0.154048 -0.648819 -0.376632 0.661197
0.189846 -0.0811559 0.223099 -0.733156 0.203976 -0.64875
-0.209029 0.0980917 -0.11764 -0.532616 0.841306 -0.0923304
0.0373316 -0.0225176 -0.00236814 -0.693018 -0.0503051 -0.719163
-0.153058 -0.0795918 -0.138421 -0.57908 0.795727 -0.177439
0.19381 -0.196405 0.249726 -0.705436 -0.284985 0.648956
-0.291254 -0.0612217 -0.373371 -0.192814 0.950803 0.242478
-0.264858 0.082067 -0.255031 0.192449 -0.939883 -0.282104
-0.0386179 -0.0345599 0.0738523 -0.770857 0.0319959 -0.636204
0.165721 0.00971812 0.329876 -0.659488 -0.350654 0.664919
0.178035 -0.162266 0.250279 -0.61639 -0.386119 0.686277
0.288796 0.0868403 0.319418 0.212806 -0.922714 -0.321423
-0.144473 0.0120703 -0.0582214 -0.173222 0.943665 0.281942
0.0606562 0.124931 0.0356751 0.743942 -0.0180529 0.668001
0.244767 0.099644 0.231821 -0.221412 0.901167 0.372659
-0.0364074 0.0617184 0.00816077 0.728615 -0.0612366 0.682181
0.0690526 0.10159 0.0249769 0.760507 -0.069054 0.645647
-0.346797 0.148921 -0.186307 -0.178019 0.941623 0.285754
-0.0193138 -0.113994 0.0747195 -0.501133 -0.382117 -0.776436
0.273253 0.0160004 0.344189 0.924011 0.31336 -0.219109
0.0843827 -0.0411837 -0.0388588 -0.575818 -0.297549 -0.76151
0.189888 0.0573693 0.375364 -0.705771 -0.298356 0.642551
-0.173365 0.0680611 -0.0258412 0.731802 -0.0678279 0.678134
-0.112828 0.0906021 0.0383066 -0.770105 0.0557183 -0.635479
0.000939629 -0.0862873 0.0479056 -0.604583 -0.360851 -0.710117
-0.0842908 0.0411608 0.00253491 -0.723419 0.0647891 -0.687362
-0.23783 -0.147821 -0.152434 -0.658495 -0.351712 0.665344
-0.194143 0.116737 -0.17273 0.0842767 0.805192 0.586995
-0.420565 0.128684 -0.188794 -0.665467 -0.301334 0.6829
0.306282 -0.156155 0.326394 -0.328033 0.799194 0.503669
0.139935 -0.189303 0.1996 -0.670998 -0.333105 0.662422
0.260479 0.0223735 0.160126 0.642164 0.366733 -0.673151
-0.178045 0.16793 -0.138635 0.270681 0.73147 0.625846
0.114937 0.0910048 0.101159 -0.757758 0.0630226 -0.649486
-0.29242 0.152254 -0.26816 0.182713 -0.947512 -0.262368
-0.146953 -0.0793199 -0.145049 -0.55563 0.817077 -0.153821
0.241931 0.074597 0.438056 -0.206433 0.924097 0.321606
-0.245947 -0.0520807 -0.171515 0.585983 0.145593 0.797137
0.176902 0.0928214 0.164219 0.333722 0.621925 0.708406
0.206059 0.0917011 0.23131 -0.173113 0.965644 0.193811
-0.345658 0.091422 -0.338123 0.156523 -0.921258 -0.356068
0.335349 -0.138265 0.255266 0.0875626 -0.273183 0.957969
0.128721 -0.0292801 0.273326 -0.611457 -0.417164 0.67238
-0.195669 0.130013 -0.11076 -0.738446 -0.0808362 -0.66945
-0.129998 -0.0600232 -0.141023 -0.692861 0.616115 -0.374627
-0.358861 0.07082 -0.309589 0.434836 -0.261763 0.861625
0.0934929 -0.0317695 -0.0291338 0.621492 0.393142 -0.677633
0.167683 0.0604208 0.303287 -0.167361 0.961617 0.217446
0.0859847 0.0860199 0.225659 -0.163912 0.965613 0.201803
0.179831 0.0879663 0.119447 0.712234 0.304544 -0.632437
0.0990107 -0.0249898 0.216617 0.348482 -0.929543 -0.120457
0.247231 0.136662 0.241823 -0.172791 0.954441 0.243281
-0.291876 0.0786595 -0.266291 0.287981 -0.906183 -0.309676
-0.265157 0.181753 -0.276242 0.651069 0.357519 -0.669544
0.31145 0.0987019 0.407745 -0.193983 0.945592 0.261201
0.316779 0.0910106 0.30941 -0.158208 0.971182 0.178255
0.201852 0.0311558 0.378074 -0.68581 -0.313638 0.656731
-0.345364 0.153853 -0.297072 0.199134 -0.933664 -0.297686
0.195115 -0.187493 0.185388 0.17644 -0.94373 -0.279717
0.0217233 0.126073 0.0248989 -0.715568 0.0681865 -0.695207
-0.038362 0.0831538 -0.0389413 -0.694188 0.0791337 -0.715431
-0.319167 -0.0842129 -0.35979 0.141048 -0.251239 0.957593
-0.167847 0.00540769 -0.25419 0.716385 -0.0593379 0.695178
0.263425 0.0527098 0.182608 0.686674 0.317997 -0.653725
0.0855244 0.0764628 0.2469 0.743488 -0.289173 0.602997
0.303613 0.132524 0.294333 -0.217635 0.915768 0.337643
-0.337148 -0.0972511 -0.28924 -0.330247 0.72699 0.602016
-0.304726 0.123898 -0.089127 -0.184541 0.949244 0.254718
0.24617 -0.183799 0.238016 0.19583 -0.935715 -0.293409
-0.356592 0.114666 -0.129295 -0.66754 -0.343367 0.660673
0.178435 -0.0578842 0.29409 0.724824 -0.0644067 0.685917
0.206302 -0.0673607 0.0669441 0.27641 0.700708 0.657728
0.221348 0.0300523 0.129022 0.050878 -0.880977 -0.470416
-0.146279 -0.0446743 -0.106891 -0.799561 0.159798 -0.578936
-0.262213 0.101927 -0.121994 0.657313 0.206765 0.724699
0.267364 -0.152025 0.123113 0.185067 -0.946815 -0.263233
0.241056 -0.150977 0.128847 0.141552 -0.953674 -0.265459
-0.156004 0.137668 -0.0977375 -0.197222 0.934995 0.294769
-0.263587 0.0724231 -0.234157 0.210254 -0.928103 -0.307276
0.348267 -0.106838 0.188673 -0.201232 0.926851 0.316944
0.0251433 0.122669 0.0689912 -0.215637 0.921084 0.324199
0.323041 0.0625554 0.245561 0.68535 0.319327 -0.654466
0.316254 -0.00548735 0.369054 0.324178 -0.826158 0.460838
-0.386669 0.104883 -0.263398 0.924826 0.341488 -0.167581
0.164857 -0.140225 0.250868 -0.685287 -0.319486 0.654455
0.00565923 0.0886342 -0.0550633 0.694868 0.291422 -0.657444
0.112037 0.0665445 0.305869 -0.599767 -0.432307 0.673342
0.180259 -0.0723324 0.0376075 0.66403 0.338557 -0.666666
0.390343 0.0622275 0.311451 0.672631 0.338759 -0.657883
0.0889322 -0.0573398 -0.0295182 -0.495418 -0.460642 -0.736457
0.134482 -0.186338 0.143658 0.226616 -0.900156 -0.371973
-0.016434 0.12428 -0.0352333 -0.493246 -0.742703 0.45288
-0.256792 0.00588311 -0.219034 -0.728964 0.115991 -0.674654
-0.383212 0.117033 -0.2836 0.821678 0.0368206 0.568761
-0.237722 0.152268 -0.143547 -0.6555 0.699894 -0.283668
0.188183 -0.0356442 0.287743 0.71224 -0.0545263 0.699815
0.274864 -0.0333985 0.196597 0.76243 -0.0513373 0.645031
-0.0852997 0.0516071 0.0580465 0.80554 -0.0770804 0.587506
0.355032 0.132437 0.322354 -0.195611 0.916872 0.347968
-0.0457043 0.0400612 -0.131631 0.607163 0.4047 -0.683792
0.266942 0.0949274 0.340054 0.675453 -0.094727 0.731293
0.310841 -0.194209 0.36763 -0.622049 -0.372302 0.6888
-0.235247 -0.129754 -0.255867 -0.693348 0.0679718 -0.71739
-0.29237 0.156461 -0.181717 -0.193055 0.936962 0.291258
-0.222385 -0.00210888 -0.0737112 -0.12147 -0.827462 -0.548227
-0.172019 -0.0219297 -0.083014 -0.591283 -0.303081 -0.747346
-0.21083 -0.139239 -0.118668 -0.673008 -0.332463 0.660704
0.202267 0.0938289 0.25394 0.186821 -0.937419 -0.293843
-0.193057 0.0316339 -0.193368 0.608799 -0.769423 0.193269
0.165597 -0.0759459 0.250284 -0.694098 -0.0657301 -0.716874
-0.0269428 0.0424695 0.121861 0.709723 -0.0657833 0.701403
-0.235054 0.13752 -0.210373 -0.213539 0.918718 0.332202
0.0832441 0.0274503 0.050448 -0.200266 0.952032 0.231365
0.21779 0.0385572 0.395805 -0.624695 -0.378873 0.682797
-0.2543 -0.0855258 -0.401609 0.65284 0.35658 -0.668319
0.137066 -0.138158 0.0345629 0.00881315 -0.871951 -0.489513
0.251706 0.117611 0.210064 0.213456 -0.929394 -0.301104
-0.308207 -0.139234 -0.27528 0.207348 -0.925271 -0.317617
-0.195601 -0.130996 -0.10089 -0.663121 -0.345064 0.66423
-0.322578 0.135261 -0.236144 0.202402 -0.92846 -0.311441
0.234769 -0.119461 0.0637513 0.647446 0.358103 -0.672737
-0.330874 0.0656112 -0.134274 -0.676164 -0.301905 0.672053
0.242814 0.103271 0.188879 0.646037 0.379232 -0.662434
-0.314216 0.163609 -0.343884 -0.191736 0.937902 0.289098
-0.165629 0.0451626 -0.221916 0.60902 -0.769431 0.192537
0.231319 -0.185371 0.236678 0.220138 -0.91948 -0.325723
0.349074 0.0644817 0.272132 0.636207 0.373716 -0.674964
-0.139758 -0.152755 -0.0606076 -0.646245 -0.377106 0.663445
0.0937262 0.115818 0.130571 -0.196432 0.933603 0.299667
0.226437 0.130022 0.245715 -0.192093 0.941155 0.278078
-0.196463 0.103061 -0.0198527 -0.202622 0.937833 0.281803
0.277938 -0.180641 0.246919 0.207217 -0.927709 -0.310511
0.275291 -0.186915 0.268438 0.152024 -0.954481 -0.256621
-0.245928 0.0795935 -0.0803045 -0.582546 0.779826 -0.229153
0.313434 -0.166686 0.290002 0.950252 0.234366 -0.205169
0.157506 -0.0108142 0.20611 -0.0800817 -0.834773 -0.544739
-0.0965662 0.0354549 -0.172774 -0.424398 -0.545532 -0.72269
-0.332401 0.101243 -0.359277 0.174234 -0.950349 -0.257837
0.0608149 -0.176963 0.108126 -0.00923934 -0.868857 -0.494976
0.248186 -0.162059 0.300097 -0.232528 0.922961 0.306715
-0.0393835 -0.0471499 -0.00365881 0.77631 -0.287327 0.561057
0.0399467 0.0813092 0.206244 -0.265762 0.912324 0.311505
-0.293512 -0.0909836 -0.358969 -0.641046 -0.281198 0.714134
0.0560648 0.0391652 0.159189 -0.709531 0.0694148 -0.701247
0.107149 0.108304 0.109743 -0.741731 0.0631347 -0.667719
0.273732 -0.163339 0.31901 -0.214507 0.926634 0.308765
0.13185 0.0269098 0.305885 -0.689748 -0.321735 0.64864
0.359635 -0.122925 0.18237 0.665675 0.340675 -0.663941
-0.235079 0.101576 -0.0353867 -0.200195 0.930613 0.306399
0.324289 0.0501241 0.361615 -0.920537 0.0162841 -0.390315
-0.160276 0.142555 -0.125795 -0.197161 0.929135 0.312788
0.125575 0.0835098 0.327833 -0.193436 0.938935 0.284577
-0.00239374 -0.0459573 -0.135677 0.628086 0.384735 -0.676377
-0.0525782 -0.110727 -0.195561 0.264234 -0.908971 -0.322416
-0.182294 -0.120785 -0.269862 0.220872 -0.919451 -0.325309
0.142349 0.0503499 0.317011 -0.183366 0.946175 0.266701
-0.0114382 0.0101531 -0.114256 0.633354 0.410975 -0.655716
-0.286674 -0.0767526 -0.163379 -0.695935 -0.314385 0.645628
-0.0680776 0.119588 -0.00761636 -0.705334 -0.0163088 -0.708688
0.301986 0.12062 0.205176 -0.256624 0.904228 0.341344
-0.143049 -0.0689862 -0.0162523 -0.667948 -0.322885 0.670515
0.203464 -0.0230975 0.271323 0.713694 -0.0563852 0.698184
0.0988123 -0.113136 0.0100547 -0.257363 -0.727436 -0.636082
