ply
format ascii 1.0
comment Created by Open3D
element vertex 128
property double x
property double y
property double z
property double nx
property double ny
property double nz
end_header
-0.485948 0.327116 0.280899 -0.597893 -0.0468722 0.800204
-0.274394 0.448886 0.32054 0.48526 -0.847532 0.214969
0.190431 0.381476 0.244598 -0.584941 -0.492774 -0.644219
0.369614 0.128124 -0.312425 0.699614 0.367786 -0.612595
-0.0870959 0.390703 -0.406396 -0.415073 0.862232 -0.290294
-0.205832 -0.209658 0.0990849 -0.733908 -0.474051 -0.486472
-0.453195 0.256128 -0.128641 -0.426158 0.854449 -0.297163
-0.442545 -0.0530438 0.19979 -0.77411 -0.370334 0.513426
-0.0102041 -0.0277664 0.489655 -0.169199 0.187345 0.967612
-0.295775 -0.363591 -0.109107 0.898893 0.431595 0.0756065
0.254933 0.544909 -0.149792 0.84275 0.519674 -0.140395
0.282237 0.358348 -0.315393 0.797876 0.300339 -0.522676
0.642282 -0.200438 -0.0435218 0.582215 -0.806026 0.10653
-0.398241 0.30835 0.333689 -0.530534 0.0344468 0.846964
-0.615071 0.123265 -0.0424079 -0.903066 -0.398909 0.159194
-0.24225 -0.533343 0.154791 -0.815017 -0.489276 0.310414
0.457685 -0.111844 -0.256527 -0.783081 -0.158477 0.60139
-0.437289 -0.199477 0.0110126 -0.835174 -0.546188 0.0645253
-0.191439 -0.187857 0.422594 -0.56317 -0.0522151 0.82469
-0.260158 -0.270189 -0.317993 -0.629681 -0.477097 -0.613091
-0.0240843 0.36651 0.384236 0.170963 0.398776 0.900971
0.653403 -0.177007 0.0190586 0.89446 0.426314 -0.134899
0.184887 0.202613 0.390941 -0.712409 -0.624491 -0.320132
-0.0261185 -0.0950079 -0.00906169 -0.609421 -0.623888 -0.489255
0.332558 -0.0835628 -0.392653 0.605187 -0.0392146 -0.795117
0.0947781 0.378918 -0.500027 0.575748 0.0272257 -0.817174
0.0055689 -0.0740788 -0.470216 -0.0290276 0.247429 0.968471
-0.186845 -0.569842 -0.0447624 0.693607 0.673612 0.255257
0.499098 0.0291032 -0.0977352 -0.887343 -0.354783 0.294535
0.397991 0.299435 -0.0252876 0.910965 0.404637 0.0800736
0.16661 0.0374897 0.101542 0.651434 0.612748 0.447408
-0.0157069 -0.245427 0.511707 -0.405488 0.107722 0.907731
-0.107169 -0.484135 0.435763 -0.607283 -0.235665 0.758729
0.547693 -0.123479 0.293975 -0.739461 -0.51346 -0.435381
0.393295 0.308339 -0.0268861 0.843353 0.537074 -0.0175518
0.0635402 0.190693 -0.517981 0.360677 -0.0395649 -0.931851
0.172388 0.206027 0.394813 0.45278 0.363367 0.81422
0.0557547 0.476671 -0.292355 0.439981 -0.869028 0.226291
-0.305278 0.130137 -0.519685 -0.129721 -0.454195 -0.881408
-0.279894 0.333199 -0.206861 -0.399849 0.874236 -0.275378
0.46258 -0.129436 -0.261513 -0.638933 -0.316591 0.701096
0.383891 -0.325347 -0.369512 0.323835 0.0474502 -0.944923
-0.243813 -0.140785 -0.116916 0.686847 0.611558 0.392731
-0.468177 0.0241177 0.207953 -0.743661 -0.341104 0.574993
0.189208 -0.29693 0.548383 0.392885 -0.876079 0.279513
-0.348673 -0.1551 0.324312 -0.766951 -0.206115 0.607702
-0.381945 -0.139492 -0.292052 -0.739273 -0.495507 -0.456013
0.325673 0.21614 0.248697 -0.630471 -0.402698 -0.663581
0.0150671 0.101819 0.281245 -0.370626 -0.890798 -0.262898
-0.0359805 0.0570608 0.104618 0.612065 -0.72811 0.308596
0.283129 0.422843 0.0662636 -0.820945 -0.486574 -0.298823
-0.0486765 0.555338 0.24041 0.475354 -0.856335 0.201815
-0.044692 -0.0240296 0.482249 -0.0469781 0.0594703 0.997124
-0.145853 0.297356 -0.583048 0.185325 -0.281838 -0.941394
0.0118989 -0.318394 -0.393294 0.197884 0.295239 0.934706
-0.333161 0.25704 -0.387797 -0.530537 0.836908 -0.134597
0.553237 -0.304791 -0.239846 0.557468 -0.8129 0.168589
0.188615 -0.534322 -0.352571 0.466457 -0.851601 0.239153
0.176501 -0.514727 -0.376008 -0.0637193 -0.335325 -0.939945
-0.22436 0.0191863 0.417806 0.831505 -0.356231 0.426261
-0.0238398 -0.103819 -0.489327 0.0434748 -0.35366 -0.934363
-0.112738 0.388332 -0.357001 -0.521497 0.839855 -0.150617
-0.443389 -0.0804788 -0.222653 0.781285 0.505025 0.366801
0.108511 0.379041 -0.489285 0.600983 0.10576 -0.792234
-0.00745737 0.506748 -0.0301862 0.42802 -0.865625 0.259792
0.0563297 0.467346 -0.312315 0.359853 -0.88215 0.303836
0.0535154 0.0792316 0.314709 0.639944 -0.732387 0.232553
0.44329 0.0494367 0.301295 0.62654 0.536632 0.56522
-0.445804 -0.187151 -0.000913704 -0.90367 -0.424391 -0.0572025
-0.148764 -0.54103 0.34053 0.425557 -0.868839 0.253022
-0.236704 0.224055 0.401491 -0.249637 0.0593424 0.966519
0.0122052 0.346151 0.363387 -0.237074 -0.364558 -0.900496
-0.327839 -0.37838 -0.0838987 -0.834492 -0.516799 -0.191158
0.213055 0.356745 0.246446 -0.579173 -0.578883 -0.57398
0.548011 -0.12048 0.336685 0.656766 0.500215 0.564308
-0.185693 -0.236206 0.420671 -0.53983 -0.183939 0.821432
-0.122334 0.288473 -0.585514 0.093533 -0.122436 -0.988059
-0.0438695 0.161988 0.47425 -0.112183 0.280964 0.953139
-0.579277 0.223214 0.157342 -0.809573 -0.242934 0.534392
-0.604969 0.0985368 -0.0803646 -0.906764 -0.411531 -0.0917695
0.17728 -0.291057 0.54495 0.203384 -0.229059 -0.951928
0.379017 -0.415436 -0.342179 -0.293165 0.0167103 0.955916
-0.0753705 -0.0698239 0.285459 -0.0798871 0.996698 0.0145446
-0.233566 -0.558261 0.142269 -0.893832 -0.429695 0.128169
0.54987 -0.0314187 0.0880426 -0.885409 -0.453731 -0.100895
-0.361657 0.0985862 0.337856 -0.466151 -0.258226 0.846181
-0.056784 -0.596755 -0.245842 -0.509423 -0.481988 -0.712864
0.228034 -0.0431355 0.465211 -0.205571 -0.375406 -0.903776
0.144848 0.646935 0.0865078 0.751608 0.517792 0.408629
-0.191248 -0.191883 0.112974 0.753359 0.385821 0.532534
0.138361 0.619717 0.138795 0.812383 0.493493 0.310641
-0.271911 -0.337638 0.248298 0.865685 0.22596 -0.44669
-0.254872 -0.0554057 -0.426604 0.404808 0.379823 0.831784
0.235892 -0.118583 -0.438558 0.354948 -0.00588396 -0.934868
0.279126 0.424826 0.0644252 -0.823072 -0.4786 -0.305768
0.431899 0.165256 0.103299 -0.854155 -0.477229 -0.206571
-0.384983 0.318671 0.0544588 0.417619 -0.862793 0.284924
-0.163786 0.45801 0.102385 0.514213 -0.83063 0.21363
-0.0215324 -0.368224 -0.393317 -0.282454 -0.201733 -0.937829
0.48529 0.0931573 -0.129593 0.857091 0.413724 -0.306966
0.336326 -0.184096 0.515716 0.375057 0.425128 0.823771
-0.263321 -0.363234 0.249567 0.7679 0.391247 -0.507204
-0.532479 0.0961429 -0.335366 -0.708959 -0.451427 -0.54184
-0.532697 0.0655829 -0.303386 -0.714344 -0.55347 -0.428234
-0.0115931 0.517958 -0.0777112 -0.55076 0.830806 -0.0801595
0.225629 -0.00423689 0.47261 0.222852 0.504468 0.834176
-0.228326 -0.00906283 0.235858 -0.677559 -0.590215 -0.438816
-0.184433 -0.628054 -0.0229412 -0.79211 -0.557211 -0.249153
0.300621 0.365602 -0.281245 0.877148 0.229397 -0.421887
0.362342 0.0839856 -0.298677 -0.693695 -0.330857 0.639782
-0.2269 0.341171 -0.177204 0.465928 -0.852311 0.23765
-0.00900697 -0.295521 0.519338 -0.324061 -0.0683726 0.943562
0.0184066 0.524286 0.304903 0.41442 0.437544 0.798005
-0.205153 -0.284533 -0.317415 0.580093 0.442141 0.684108
-0.0584345 -0.604851 -0.246481 -0.535591 -0.479025 -0.695469
-0.397059 0.327641 0.113653 0.352649 -0.842177 0.407893
0.182329 0.175028 0.0877865 0.488041 -0.012324 -0.872734
-0.434487 0.233011 -0.169318 0.460412 -0.855228 0.237921
0.169499 -0.292328 -0.434453 0.128347 -0.219842 -0.967056
-0.229279 0.462916 0.338009 0.223699 -0.226721 -0.947922
-0.129499 0.0540632 -0.503343 -0.0165682 0.337549 0.941162
-0.00912726 -0.619804 -0.242004 0.393645 -0.857372 0.331597
-0.559226 0.233561 0.105411 0.520545 -0.841609 0.143972
-0.003842 -0.082791 -0.0181757 0.672684 0.566615 0.475862
-0.252089 -0.1419 -0.104282 0.727533 0.540376 0.422717
-0.278346 -0.0394389 -0.448948 -0.406364 -0.408237 -0.817442
0.0884222 0.117505 -0.50685 0.308514 -0.040093 -0.950375
0.207758 0.587956 -0.161646 0.474829 -0.85235 0.219173
