ply
format ascii 1.0
comment Created by Open3D
element vertex 512
property double x
property double y
property double z
property double nx
property double ny
property double nz
end_header
-0.461639 0.224552 0.0620489 0.990806 0.092479 -0.0987442
0.131991 0.263108 -0.174421 -0.0940047 -0.054285 -0.994091
0.140602 0.256809 -0.0788218 -0.574934 -0.0931287 -0.812883
0.472308 0.253233 0.0775635 0.0940047 0.0542849 0.994091
-0.532097 0.217729 -0.071596 -0.990806 -0.092474 0.0987482
0.211634 0.176801 0.000803196 -0.990806 -0.092479 0.0987442
0.0460574 0.212435 -0.100357 0.0940069 0.0542836 0.994091
0.471229 0.209683 -0.138867 0.990806 0.0924787 -0.0987477
-0.494926 -0.148995 -0.0420756 -0.990806 -0.0924792 0.0987431
-0.223156 -0.126124 0.0258406 -0.0940048 -0.0542849 -0.994091
-0.466283 0.130551 -0.0725845 0.990806 0.0924787 -0.0987459
0.336217 0.0778319 0.0424259 -0.0940047 -0.0542849 -0.994091
0.391774 -0.00782302 0.0418496 -0.0940047 -0.0542849 -0.994091
-0.499886 0.00887354 0.0560045 -0.990806 -0.092479 0.0987442
-0.43122 -0.320496 0.084396 0.097293 -0.994234 0.0450923
0.409145 0.203269 0.0286798 -0.0940047 -0.0542849 -0.994091
-0.490039 -0.223548 -0.0628635 -0.990806 -0.0924791 0.0987435
-0.510923 0.0705143 -0.0784295 -0.0940046 -0.0542849 -0.994091
-0.352607 -0.249435 0.193143 0.0972927 -0.994234 0.0450917
-0.392885 -0.2231 0.196908 0.0940047 0.0542849 0.994091
-0.108124 0.185878 -0.111561 0.0972928 -0.994234 0.0450924
0.464973 0.244115 -0.169394 0.990806 0.0924789 -0.0987442
-0.246274 0.051368 0.156538 0.0939934 0.0542847 0.994092
-0.474395 -0.228299 0.089662 -0.990806 -0.092479 0.0987442
0.495986 0.126459 0.0316039 0.990806 0.092479 -0.0987444
-0.141778 0.265675 -0.0226215 0.0940047 0.054285 0.994091
0.411713 0.301147 -0.0706612 -0.990808 -0.0924675 0.0987413
0.426295 0.206519 -0.012971 -0.990806 -0.092479 0.0987441
-0.465233 -0.211492 0.197337 -0.990806 -0.092479 0.0987438
-0.434517 -0.168779 -0.0341796 0.990807 0.0924807 -0.098733
-0.510877 0.23822 0.160518 -0.990805 -0.092487 0.0987453
0.406915 0.258254 -0.15898 -0.990806 -0.0924789 0.0987453
0.320218 -0.229183 0.118289 0.0940047 0.0542849 0.994091
-0.24694 -0.247869 0.126214 0.92744 0.358259 -0.107265
0.231492 -0.000909651 0.0336263 -0.990806 -0.092479 0.0987442
0.39949 0.0367801 0.0386844 -0.0940047 -0.0542849 -0.994091
-0.420267 -0.164617 0.112696 0.990806 0.092479 -0.098744
0.413543 0.242195 -0.107514 -0.990808 -0.0924785 0.0987315
0.522019 -0.22669 0.0959792 0.0972928 -0.994234 0.0450924
0.49967 0.0357277 -0.0164079 0.990806 0.092479 -0.0987444
-0.359157 -0.27762 0.127593 -0.0940047 -0.0542849 -0.994091
0.410629 0.314804 -0.165478 -0.0972927 0.994234 -0.0450924
-0.286278 0.104429 0.0654124 0.958856 0.263732 -0.105075
0.102444 0.275415 -0.138179 0.491266 0.0873783 0.866616
-0.47421 -0.0781377 0.185165 0.0940047 0.0542849 0.994091
-0.371625 0.192832 0.103082 -0.0940047 -0.0542849 -0.994091
-0.290585 -0.293475 0.110614 -0.990806 -0.092479 0.0987442
-0.323364 0.0971368 0.168778 -0.0972928 0.994234 -0.0450924
-0.200504 0.195172 -0.0467147 0.542333 0.0149724 -0.84003
0.452141 -0.125937 0.0425911 -0.0940047 -0.0542849 -0.994091
-0.242611 0.0805744 0.0163931 -0.0940046 -0.0542849 -0.994091
-0.413854 -0.321204 0.0303997 0.990806 0.0924787 -0.0987441
-0.520519 0.184748 0.0136944 -0.990808 -0.0924696 0.0987409
-0.203674 -0.275172 0.0321375 -0.0940048 -0.0542849 -0.994091
0.0161417 0.258912 -0.0847047 -0.995279 -0.0190895 0.0951595
-0.472423 0.183068 -0.0698417 0.0811773 0.177491 0.980769
-0.229951 0.112033 0.0859106 0.990806 0.092479 -0.0987442
0.304832 -0.0840432 0.111818 0.0940051 0.0542849 0.994091
-0.436831 0.0161581 0.115804 0.990806 0.092479 -0.098744
0.520905 -0.176568 -0.00215345 0.990806 0.0924785 -0.0987439
-0.19231 0.254534 -0.143286 -0.0940047 -0.0542851 -0.994091
0.440797 -0.0121798 -0.0722831 -0.990806 -0.092479 0.0987441
-0.238006 -0.298549 0.151439 0.0972929 -0.994234 0.0450923
-0.208693 -0.180323 0.0274326 -0.0940046 -0.0542849 -0.994091
0.248969 0.30854 0.0452091 -0.0972928 0.994234 -0.0450919
-0.225308 0.0468042 0.0714041 0.990806 0.092479 -0.0987442
-0.172868 0.195766 -0.00212929 0.725699 0.101875 0.680428
0.422053 0.325909 0.0547134 -0.0972929 0.994234 -0.0450925
0.4516 -0.139423 -0.0830491 -0.990807 -0.0924784 0.0987415
-0.47695 0.225945 -0.0901298 -0.0940047 -0.0542849 -0.994091
-0.246376 0.190773 -0.0381522 -0.994875 -0.0959034 0.0320224
0.441903 -0.0584636 -0.104533 -0.990805 -0.0924789 0.098759
-0.415702 -0.230785 0.0965345 0.990806 0.092479 -0.098744
-0.238947 0.225596 -0.131697 -0.604271 -0.0950114 -0.791094
0.41979 0.193914 -0.0900423 -0.990806 -0.092479 0.0987441
0.471292 -0.236975 -0.0213396 0.0972928 -0.994234 0.0450924
-0.288855 0.193777 0.152788 0.0940047 0.0542848 0.994091
0.349938 -0.165203 0.0544 -0.0940047 -0.0542849 -0.994091
0.506596 -0.0661266 -0.0423031 0.990806 0.092479 -0.0987444
-0.207824 -0.128786 0.0823924 0.990806 0.092479 -0.0987441
0.236207 -0.0984803 -0.0104376 -0.990806 -0.092479 0.0987442
0.317154 0.265244 0.0339945 -0.0940047 -0.0542849 -0.994091
0.38736 -0.194437 0.110043 0.0940047 0.0542849 0.994091
-0.526735 0.166666 -0.0656163 -0.990806 -0.0924791 0.0987435
-0.475275 -0.292943 0.020285 -0.990807 -0.0924708 0.0987454
-0.257096 -0.139036 0.167959 0.0940056 0.054285 0.994091
0.457698 -0.19641 -0.15545 -0.0940048 -0.0542849 -0.994091
0.458299 -0.00996373 0.0932608 0.0940046 0.0542849 0.994091
0.509278 -0.141674 -0.0861425 0.990811 0.0924684 -0.0987116
0.362593 0.17933 0.0919742 0.0940046 0.054285 0.994091
0.285152 0.206078 0.0978366 0.0940047 0.0542849 0.994091
-0.356131 -0.189521 0.190579 -0.0972928 0.994234 -0.0450917
-0.443918 0.067107 0.0924053 0.990806 0.092479 -0.098744
0.307046 -0.197318 0.0620927 -0.980129 0.180233 0.0828422
0.377539 -0.0628072 0.0461983 -0.0940047 -0.0542849 -0.994091
0.498629 -0.0515791 -0.108619 0.990806 0.0924787 -0.0987526
-0.33582 -0.293306 0.183828 0.0940047 0.0542847 0.994091
-0.32109 0.016544 0.0948654 -0.990806 -0.092479 0.0987442
0.459478 0.252213 -0.118838 -0.133342 0.790893 -0.59725
-0.370971 0.230346 0.158557 0.0940047 0.0542848 0.994091
-0.314826 -0.0498269 0.110962 -0.0940047 -0.0542849 -0.994091
-0.292503 0.0679011 0.0218031 -0.0940047 -0.0542849 -0.994091
0.348914 0.0368112 0.0434653 -0.0940047 -0.0542849 -0.994091
0.248752 0.195569 -0.0363515 -0.0940046 -0.0542849 -0.994091
-0.362085 -0.233442 0.125458 -0.0940047 -0.0542849 -0.994091
0.484224 0.147568 -0.0666462 0.990806 0.0924791 -0.0987442
-0.42798 -0.182436 0.0186191 0.990806 0.092479 -0.098744
0.272284 0.168643 0.0601407 -0.886765 -0.449331 0.108393
0.377987 0.320518 0.0309272 -0.0972926 0.994234 -0.0450916
-0.442933 -0.0235225 0.179225 0.0940047 0.0542849 0.994091
-0.386057 0.248997 0.102517 -0.0972929 0.994234 -0.0450923
-0.235805 0.162029 0.0739932 0.990806 0.092479 -0.0987442
-0.309209 0.213791 0.0154161 -0.0940047 -0.0542849 -0.994091
-0.425971 -0.148248 0.0707909 0.990806 0.092479 -0.098744
0.316183 -0.0417377 0.119952 0.0940046 0.0542849 0.994091
-0.500674 0.237541 0.097215 -0.0972929 0.994234 -0.0450923
0.326592 0.309306 0.0306959 -0.0940047 -0.0542849 -0.994091
-0.126727 0.188207 -0.0200725 0.0972928 -0.994234 0.0450923
-0.309987 -0.147846 0.0523161 -0.990806 -0.092479 0.0987442
0.480756 0.135226 -0.112998 0.990806 0.092479 -0.0987443
0.371052 0.0401852 0.10526 0.990806 0.092479 -0.0987438
-0.476928 -0.135745 0.150928 -0.990806 -0.092479 0.0987442
0.251522 -0.212378 0.0365656 -0.990806 -0.092479 0.0987442
-0.419059 -0.0779652 0.122355 -0.0940047 -0.0542849 -0.994091
0.367022 0.117387 0.0949379 0.0940046 0.0542849 0.994091
0.432598 0.167373 0.0136133 -0.990806 -0.092479 0.0987442
-0.273343 -0.291194 0.177805 0.0940047 0.0542847 0.994091
0.491282 0.172375 0.0274042 0.990806 0.092479 -0.0987444
-0.507857 0.0436872 0.00862706 -0.990806 -0.092479 0.0987442
-0.229345 0.175131 -0.0869773 0.0972928 -0.994234 0.0450923
0.445136 -0.00284963 -0.0199994 -0.990806 -0.092479 0.0987442
0.443097 -0.124246 -0.154157 -0.990806 -0.0924791 0.0987435
-0.197916 -0.231197 0.0858922 0.990806 0.092479 -0.0987441
-0.333814 0.0837818 0.03017 -0.990806 -0.092479 0.0987442
0.296611 0.310656 -0.010923 -0.0972929 0.994234 -0.0450924
0.267003 0.0347741 -0.0292967 -0.0940027 -0.0542848 -0.994091
-0.501233 0.0498022 0.0808233 -0.990806 -0.0924791 0.0987442
-0.439415 -0.103808 -0.0224869 0.990806 0.0924784 -0.0987491
-0.472689 0.033356 -0.080016 -0.0940047 -0.0542849 -0.994091
0.287228 -0.116628 -0.0229416 -0.0940055 -0.0542849 -0.994091
-0.273029 -0.0153645 0.165238 0.990806 0.092479 -0.0987438
-0.450347 0.139511 0.0957065 0.990806 0.092479 -0.098744
0.451016 -0.0611006 -0.015561 -0.990806 -0.092479 0.0987442
-0.495247 -0.0706309 0.0280905 -0.990806 -0.092479 0.0987442
-0.210399 0.191488 0.0385394 0.725699 0.101875 0.680428
-0.286697 0.257715 0.0803577 -0.0972929 0.994234 -0.0450924
0.0605779 0.200581 -0.164254 -0.0940047 -0.054285 -0.994091
-0.509087 0.0855402 0.0354897 -0.990806 -0.0924794 0.0987435
0.343732 -0.129268 0.0267493 0.990806 0.092479 -0.0987442
-0.217708 -0.172155 0.166043 0.0940028 0.0542848 0.994091
-0.49732 0.0580235 0.127786 -0.990806 -0.0924791 0.0987442
-0.510943 0.203529 0.127361 -0.990806 -0.0924791 0.0987442
-0.294649 -0.301409 0.0624027 -0.990806 -0.092479 0.0987442
-0.320816 -0.307032 0.14307 0.0972929 -0.994234 0.0450923
0.456005 0.290962 -0.181904 -0.0940047 -0.0542849 -0.994091
0.458413 -0.219737 -0.0899111 -0.990804 -0.0925111 0.0987406
0.313249 0.145602 -0.0216848 0.990806 0.092479 -0.0987442
-0.22252 -0.0348074 0.0229472 0.990806 0.092479 -0.0987441
-0.521125 0.157412 -0.0179943 -0.990805 -0.0924597 0.0987768
-0.468731 0.230342 0.167802 0.0940047 0.0542848 0.994091
-0.429038 -0.190346 0.187021 0.0940047 0.0542849 0.994091
-0.453566 0.0406068 -0.0292215 0.990806 0.0924785 -0.0987497
-0.354842 0.162531 0.160735 0.094004 0.0542835 0.994091
-0.329137 -0.0276148 0.180204 0.0940047 0.0542849 0.994091
-0.494091 0.00509686 0.110621 -0.990806 -0.0924791 0.0987442
-0.25344 0.236342 -0.00819503 -0.903316 -0.107234 -0.415356
-0.442282 -0.317216 0.180586 0.0972929 -0.994234 0.0450922
-0.4646 0.184669 -0.00501985 0.990806 0.0924796 -0.0987444
0.50331 0.0973895 0.077872 0.990806 0.092479 -0.0987444
0.484926 0.220697 0.00888438 0.990806 0.0924791 -0.0987442
0.181157 0.234148 -0.154727 0.905336 0.0695924 -0.418955
-0.316045 -0.0920314 0.0438042 -0.990806 -0.092479 0.0987442
0.319388 0.106078 0.00289489 0.990806 0.092479 -0.0987442
0.272882 -0.0598076 -0.0246878 -0.0940032 -0.0542848 -0.994091
-0.371416 0.00755456 0.11318 -0.0940047 -0.0542849 -0.994091
-0.187665 0.237369 0.0074231 0.725699 0.101875 0.680428
0.467835 0.316968 -0.0724372 0.990806 0.0924781 -0.0987441
-0.366125 0.00710927 0.170289 0.0940046 0.0542848 0.994091
-0.434646 -0.0254909 0.0987208 0.990806 0.092479 -0.098744
-0.220967 -0.00378587 0.0675789 0.990806 0.092479 -0.0987441
0.292068 -0.230395 -0.0171868 -0.0940047 -0.0542849 -0.994091
0.516854 -0.130057 0.000758765 0.990806 0.092479 -0.0987444
0.42445 0.0840362 0.0913286 0.0940047 0.0542849 0.994091
0.337187 -0.177428 0.125375 0.0940047 0.0542848 0.994091
0.428448 -0.0834871 0.0425135 -0.0940047 -0.0542849 -0.994091
0.524611 -0.223739 -0.00915039 0.990806 0.0924795 -0.0987444
0.445905 -0.226618 0.106264 0.0940047 0.0542849 0.994091
0.30196 -0.249285 0.0725857 0.0972928 -0.994234 0.0450924
-0.249625 0.241306 0.146483 0.0940047 0.0542848 0.994091
-0.09586 0.254892 -0.152426 -0.0940068 -0.054283 -0.994091
0.266299 0.0869506 0.106125 0.0939987 0.0542844 0.994091
0.384956 0.323411 0.0796869 -0.0972929 0.994234 -0.0450925
0.252979 -0.205409 -0.0148548 -0.0940046 -0.0542849 -0.994091
-0.191714 -0.292272 0.0909281 0.990806 0.092479 -0.0987441
0.407075 0.297274 -0.120831 -0.990805 -0.0924894 0.098746
-0.365572 0.0672444 0.166953 0.0940046 0.0542848 0.994091
0.347953 0.165792 0.0365128 -0.0940047 -0.0542849 -0.994091
0.295586 -0.182479 0.00267081 -0.678504 -0.727216 0.103873
-0.137957 0.208441 -0.145642 0.388423 0.917382 -0.0868266
-0.216394 -0.0735518 0.0481272 0.990806 0.092479 -0.0987441
0.456228 0.325716 -0.0232729 -0.0972927 0.994234 -0.0450924
0.257754 -0.192573 0.117645 -0.990806 -0.092479 0.0987441
-0.269877 -0.142209 0.0311371 -0.0940003 -0.054284 -0.994091
0.144914 0.254035 -0.0210097 -0.584663 -0.0204305 0.811019
0.469256 0.189 -0.177589 -0.0940047 -0.0542849 -0.994091
-0.485801 -0.0101169 0.179551 -0.990806 -0.0924791 0.0987442
0.431624 0.0897523 -0.0688529 -0.990806 -0.092479 0.0987441
-0.429134 0.17758 0.109353 -0.0940047 -0.0542849 -0.994091
-0.334559 0.119149 0.0558189 -0.990806 -0.092479 0.0987442
0.436873 -0.0538563 -0.150687 -0.990806 -0.0924791 0.0987435
-0.413794 -0.284685 0.0652056 0.990806 0.092479 -0.098744
0.12376 0.211588 -0.0450111 0.0972925 -0.994234 0.0450927
0.511919 -0.23516 -0.0689795 0.0972928 -0.994234 0.0450924
-0.432448 0.220046 0.107348 -0.0940047 -0.0542849 -0.994091
0.445028 -0.101456 -0.113441 -0.990807 -0.0924788 0.0987341
0.21369 0.210711 0.0531922 -0.990806 -0.092479 0.0987441
0.205848 0.250951 0.0341462 -0.928249 -0.0743061 0.364462
0.276507 0.0778644 -0.0325486 -0.0940047 -0.0542849 -0.994091
-0.421819 -0.216464 0.0485648 0.990806 0.092479 -0.098744
0.51619 -0.175057 -0.0480468 0.990806 0.0924785 -0.0987439
0.162199 0.293945 -0.0893845 -0.0972957 0.994234 -0.0450884
-0.308287 -0.231949 0.120289 -0.0940047 -0.0542849 -0.994091
0.526177 -0.160971 0.0653499 0.990806 0.0924785 -0.0987439
0.267844 -0.0350997 0.112643 0.0940043 0.0542848 0.994091
0.48934 0.0556602 -0.101387 0.990806 0.0924791 -0.0987442
0.447832 0.319868 -0.134103 -0.0972927 0.994234 -0.0450924
0.231935 0.187257 0.103897 0.0940043 0.0542848 0.994091
-0.452001 0.104842 0.0466398 0.990806 0.092479 -0.0987442
-0.503294 -0.0274018 -0.0121647 -0.990806 -0.092479 0.0987442
-0.299875 -0.25461 0.178316 0.0940046 0.054285 0.994091
-0.516719 0.204938 0.070733 -0.990808 -0.0924696 0.0987409
0.240996 -0.149426 -0.0101013 -0.990806 -0.092479 0.0987442
-0.268262 -0.216675 0.184772 0.0940047 0.0542849 0.994091
-0.143597 0.261698 -0.0851124 0.0940046 0.0542848 0.994091
-0.470578 -0.328861 -0.0151142 0.0972928 -0.994234 0.0450923
-0.511329 0.026124 -0.0426601 -0.990806 -0.0924789 0.0987445
0.450204 -0.16501 -0.121018 -0.990807 -0.0924788 0.0987389
0.362295 -0.243506 0.0698358 0.0972928 -0.994234 0.0450924
0.49861 -0.00308219 -0.063391 0.990806 0.0924791 -0.0987442
0.455929 -0.239702 -0.133533 -0.990806 -0.0924788 0.0987441
-0.478864 -0.305676 -0.0609183 -0.0940046 -0.0542849 -0.994091
-0.228443 0.146708 0.13351 0.990806 0.092479 -0.0987441
-0.0817055 0.249651 -0.0991239 0.971446 0.213484 -0.103521
-0.446311 -0.0430064 -0.0347364 0.990805 0.0924764 -0.0987628
-0.413531 0.248633 0.153758 -0.0972929 0.994234 -0.0450923
-0.393088 -0.0340467 0.117501 -0.0940047 -0.0542849 -0.994091
-0.471228 0.229098 -0.0299151 0.990806 0.0924794 -0.0987442
0.220922 0.103044 0.0249255 -0.990806 -0.092479 0.0987442
-0.401987 -0.258608 0.130605 -0.0940047 -0.0542849 -0.994091
-0.446596 -0.0821325 -0.0742346 0.990806 0.092479 -0.0987444
0.0745027 0.277191 -0.169754 -0.0940047 -0.0542849 -0.994091
0.0937372 0.230018 -0.123285 0.870536 0.106973 0.480337
0.491838 -0.0925601 -0.164349 -0.0940047 -0.0542849 -0.994091
0.313662 0.0280248 -0.0333405 -0.0940047 -0.0542849 -0.994091
-0.45999 0.0798942 -0.0568835 0.990806 0.0924782 -0.0987495
-0.261408 -0.000680202 0.0226077 -0.0940041 -0.0542848 -0.994091
0.323139 0.142371 0.10924 0.0940048 0.0542849 0.994091
-0.431982 -0.136853 0.0211553 0.990807 0.0924781 -0.0987401
-0.344172 0.231504 0.0645851 -0.990806 -0.092479 0.0987442
-0.457555 0.158882 0.0415204 0.990806 0.092479 -0.0987442
0.444155 -0.103412 0.0997013 0.0940046 0.0542849 0.994091
-0.515366 0.105117 -0.00918765 -0.990808 -0.0924954 0.0987151
0.188566 0.25668 -0.106745 0.982298 0.0886405 -0.165024
-0.235848 0.119556 0.0337768 0.990806 0.092479 -0.0987442
0.416262 0.189725 0.0863315 0.0940047 0.0542849 0.994091
0.448371 -0.0784976 -0.0583941 -0.990806 -0.092479 0.0987442
-0.3473 -0.093851 0.174022 0.0940046 0.0542848 0.994091
-0.212667 -0.049678 0.107884 0.990806 0.092479 -0.0987442
0.436026 -0.00940943 -0.117559 -0.990804 -0.0924801 0.0987687
-0.422407 -0.103487 0.18165 0.0940047 0.0542849 0.994091
0.419199 0.246252 -0.0469606 -0.990806 -0.092479 0.0987441
-0.353826 0.0635811 0.108457 -0.0940047 -0.0542849 -0.994091
-0.395053 -0.149542 0.181579 0.0940047 0.0542849 0.994091
0.246425 -0.0845405 0.105141 -0.990806 -0.092479 0.0987441
0.462232 -0.0575274 0.0954862 0.0940046 0.0542849 0.994091
0.309214 -0.0311504 -0.0296884 -0.0940047 -0.0542849 -0.994091
-0.343962 0.244411 0.0170304 -0.0940047 -0.0542849 -0.994091
-0.502848 0.164487 0.172025 -0.990806 -0.0924791 0.0987442
0.0829988 0.206375 -0.0720036 0.0972953 -0.994233 0.0450947
0.415495 -0.0359275 0.0987263 0.0940046 0.0542849 0.994091
0.3531 -0.222981 0.0329796 0.990806 0.092479 -0.0987442
0.256583 0.297068 -0.0426347 -0.0940047 -0.0542849 -0.994091
-0.33951 0.186139 0.0688814 -0.990806 -0.092479 0.0987442
0.253898 0.261693 0.0977551 0.0940047 0.0542849 0.994091
0.313807 -0.250107 0.0289015 0.097293 -0.994234 0.0450925
0.27915 -0.244113 0.122988 0.0940047 0.0542849 0.994091
0.33427 -0.0132848 0.0404289 0.990806 0.092479 -0.0987442
-0.373955 -0.16602 0.122898 -0.0940047 -0.0542849 -0.994091
-0.200382 -0.177166 0.111749 0.990806 0.092479 -0.0987441
-0.445043 -0.00897939 0.00985897 0.990806 0.092479 -0.0987442
-0.294237 0.128781 0.156847 0.0940076 0.0542906 0.99409
-0.190389 -0.249229 0.144532 0.990806 0.092479 -0.0987441
-0.290233 -0.185995 0.0354531 -0.0940047 -0.0542849 -0.994091
-0.378945 0.123775 0.16513 0.0940047 0.0542849 0.994091
-0.4554 -0.320469 0.137165 0.0972928 -0.994234 0.0450923
-0.527342 0.214509 -0.0269042 -0.990806 -0.092478 0.0987441
-0.212108 -0.00874375 0.151834 0.990806 0.092479 -0.0987441
-0.282879 -0.0462912 0.0271288 -0.0940035 -0.0542846 -0.994091
-0.334415 0.254153 0.104761 -0.0972929 0.994234 -0.0450923
-0.2863 0.255092 0.0216659 -0.0972928 0.994234 -0.045092
0.218075 0.157092 0.0469778 -0.990806 -0.092479 0.0987442
0.511987 -0.0253225 0.0500053 0.990806 0.092479 -0.0987444
-0.235219 0.191429 0.107403 0.990806 0.092479 -0.0987441
0.0209104 0.261023 -0.163803 -0.0940051 -0.0542849 -0.994091
0.225271 0.123338 0.0875723 -0.990806 -0.092479 0.0987441
-0.223183 0.087292 0.130643 0.990806 0.092479 -0.0987441
-0.420374 0.202826 0.164731 0.0940047 0.0542848 0.994091
0.238278 -0.0450684 0.060366 -0.990806 -0.092479 0.0987442
0.218609 0.11986 -0.0293668 -0.0940013 -0.0542844 -0.994091
-0.485686 -0.201912 0.00107919 -0.990806 -0.092479 0.0987442
-0.429099 -0.0974931 0.0869464 0.990806 0.092479 -0.098744
0.423124 0.205818 -0.174145 -0.0940047 -0.0542849 -0.994091
0.299271 0.278308 0.0925572 0.0940047 0.0542849 0.994091
-0.282764 0.0859969 0.158098 0.0939839 0.0542823 0.994093
-0.439183 -0.0269551 0.0518247 0.990806 0.092479 -0.098744
0.240546 0.242387 -0.0381322 -0.0940046 -0.0542849 -0.994091
-0.242273 0.165919 0.0127311 0.990806 0.092479 -0.0987441
0.425523 0.242149 0.082593 0.0940047 0.0542849 0.994091
-0.436159 -0.0804873 0.0320299 0.990806 0.092479 -0.0987442
0.376469 -0.240173 0.112743 0.0972928 -0.994234 0.0450924
-0.411974 -0.316494 0.131123 0.097293 -0.994234 0.0450923
-0.468567 -0.259062 -0.0263272 0.120678 -0.934067 0.336088
-0.241949 -0.300923 0.107596 0.0972929 -0.994234 0.0450923
0.446171 -0.0359395 0.0382411 -0.0940047 -0.0542849 -0.994091
0.417416 0.150476 -0.154553 -0.990806 -0.0924789 0.0987453
0.231215 0.0501232 0.0786491 -0.990806 -0.092479 0.0987441
0.25091 -0.254464 -0.00899117 -0.990806 -0.092479 0.0987442
0.475379 0.263051 -0.0472442 0.990806 0.0924791 -0.0987442
0.437851 0.043284 -0.0498935 -0.990808 -0.0924756 0.0987302
0.197514 0.217849 -0.0661023 0.0972914 -0.994234 0.0450936
0.238851 -0.08083 0.0326199 -0.990806 -0.092479 0.0987442
-0.498611 -0.0927935 -0.070676 -0.0940046 -0.0542849 -0.994091
0.273306 0.140114 -0.0356451 -0.0940047 -0.0542849 -0.994091
0.491887 0.00643341 -0.121933 0.990805 0.0924771 -0.098762
0.420012 -0.23832 0.05964 0.0972928 -0.994234 0.0450924
-0.395082 -0.266494 0.187968 0.0940046 0.054285 0.994091
-0.228274 0.0316491 0.0274524 0.990806 0.092479 -0.0987441
0.117732 0.210605 -0.170206 -0.0940047 -0.054285 -0.994091
0.506472 -0.238342 -0.12738 0.0972928 -0.994234 0.0450924
0.431278 0.0453211 -0.113939 -0.990807 -0.0924786 0.0987338
0.194982 0.299064 0.0203684 -0.810858 -0.052914 0.582845
0.246002 -0.134931 0.0537084 -0.990806 -0.092479 0.0987442
0.211655 0.263364 0.0820929 -0.990806 -0.092479 0.0987441
-0.522759 0.118316 -0.0710022 -0.990806 -0.0924791 0.0987435
-0.457773 -0.276252 0.194429 0.0940046 0.054285 0.994091
-0.188694 0.177376 -0.125178 0.0972928 -0.994234 0.0450922
0.484147 0.0378956 -0.170135 0.990806 0.0924789 -0.0987456
-0.328729 0.080501 0.0781225 -0.990806 -0.092479 0.0987442
-0.483756 -0.110237 0.106307 -0.990806 -0.0924743 0.0987522
0.483643 -0.183633 0.100348 0.0940047 0.0542849 0.994091
0.362381 -0.00927875 0.113811 0.0940048 0.0542849 0.994091
-0.485414 -0.0566078 0.139893 -0.990806 -0.0924791 0.0987442
0.348925 -0.235613 -0.0207451 0.990806 0.092479 -0.0987442
-0.490992 -0.0536626 0.0866866 -0.990806 -0.0924759 0.09875
0.505824 0.0344452 0.0441447 0.990806 0.092479 -0.0987444
0.489608 0.21223 0.0781666 0.0940047 0.0542849 0.994091
0.231732 -0.0550297 -0.0146523 -0.990806 -0.092479 0.0987442
0.452528 -0.00778478 -0.165261 -0.0940048 -0.0542849 -0.994091
0.260848 0.141257 0.00648856 -0.559313 0.828921 0.00762524
-0.400795 0.053459 0.113451 -0.0940047 -0.0542849 -0.994091
-0.490839 -0.12511 0.0213063 -0.990806 -0.092479 0.0987442
0.265677 0.140369 0.103267 0.0940038 0.0542848 0.994091
-0.287978 -0.0861998 0.179511 0.0940047 0.0542849 0.994091
0.481279 0.326009 0.0709225 0.990806 0.092479 -0.0987444
0.480676 0.204406 -0.0490125 0.990806 0.0924791 -0.0987442
0.52875 -0.145836 0.105342 0.990807 0.0924796 -0.0987413
0.290103 -0.149592 0.116791 0.0940063 0.0542851 0.994091
-0.218233 0.225744 -0.0834155 0.974951 0.104315 0.19644
-0.320952 -0.0311397 0.0515956 -0.990806 -0.092479 0.0987442
0.511712 -0.125432 -0.0465071 0.990806 0.092479 -0.0987444
-0.0853714 0.263711 -0.0278482 0.0940044 0.0542852 0.994091
0.499462 0.00961059 0.0882994 0.0940047 0.0542849 0.994091
-0.201248 0.253059 -0.0466086 0.411888 -0.00102176 -0.911234
-0.514595 0.232948 0.0259901 -0.0972929 0.994234 -0.0450923
-0.481021 0.121027 0.174933 0.0940047 0.0542849 0.994091
-0.453131 -0.13138 -0.0728696 -0.0940047 -0.0542849 -0.994091
-0.151368 0.216057 -0.0633516 -0.916026 -0.107171 -0.386537
-0.497257 -0.100801 -0.0203298 -0.990806 -0.092479 0.0987442
0.369884 0.237033 0.0881338 0.0940046 0.054285 0.994091
-0.30256 -0.207535 0.0709443 -0.990806 -0.092479 0.0987442
-0.422714 -0.311064 -0.0490087 0.990808 0.0924714 -0.0987368
0.17865 0.293466 -0.135439 -0.0972927 0.994234 -0.0450923
0.502859 -0.198031 -0.159632 -0.0940048 -0.0542849 -0.994091
0.425243 0.0997133 -0.168551 -0.0940048 -0.0542849 -0.994091
-0.206651 -0.0986538 0.122385 0.990806 0.092479 -0.0987442
0.487405 -0.147899 -0.160908 -0.0940048 -0.0542849 -0.994091
-0.239181 -0.258529 0.17279 0.0940026 0.0542925 0.99409
0.42722 0.0374038 -0.162072 -0.990806 -0.0924791 0.0987435
-0.477925 -0.239397 0.0438476 -0.990806 -0.092479 0.0987442
0.199347 0.300395 -0.0273129 -0.0972927 0.994234 -0.0450926
0.327989 0.0293761 0.114952 0.0940046 0.0542849 0.994091
0.456444 0.0507831 0.090119 0.0940047 0.0542849 0.994091
-0.139982 0.262263 -0.135926 -0.0972901 0.994234 -0.0450872
-0.202482 -0.122029 0.161866 0.0940046 0.0542849 0.994091
-0.465541 -0.264488 0.144612 -0.990808 -0.0924633 0.0987429
0.492539 0.0688767 -0.0569104 0.990806 0.0924791 -0.0987442
0.470209 0.14456 0.0836964 0.0940047 0.0542849 0.994091
0.402687 -0.0966002 0.103251 0.0940046 0.0542849 0.994091
0.320587 0.131766 0.0389784 0.990806 0.092479 -0.0987442
-0.36629 -0.0795024 0.117449 -0.0940047 -0.0542849 -0.994091
-0.455158 0.0709455 0.175222 0.0940047 0.0542849 0.994091
0.460816 -0.149392 8.79752e-05 -0.990806 -0.092479 0.0987442
0.49826 0.0813286 0.0121532 0.990806 0.092479 -0.0987444
0.445658 -0.151265 0.113689 0.0940046 0.054285 0.994091
-0.480513 -0.0304836 -0.0757899 -0.0940047 -0.0542849 -0.994091
-0.426122 -0.229871 -0.00716525 0.990806 0.092479 -0.0987442
0.216228 0.307613 0.0988098 0.0940047 0.0542849 0.994091
-0.435067 -0.201237 -0.0700975 0.990806 0.092479 -0.0987444
0.379142 -0.0582605 0.114901 0.0940048 0.0542849 0.994091
0.418045 0.284436 -0.0227796 -0.990806 -0.092479 0.0987441
-0.24357 -0.293399 0.0369055 -0.0940047 -0.0542849 -0.994091
0.386202 0.0898459 0.0370431 -0.0940047 -0.0542849 -0.994091
0.344541 0.0745105 0.110922 0.0940048 0.0542849 0.994091
-0.449448 0.0484455 0.0194414 0.990806 0.092479 -0.0987442
0.486491 -0.233103 0.0312425 0.0972928 -0.994234 0.0450924
0.449228 0.00890456 0.0320619 -0.990806 -0.092479 0.0987442
-0.334721 0.157314 0.0209127 -0.0940047 -0.0542849 -0.994091
-0.503966 0.0957422 0.0964239 -0.990806 -0.0924791 0.0987442
0.0143649 0.213768 -0.147221 -0.945416 -0.308067 0.106225
-0.4204 0.10018 0.170339 0.0940046 0.0542848 0.994091
0.398697 0.141404 0.033046 -0.0940047 -0.0542849 -0.994091
-0.27511 0.096197 0.109641 0.602586 0.791737 -0.100217
-0.514146 0.140012 0.0357392 -0.990806 -0.0924791 0.0987442
0.0528438 0.281432 -0.129331 -0.0972926 0.994234 -0.0450922
0.426066 0.15863 -0.0601192 -0.990806 -0.092479 0.0987441
0.515198 -0.0526982 0.0902139 0.0940047 0.0542849 0.994091
0.424186 0.250883 0.00741889 -0.990806 -0.092479 0.0987442
-0.347027 0.11392 0.105065 -0.0940047 -0.0542849 -0.994091
0.436463 0.0945797 -0.0157814 -0.990806 -0.092479 0.0987442
0.162321 0.212262 -0.113343 0.0972949 -0.994233 0.0450939
0.51076 -0.0538493 0.0109844 0.990806 0.092479 -0.0987444
0.291493 0.313523 0.0633349 -0.0972926 0.994234 -0.0450916
-0.432295 -0.282419 0.00444643 -0.109471 0.119184 -0.986819
-0.308881 0.0302362 0.17513 0.0940047 0.0542849 0.994091
-0.192421 -0.293525 0.16384 0.0972929 -0.994234 0.0450923
0.34347 -0.160806 -0.00541491 0.990806 0.092479 -0.0987442
0.236612 -0.00368789 0.0824024 -0.990806 -0.092479 0.0987442
0.409848 0.28955 0.0814868 0.0940047 0.0542849 0.994091
0.342399 -0.0906757 0.0495179 0.990806 0.092479 -0.0987442
-0.392244 -0.311948 0.188779 0.0972929 -0.994234 0.0450922
-0.491479 0.0268387 0.157184 -0.990806 -0.0924791 0.0987442
-0.399315 0.108194 0.110322 -0.0940047 -0.0542849 -0.994091
0.405945 0.1405 0.0899951 0.0940047 0.0542849 0.994091
-0.481889 -0.188198 0.0520278 -0.990806 -0.092479 0.0987442
0.528767 -0.207897 0.0473942 0.990806 0.0924795 -0.0987441
-0.470026 -0.304465 0.0621711 -0.990808 -0.0924621 0.0987461
0.456435 -0.192637 0.0458274 -0.0940047 -0.0542849 -0.994091
0.258809 -0.243272 0.0807487 -0.990806 -0.092479 0.0987442
0.231545 -0.00612977 -0.0237101 -0.0940046 -0.0542849 -0.994091
-0.202702 -0.229063 0.0398719 0.990806 0.092479 -0.0987441
0.268102 0.0363354 0.108718 0.0940045 0.0542849 0.994091
-0.241574 0.241265 0.0891453 0.995062 0.0962789 -0.0241435
-0.483976 -0.143041 0.0733758 -0.990806 -0.092479 0.0987442
-0.259921 -0.0970566 0.02773 -0.0940061 -0.0542851 -0.994091
0.358075 0.218609 0.0326714 -0.0940047 -0.0542849 -0.994091
0.424749 0.135061 -0.0954113 -0.990806 -0.092479 0.0987441
-0.413136 0.0198404 0.174039 0.0940046 0.0542848 0.994091
0.0835031 0.286436 -0.0851529 -0.0973015 0.994233 -0.0451005
0.454629 -0.10631 -0.0216496 -0.990806 -0.092479 0.0987442
-0.293206 0.114635 0.0193175 -0.0940071 -0.0542859 -0.99409
0.21983 0.0676815 -0.0266329 -0.0940046 -0.0542849 -0.994091
0.333439 0.318561 0.0839093 -0.0972929 0.994234 -0.0450925
-0.460054 0.120963 -0.0190672 0.990806 0.092479 -0.0987441
0.405365 -0.168023 0.0493126 -0.0940047 -0.0542849 -0.994091
-0.252912 0.250567 -0.0621461 -0.994875 -0.0959035 0.0320222
-0.171023 0.215648 -0.108209 -0.366307 0.00635477 0.930472
0.252752 -0.181019 0.0782686 -0.990806 -0.092479 0.0987442
0.502202 -0.103434 -0.121328 0.990804 0.0924759 -0.0987701
-0.23029 0.261626 0.0448682 -0.0972929 0.994234 -0.0450922
0.479028 0.285053 0.00997629 0.990806 0.0924791 -0.0987442
-0.280633 -0.245363 0.0377872 -0.0940047 -0.0542849 -0.994091
0.334842 -0.0572099 0.00503444 0.990806 0.092479 -0.0987442
0.518094 -0.0821632 0.0580569 0.990806 0.092479 -0.0987444
0.490962 0.11367 -0.0307836 0.990806 0.0924791 -0.0987442
-0.243515 -0.22738 0.0649564 0.474503 -0.880248 0.00319758
0.392552 -0.143925 0.11831 0.0940047 0.0542848 0.994091
0.116813 0.288971 -0.0403882 -0.584663 -0.0204306 0.811019
0.475066 0.0859356 -0.17251 -0.0940047 -0.0542849 -0.994091
0.0514197 0.27153 -0.0412106 0.0940022 0.0542829 0.994091
-0.303061 0.258791 0.139378 -0.0972929 0.994234 -0.0450923
-0.0744415 0.216898 -0.0556426 0.990806 0.092479 -0.0987441
-0.321138 0.223057 0.154242 0.0940047 0.0542848 0.994091
0.491768 -0.046651 -0.166849 -0.0940047 -0.0542849 -0.994091
0.491739 -0.110614 0.100997 -0.0972928 0.994234 -0.0450926
0.0422866 0.214911 -0.0372552 0.094005 0.0542846 0.994091
-0.506444 0.14704 0.119605 -0.990806 -0.0924791 0.0987442
-0.434308 -0.249929 -0.0681758 -0.0940047 -0.0542849 -0.994091
-0.329884 -0.191469 0.120121 -0.0940047 -0.0542849 -0.994091
0.416554 0.0270562 0.0951868 0.0940046 0.0542849 0.994091
0.311003 0.204847 0.0112635 0.990806 0.092479 -0.0987442
0.307152 0.19504 -0.0365696 0.990806 0.092479 -0.0987442
-0.398668 -0.120366 0.122742 -0.0940047 -0.0542849 -0.994091
0.302831 0.248297 -0.0300452 0.990806 0.092479 -0.0987442
-0.319319 -0.146926 0.185791 0.0940047 0.0542849 0.994091
-0.436493 0.144667 0.169431 0.0940046 0.0542848 0.994091
0.458128 -0.17592 -0.0517308 -0.990806 -0.092479 0.0987442
0.418198 0.320261 0.0123103 -0.990806 -0.0924794 0.0987443
0.474978 0.144972 -0.161852 0.990804 0.0924759 -0.0987676
-0.309038 -0.100062 0.106596 -0.990806 -0.092479 0.0987442
-0.468446 -0.166677 0.189455 0.0940047 0.0542849 0.994091
-0.240215 -0.0594008 0.162014 0.094 0.0542848 0.994091
0.34223 -0.112225 0.121338 0.0940046 0.0542849 0.994091
-0.219141 0.0326198 0.120003 0.990806 0.092479 -0.0987441
-0.297608 -0.251635 0.0793253 -0.990806 -0.092479 0.0987442
-0.330865 -0.136478 0.117211 -0.0940047 -0.0542849 -0.994091
0.504549 -0.189771 -0.0888608 -0.0915493 -0.0790608 -0.992657
0.331222 -0.123785 -0.026711 -0.0940047 -0.0542849 -0.994091
-0.386976 -0.0410604 0.174891 0.0940046 0.0542848 0.994091
-0.318748 0.0332781 0.0261755 -0.0940047 -0.0542849 -0.994091
0.185078 0.219574 -0.0012302 0.0972928 -0.994234 0.0450924
0.441274 0.086233 0.0320326 -0.0940047 -0.0542849 -0.994091
-0.47153 -0.206303 0.139008 -0.990806 -0.092479 0.0987442
