ply
format ascii 1.0
comment Created by Open3D
element vertex 128
property double x
property double y
property double z
property double nx
property double ny
property double nz
end_header
-0.170432 0.00794989 -0.0447671 -0.413962 -0.899562 0.139371
-0.242172 0.12955 -0.304425 -0.362059 0.890771 -0.274664
-0.166029 0.0924831 -0.301555 0.787959 -0.00252728 -0.615722
-0.22084 -0.0355185 -0.462028 -0.105843 -0.166398 -0.980362
0.0222314 -0.0179176 0.463928 -0.83019 -0.371728 0.415456
-0.211653 0.00184854 -0.337553 0.751854 -0.380738 0.538289
0.240009 -0.00208553 0.364434 0.914911 0.306808 -0.262311
-0.0720793 0.0845592 0.0149354 0.21747 0.885237 -0.411172
0.151346 0.0196347 0.0741903 0.682241 0.685296 -0.254785
0.0368621 0.0705009 0.0617639 0.424726 0.894316 -0.140736
-0.282083 0.050174 -0.369246 -0.659729 0.4773 -0.580467
-0.160569 0.0613071 -0.380795 0.389572 0.860914 -0.327201
-0.0156471 -0.0202762 0.35404 -0.516603 -0.855716 0.0295181
0.0364364 -0.0953714 -0.391365 0.80973 -0.570811 -0.13606
0.0249537 -0.0791847 0.194916 -0.80256 -0.587904 0.101327
0.0655706 -0.164029 -0.25756 0.650062 -0.662613 0.371974
0.0736599 -0.0682255 -0.314134 0.832508 0.534649 -0.145192
0.1041 -0.0789559 -0.0386349 0.872671 -0.083411 -0.481132
0.114676 0.0234217 0.483607 0.358512 -0.124238 0.925221
-0.0024205 -0.0808 0.0317124 -0.566058 -0.668316 0.482631
-0.0694632 0.091539 0.154423 -0.410672 0.904458 0.115342
-0.0123785 -0.0964863 -0.0587457 -0.359123 -0.932857 -0.02843
0.158542 -0.170909 0.0769369 -0.310676 0.312015 0.897846
0.0921786 -0.0599583 0.425964 -0.502143 -0.838246 0.212595
-0.22486 0.087113 -0.36194 -0.10406 0.915735 -0.388073
0.212983 -0.123705 0.320237 0.842452 -0.502818 0.193516
0.0242107 -0.0623259 -0.326263 0.359541 0.842741 0.400646
0.238732 0.0164779 0.455704 0.338472 -0.00354253 0.94097
0.0854849 -0.085132 0.35744 -0.939827 -0.336857 0.0570317
-0.0398225 0.076387 0.242407 -0.572454 0.80278 0.166854
0.163609 0.0890128 0.481259 0.565243 -0.0552991 0.823069
0.140452 -0.0371292 0.0309151 0.61903 0.316897 -0.718595
-0.135845 0.00770685 -0.462317 -0.528725 0.380975 -0.758491
0.224463 -0.148704 0.382088 0.577676 -0.0986873 -0.810279
-0.00820138 0.0986198 0.303688 -0.275086 0.955042 0.110555
0.130321 -0.125518 0.0402179 0.8789 -0.40905 -0.245381
-0.162158 0.0792998 -0.0716 -0.386037 0.920631 -0.0584319
0.159886 0.0551478 0.294433 0.743725 0.654728 -0.134925
-0.0332749 -0.0147506 0.239735 -0.805322 -0.569642 0.16421
-0.031092 -0.110736 -0.119873 -0.413687 -0.901364 0.128083
-0.110605 0.0308523 -0.400239 0.108145 0.993158 0.04406
0.121856 -0.121218 0.305297 -0.960445 -0.229195 -0.158159
-0.147081 0.0531039 0.0131613 -0.83123 -0.319739 0.454779
0.181737 0.0471121 0.393871 0.523038 0.832853 -0.181073
0.0232747 -0.171902 -0.369911 0.780203 -0.623607 -0.048972
0.109227 0.0362968 0.0689421 0.622376 0.681118 -0.385649
-0.00240332 -0.00711793 -0.16341 0.740546 0.666965 -0.082156
0.104505 -0.135684 0.125763 -0.544566 -0.81684 0.190315
-0.299532 0.0571156 -0.316367 -0.74811 0.649335 0.136732
0.0219458 -0.0881114 -0.268945 -0.633061 0.727356 -0.264929
0.0809085 0.0800254 0.222388 0.201981 0.859876 -0.468846
-0.127473 -0.0265143 -0.0453304 -0.396082 -0.910737 0.116946
-0.248678 0.103632 -0.238355 -0.653528 0.669961 0.352212
-0.0555034 -0.0435631 0.0947178 -0.085171 -0.995978 -0.0278218
-0.200952 0.122636 -0.216685 0.525968 0.848007 -0.0651259
-0.0986376 0.0213614 0.289742 -0.311574 -0.941912 0.125394
0.159103 -0.109117 0.162082 0.831777 -0.550697 0.0698544
-0.0659178 0.0647243 -0.0542363 -0.0768146 0.915313 0.395349
0.178493 -0.0669262 0.120341 0.927682 -0.255837 -0.271945
-0.144268 0.0543368 -0.196103 0.382242 -0.923343 0.0364396
0.0601319 -0.000770229 -0.0497335 0.329189 0.920847 -0.208988
0.00339575 0.0410739 -0.00605469 0.235812 0.63742 -0.733545
0.0666812 -0.0886071 0.247617 -0.462014 -0.874274 0.148959
0.174941 -0.00591262 0.232624 0.990259 -0.137193 -0.0237871
0.237569 -0.0733759 0.364326 0.848678 0.00201189 -0.528907
0.183469 -0.153566 0.213163 0.481592 -0.875306 0.0436832
-0.109831 -0.0204097 0.0503037 -0.401425 -0.912624 0.0773034
-0.185368 0.00838045 -0.127225 -0.598627 -0.770599 0.218683
0.0266656 -0.0277047 -0.230554 0.669399 0.633293 -0.388388
-0.164653 0.0965234 -0.127871 -0.254992 0.861335 0.439411
0.180981 -0.0849702 0.0365059 0.918567 -0.370437 -0.137878
0.157934 -0.116702 0.36622 -0.546135 -0.808951 0.217565
0.103406 0.087728 0.409821 -0.154047 0.979566 0.129302
0.0103077 0.0254181 0.511626 0.511736 -0.554449 0.656287
0.0456181 0.0811213 0.453866 -0.448396 0.822175 0.350669
0.0038074 0.0202231 -0.0748771 0.755848 0.638711 0.144017
0.188288 -0.119883 0.469995 -0.636024 -0.750476 0.179608
0.138206 0.0718446 0.329213 -0.0709908 0.986126 -0.150051
0.0404194 -0.116005 -0.0114148 -0.633014 -0.698801 0.333122
0.0424207 -0.0161466 0.396638 -0.206064 -0.923215 0.324362
-0.0466246 0.0495268 0.341467 -0.666065 0.60668 0.433931
-0.0399068 0.0385535 0.42911 -0.64294 0.474108 0.60154
-0.0855966 -0.00325873 0.164238 -0.779287 -0.615408 -0.118253
-0.010314 0.09367 0.0797706 -0.0398132 0.905754 0.42193
-0.155722 0.0704198 0.122608 -0.331449 0.146755 -0.93199
-0.0886959 -0.0459436 -0.116712 -0.834726 -0.111253 0.53931
0.207548 0.00313971 0.304062 0.900061 0.340122 -0.27241
-0.216695 -0.000134355 -0.222845 0.696916 -0.676115 -0.239115
0.214289 -0.0891597 0.255178 0.970284 -0.222465 -0.0951717
-0.109484 0.038566 0.200349 -0.842401 0.110026 0.527498
-0.267484 0.0228479 -0.291076 -0.624776 -0.754319 0.201636
0.0756924 -0.0459423 -0.11851 0.781501 0.594549 -0.189126
-0.191353 -0.0462508 -0.359707 -0.289601 -0.95199 0.0992325
-0.0533796 -0.023973 -0.44208 0.493296 0.850658 -0.181768
-0.0526383 -0.143713 -0.423669 -0.322254 -0.943305 0.0795489
0.0491046 0.0567201 0.513342 0.277824 0.025503 0.960293
-0.222666 0.0768966 -0.141338 -0.482252 0.502367 0.717677
0.0762656 -0.105084 -0.112937 0.910547 -0.405542 -0.0802507
-0.0231687 -0.151119 -0.287162 -0.730477 -0.676292 0.0950385
0.0731421 0.0672106 0.148012 0.74832 0.534704 -0.392567
-0.0516062 0.0401811 -0.166032 0.524829 0.726337 -0.443835
0.0226976 -0.0600806 0.299534 0.0668422 -0.990175 0.122825
-0.0344268 -0.0198966 -0.163772 -0.716753 0.61995 -0.319262
-0.0519843 -0.134975 -0.351856 -0.467936 -0.882421 0.0486815
0.103093 -0.117434 0.193313 -0.736142 -0.527324 0.424293
-0.0984081 0.117151 0.116269 -0.601055 0.596922 0.531429
0.256479 -0.0846931 0.418428 0.84863 0.323169 -0.418794
-0.276837 0.0453744 -0.193186 -0.565928 -0.756637 0.327454
0.084318 -0.10464 -0.215439 0.641619 -0.038975 -0.766032
-0.155774 0.0281227 0.0891523 -0.26354 -0.954654 0.138501
0.129933 -0.052614 0.483 0.919785 -0.225175 0.321389
0.16861 0.0036805 0.171969 0.885 0.282256 -0.370278
0.0930301 0.102771 0.299219 0.191336 0.591972 -0.782917
-0.199243 0.0449948 -0.402555 0.0338799 0.558356 -0.828909
-0.0881192 -0.0538022 -0.0105986 -0.135213 -0.979959 0.146278
0.0255747 -0.129352 -0.183429 -0.645967 -0.729258 0.225631
0.198505 -0.0494491 0.456705 -0.00672254 0.0523601 0.998606
-0.144451 -0.0670971 -0.48147 -0.167719 -0.0536031 -0.984376
-0.00200363 0.101466 0.152142 -0.0115544 0.999428 0.0317747
0.0506319 -0.106458 0.0868311 -0.516564 -0.840464 0.163652
-0.0735362 -0.0434019 -0.371434 -0.548864 -0.808775 0.211262
0.0649127 0.0970542 0.358689 -0.568862 0.502373 0.651166
-0.0675828 -0.0921587 -0.476986 0.385346 -0.404261 -0.829507
-0.144741 0.0232914 -0.159608 0.331059 -0.587877 -0.738106
-0.136123 -0.0910213 -0.408996 -0.384135 -0.923082 -0.0189995
0.14893 0.0551107 0.219888 0.605807 0.761224 -0.231377
0.0217413 -0.0699941 0.135904 -0.0105584 -0.979838 0.199514
0.105516 0.00469575 0.00653516 0.713284 0.58235 -0.389993
