ply
format ascii 1.0
comment Created by Open3D
element vertex 825
property double x
property double y
property double z
property double nx
property double ny
property double nz
end_header
0.131274 -0.0181348 -0.12431 0.997253 -0.0522437 -0.0525073
0.167153 -0.115949 0.0581393 0.624448 -0.0500624 0.77946
-0.103515 0.288219 0.0525405 -0.574708 0.798377 0.179736
0.169114 -0.327246 -0.132184 0.258139 -0.942905 -0.210464
-0.105915 0.208231 0.208087 -0.221664 0.870511 0.439404
0.0999251 -0.281813 0.268113 -0.254729 -0.418547 0.87174
0.107023 -0.237686 0.261826 0.932984 0.292067 0.210327
-0.00231986 -0.181524 0.120307 -0.907533 -0.405403 -0.109689
0.196033 -0.16433 -0.130727 -0.424432 0.889275 -0.170434
0.189604 -0.301362 -0.104265 0.84529 0.525789 0.0950364
0.102648 -0.0397974 0.270847 0.826671 0.560341 0.0513155
0.113428 -0.319719 0.276507 -0.182286 0.168957 0.96862
0.119055 -0.178712 -0.256726 0.848463 0.521723 0.0889697
0.0851431 -0.0581851 -0.283779 0.27517 -0.0787975 -0.958161
0.0821241 0.071202 -0.132136 0.92577 0.206941 -0.316427
-0.0384282 -0.0605669 -0.317393 -0.75115 -0.229517 -0.618948
0.019359 -0.0838681 -0.426544 -0.665919 0.653827 -0.359252
0.0414102 0.0766761 0.185875 0.575723 0.809169 0.117426
0.0440162 0.0639887 -0.30451 0.0493335 0.132844 -0.989908
0.00144085 -0.06658 0.306573 0.230515 -0.617866 0.751734
-0.0573322 0.182568 -0.221551 -0.0228849 0.381806 -0.923959
0.160613 -0.0534371 -0.272639 0.336768 -0.390389 -0.856845
0.0358316 0.138779 -0.0428334 0.314131 -0.663432 0.679102
0.145736 -0.0745109 -0.255769 0.448824 -0.800481 -0.397223
0.014521 -0.195025 0.0327451 -0.740075 -0.661126 -0.123298
-0.000463639 -0.105371 -0.360436 -0.808856 -0.434987 -0.39565
-0.104439 0.208881 0.0925223 0.401255 -0.852211 0.335754
-0.0119387 -0.0188578 -0.122631 -0.138315 -0.340699 0.929943
0.116172 0.0465237 -0.276839 0.834045 0.539547 0.115145
0.14872 -0.0845273 0.0503819 0.902796 0.0863257 0.421316
-0.0309266 -0.107314 -0.1435 -0.915496 -0.393161 -0.0853874
0.0809439 0.0519237 -0.0951562 -0.00602598 -0.549495 0.835475
-0.212966 0.209562 -0.122309 -0.439391 -0.842791 -0.310868
0.0622669 -0.17138 -0.166188 0.411238 -0.2885 0.864668
0.0797224 -0.0828223 -0.395748 0.764162 0.617076 0.187811
0.130599 -0.057531 0.306801 0.298999 0.917604 0.261921
0.160461 -0.28906 -0.0750825 0.8354 0.532001 -0.13814
0.124886 -0.34875 -0.100731 -0.789277 -0.537532 0.296816
0.0620604 -0.121313 -0.413461 0.450458 -0.887751 -0.0947917
0.0301879 -0.239264 -0.00987539 -0.823316 -0.564811 -0.0560282
-0.216441 0.170675 -0.0024092 -0.902174 -0.42869 -0.0480324
0.109195 0.0316773 -0.193238 0.795105 0.484021 -0.365421
-0.0800171 -0.03746 -0.136016 -0.89902 -0.435626 -0.0446475
0.0676999 0.0690631 -0.104564 0.759484 0.641409 0.10853
0.0696648 0.128768 -0.214175 0.902027 0.425168 0.0746987
0.0774392 0.104368 -0.199016 0.921241 0.246096 0.301249
-0.210202 0.225601 0.333771 0.775634 0.443589 -0.449023
-0.00812993 0.240407 -0.13952 0.584729 0.810507 -0.0342006
-0.0764972 0.0690955 -0.136501 0.0740248 0.236057 -0.968916
0.0624091 -0.0985337 -0.493402 0.183744 0.62145 -0.761602
0.0836971 -0.354953 0.178468 0.583175 -0.697461 -0.416479
0.135727 -0.249451 -0.401673 0.450634 0.0625768 -0.890513
-0.0580257 0.146488 -0.153565 0.224502 -0.663513 -0.713687
-0.0225715 0.0337263 0.291398 0.272334 -0.35469 0.894444
-0.128076 0.26063 -0.10868 -0.450693 0.887982 -0.0914596
-0.120751 0.105597 0.291259 0.948338 0.310382 0.0657032
-0.238419 0.220087 -0.0600871 -0.895801 -0.392508 -0.208513
-0.189702 0.166013 0.108207 0.470714 -0.751512 0.462232
0.0996468 -0.0181548 0.200601 0.320554 -0.846852 0.424365
-0.0888536 0.023124 -0.0812134 -0.466928 -0.417392 0.779591
-0.00192479 -0.208696 0.237381 -0.582712 -0.788965 0.19489
0.00854543 -0.140696 -0.129823 -0.899628 -0.368419 -0.234385
0.066071 -0.302407 0.0157686 -0.337041 -0.850963 0.402821
0.191998 -0.172028 -0.167338 0.715568 -0.698375 0.0153397
0.21222 -0.123587 -0.19358 0.440807 -0.54056 -0.716578
0.00462979 0.131645 0.258264 0.883873 0.353293 0.306517
-0.255554 0.334585 -0.0720504 -0.240252 0.13731 0.96095
-0.0127024 0.232176 -0.00682047 0.977649 0.0985818 -0.185698
0.209704 -0.352039 -0.245011 0.995305 0.00638201 0.0965787
-0.139568 -0.0184893 0.276946 -0.948254 -0.263098 -0.177747
0.11977 -0.056924 0.0347772 -0.150777 0.793445 -0.58967
0.117975 -0.309254 -0.264441 0.0416067 0.173805 -0.983901
0.100968 -0.356897 0.0769681 -0.845828 -0.512374 -0.148487
0.196645 -0.294253 -0.245994 0.978049 0.14739 0.147298
-0.00764345 0.177588 -0.164016 0.603574 -0.497268 -0.623236
-0.134364 0.202139 0.200799 -0.379734 0.921796 -0.0780631
-0.148501 0.0798887 0.366496 -0.577675 0.797777 0.17275
-0.0616295 0.126998 -0.27416 0.911628 0.410789 0.0136848
0.12541 -0.121793 0.217051 -0.194163 0.890818 -0.410784
-0.0637359 0.0399097 0.0789466 0.629739 -0.718073 -0.29631
-0.0291667 -0.0306419 0.323223 0.810171 0.557381 0.181519
-0.0211922 0.0782235 -0.0866999 0.541731 -0.65362 0.528496
-0.13148 0.219905 -0.306577 -0.545759 0.824533 -0.149304
0.00193092 -0.1888 0.164198 -0.512862 0.801951 0.306344
-0.161323 0.0197085 0.196657 -0.190112 -0.967218 -0.168366
-0.227607 0.169302 -0.0649025 -0.922701 -0.276482 -0.268665
-0.0711846 0.0465304 0.281058 0.905522 -0.0330309 0.423011
0.151607 -0.0593432 -0.116886 0.84554 0.526063 0.0912133
0.0153225 -0.241611 0.283873 -0.960563 -0.243451 -0.134353
-0.0706944 0.0015598 -0.32666 -0.867766 -0.492128 -0.0692285
0.12956 -0.153235 -0.230378 0.36475 -0.448827 -0.815789
0.00351341 0.181226 -0.200097 0.319091 -0.623983 0.713321
-0.0627666 -0.0353787 -0.255118 -0.816678 -0.576293 -0.030384
0.0433872 -0.203325 -0.320358 -0.951771 -0.280926 -0.123338
-0.159392 0.126168 0.154643 0.440201 -0.811286 -0.384757
-0.14072 0.0553644 -0.0728203 -0.87845 -0.476475 -0.0360193
0.0775355 -0.298468 -0.112632 -0.804108 -0.589824 -0.0742819
0.139355 -0.0150154 -0.228523 0.782444 0.619721 -0.0610488
0.132653 -0.0197163 -0.281426 -0.16971 0.336876 -0.926128
0.152106 -0.287439 0.0924888 0.812304 0.58323 -0.00218439
-0.0912043 -0.0928092 0.225214 -0.827146 -0.556151 -0.0807828
-0.0529516 0.22468 0.188411 0.867293 0.42756 -0.25494
0.193409 -0.348364 -0.0203853 0.477169 0.522754 0.706427
0.233182 -0.146872 -0.0903184 0.807737 0.582905 0.0882214
0.170753 -0.11478 0.175366 0.931427 0.278727 0.233997
-0.240172 0.257852 -0.277506 -0.855453 -0.507893 -0.101218
-0.0987472 0.187765 -0.378148 0.976966 0.145714 0.155899
-0.0684621 0.0885953 0.0212096 0.486742 -0.871754 -0.0559233
-0.250905 0.362339 0.0603829 0.89793 -0.225188 0.378168
-0.0733631 -0.0106339 0.380543 0.0116017 -0.200375 0.979651
-0.213236 0.142086 0.157493 -0.861656 -0.126155 -0.491564
-0.18385 0.275087 -0.0343729 0.697994 0.715569 0.0276791
-0.0179445 -0.143125 0.0208555 -0.69841 -0.71475 0.0368217
-0.170991 0.180164 0.326093 0.787884 0.615246 0.026654
0.0756886 -0.030246 0.187842 -0.219711 -0.730501 0.646603
-0.0137076 0.182182 -0.20863 0.77044 -0.555221 -0.313292
-0.295365 0.30212 0.0131854 -0.9749 -0.13104 -0.179996
0.0684215 0.0856546 -0.0932504 0.366062 -0.456019 0.8112
-0.0533047 -0.0982413 -0.123136 -0.963747 -0.196079 -0.180957
0.0819289 -0.233401 0.392605 0.681331 0.498602 0.535895
0.0730855 -0.294948 0.00697171 -0.774249 -0.480181 0.412267
0.000510425 0.154705 -0.240173 0.249391 -0.34183 0.906067
-0.146694 0.0721529 -0.0985516 -0.885548 -0.455723 -0.0901159
-0.0703538 0.138528 -0.3096 0.948471 -0.112609 0.296177
0.191794 -0.402172 -0.0252826 -0.0755121 -0.318162 0.945024
-0.294305 0.397185 0.0697856 0.796594 0.559827 0.228102
-0.224284 0.244336 -0.290949 -0.229816 0.646841 -0.727174
-0.0368509 0.100562 -0.135502 -0.183929 0.46266 -0.867246
0.0325392 -0.17144 -0.170213 0.376726 -0.436262 0.817162
-0.108778 0.0834083 -0.339065 -0.862261 -0.49814 -0.0914482
-0.274498 0.25026 -0.0770127 -0.914626 -0.0530134 -0.400811
0.154421 -0.254537 -0.21444 0.814139 0.574306 0.0857352
-0.0267046 0.0685288 -0.22165 -0.449384 0.627868 0.63548
0.0295335 -0.263358 0.316343 0.320658 -0.899754 0.296008
0.0846031 -0.333175 0.150478 -0.990499 -0.131465 -0.0403491
0.0478421 -0.240658 0.405578 -0.0175486 0.791317 0.611154
-0.181665 0.129372 0.0611309 0.0110821 -0.209989 0.977641
0.104132 -0.343029 0.303156 -0.0353278 -0.0441843 0.998399
0.0853194 0.01793 0.152109 0.986399 0.164335 -0.00336919
0.011514 0.168066 -0.129435 0.714608 0.69871 -0.0337638
-0.142473 0.0683923 -0.0294785 -0.805798 -0.590118 -0.0495046
-0.221085 0.196818 0.096829 -0.436207 -0.81222 0.387327
-0.103767 0.0305824 -0.354716 -0.842944 -0.534949 -0.0572243
-0.128888 0.232804 0.171053 -0.509728 0.662609 0.54875
0.0253531 -0.18758 0.379339 -0.316917 0.683251 0.657824
0.0603235 -0.130122 -0.375085 0.554703 -0.752125 -0.355827
0.213599 -0.146732 -0.0628549 0.937037 0.0742427 -0.341247
-0.18123 0.262078 -0.11622 0.789003 0.581416 0.19857
-0.00861286 -0.209432 0.186372 -0.828833 -0.555779 -0.0643873
0.0681698 -0.033352 0.0866678 -0.0933594 0.542828 -0.834639
0.208379 -0.369634 -0.270037 0.397755 -0.563281 -0.724228
0.054637 -0.0638323 0.243477 0.28422 -0.643605 -0.710628
0.085257 -0.0456344 0.155744 0.0173811 -0.164133 0.986285
0.0342072 -0.0954236 0.228779 0.0855462 -0.0352537 -0.99571
0.0365534 -0.135628 0.281236 0.93462 0.275282 -0.225177
-0.149017 0.258974 -0.273262 0.88222 0.189445 0.431044
0.226832 -0.399175 -0.0352143 0.861326 0.507569 -0.022157
-0.193499 0.0762204 0.33832 -0.402018 0.484675 0.776834
-0.0671529 -0.0519198 0.384341 -0.571908 0.441298 0.691504
0.185275 -0.152559 0.150433 0.828818 0.556533 -0.057722
-0.0929232 0.294724 0.065808 0.940367 0.321684 0.110587
-0.291202 0.340249 0.0170724 -0.165166 0.458667 -0.873123
-0.203632 0.100841 0.265504 -0.811947 -0.49463 0.309973
-0.0930645 0.0239332 -0.252757 -0.952126 -0.295011 -0.0801525
-0.0502468 -0.0257783 -0.386444 -0.937783 -0.345277 -0.0367048
0.189793 -0.147105 0.108109 0.44165 0.840348 0.314262
0.120642 -0.274609 -0.246026 0.315022 0.0388498 -0.948289
0.21047 -0.0932076 -0.179009 0.886138 0.443203 -0.135392
0.013762 -0.170831 -0.145141 0.222959 -0.545131 0.808159
0.0638299 -0.251134 -0.223034 -0.84722 -0.337934 0.409901
0.0856842 -0.120413 0.154655 -0.416639 0.580255 0.699798
0.251859 -0.195868 -0.0538713 0.275625 -0.952407 -0.130199
0.0914494 -0.262071 0.265464 -0.177085 0.183906 0.966861
-0.0438848 0.194282 0.174205 0.0332324 0.116861 -0.992592
0.111099 -0.37349 0.253836 0.201228 -0.925302 -0.321439
0.00408754 -0.00654306 -0.108889 0.197983 -0.339382 0.919578
-0.145325 0.278418 -0.0245193 -0.399359 0.888433 -0.226273
-0.0235343 -0.0879017 -0.275032 -0.832701 -0.510617 0.214193
-0.0724799 0.0778849 -0.406546 -0.772209 0.620702 0.135729
0.0124799 -0.17314 -0.0333103 -0.52228 0.779612 -0.345585
0.0261974 -0.214805 0.0039189 -0.905996 -0.421942 -0.033706
-0.280497 0.241453 0.100528 -0.642806 -0.765378 -0.0315562
0.07607 -0.236831 0.351127 0.835258 0.545335 -0.0703827
0.00894522 -0.0312794 -0.10905 0.305012 0.050764 0.950994
-0.114633 -0.0435977 0.301958 -0.87216 -0.465722 -0.149798
0.15782 -0.255694 -0.157378 0.883277 0.374518 0.28206
0.105028 0.0279991 -0.144902 0.942802 0.256867 0.212469
-0.0841033 0.115517 -0.161733 0.543066 -0.764556 -0.34718
0.0421791 -0.186096 -0.345724 -0.499081 -0.734855 -0.459244
0.138191 -0.445938 0.104624 -0.56796 -0.812708 0.130105
-0.15731 0.144362 -0.264515 -0.213613 -0.893044 -0.396032
0.0524711 0.0292662 0.104035 -0.0173002 0.267819 -0.963314
0.148423 -0.0687346 -0.0968238 0.604924 -0.786955 0.121528
0.0106087 0.0176706 -0.317139 0.621884 0.767393 -0.156102
-0.138144 0.256118 0.110067 -0.518995 0.717994 0.46382
0.00635526 -0.177295 0.00129185 -0.578606 -0.769194 0.27121
-0.161487 0.0365707 0.287088 -0.85254 -0.512638 -0.10187
-0.035678 0.0659985 -0.323738 0.704611 0.706288 -0.0684111
-0.0733747 0.185123 0.247052 -0.453297 0.630121 0.630452
0.159841 -0.201479 0.176125 0.696019 -0.594074 0.403279
-0.0154341 0.101718 -0.0666965 0.587194 -0.744206 0.318372
-0.20724 0.187018 -0.23789 -0.790105 -0.61083 -0.0512039
0.194166 -0.318304 -0.217161 0.725381 0.492205 -0.481203
0.182535 -0.0873503 -0.216113 0.851986 -0.0544108 0.520729
-0.117976 0.0495756 -0.0297398 0.827016 -0.560458 -0.0439446
-0.0194292 0.0338036 -0.315 0.963586 0.248431 0.0989168
0.2043 -0.384579 0.122276 0.829151 0.551482 0.0915196
0.018743 -0.24312 0.22275 -0.539893 -0.818969 -0.194434
0.161101 -0.128674 -0.0630855 -0.0508996 0.184088 -0.981591
0.0754587 -0.224893 0.268581 0.555436 0.491508 0.670754
0.0634499 -0.0177822 -0.306531 0.263327 -0.404099 -0.875992
-0.0930806 0.193664 -0.344242 0.635487 0.747006 -0.195292
-0.0745244 0.168187 -0.273367 0.522824 0.559956 -0.642732
0.0292425 -0.181114 0.180966 -0.604112 0.772362 0.196228
0.167613 -0.293095 -0.0248319 0.834708 0.52014 0.18088
-0.167766 0.164287 0.144225 0.190737 -0.47772 -0.857556
-0.263946 0.311586 -0.291636 -0.38207 0.826012 0.414399
0.0428904 -0.0313028 0.297683 0.287084 -0.194556 0.93794
0.23002 -0.179891 -0.0358342 0.609629 0.715872 0.340412
0.0614692 0.0350103 0.273065 0.388554 0.89577 0.21592
0.1286 -0.0954879 -0.109865 0.0974639 -0.79979 0.592315
0.0779708 0.011441 0.18707 0.785611 0.474176 0.397458
-0.238078 0.183321 0.399131 -0.0578076 -0.497552 0.865506
0.0706125 -0.269166 0.396775 0.296396 -0.950755 -0.0906315
-0.214449 0.149987 0.0529533 -0.888222 -0.451464 -0.0850994
-0.0295392 -0.149626 0.122352 -0.847164 -0.522069 -0.098781
0.0612064 0.00760413 -0.298637 0.414452 -0.560606 -0.716903
-0.0423288 -0.0416808 -0.354238 -0.311492 -0.14598 -0.938969
0.161635 -0.379503 0.293374 0.849385 0.274004 0.451074
0.0847269 0.00684528 -0.0983365 0.215009 -0.481941 0.849414
-0.317616 0.330853 0.0136614 -0.910369 -0.411726 -0.0413541
-0.00940416 -0.100633 -0.311043 -0.710932 -0.701228 0.0534343
-0.167792 0.056492 0.411895 -0.135998 0.985927 -0.0972288
-0.306469 0.387267 0.0620996 -0.646958 0.716507 0.260888
-0.145916 0.181648 -0.323515 -0.362232 0.912987 -0.187729
-0.0934005 0.278063 0.0970732 -0.459951 0.860274 0.219939
0.0411037 0.0861319 -0.0812671 0.646258 -0.438992 0.624209
-0.0664277 0.0561436 -0.155817 -0.408814 0.668739 -0.621015
0.0685878 -0.18379 0.241866 0.114059 -0.491431 0.863415
-0.23792 0.33602 -0.137592 -0.200001 0.332714 -0.921575
0.15394 -0.349986 0.147451 -0.0536955 0.231718 0.9713
-0.237242 0.195321 0.363006 0.124322 0.84632 -0.517964
0.0637263 0.105672 -0.130533 0.715571 0.690412 0.106246
-0.21118 0.158725 -0.0949154 -0.525006 -0.810794 -0.258809
0.0676465 -0.21302 -0.367187 -0.98648 -0.0627382 0.151398
-0.0403608 0.146725 -0.262488 0.202485 0.221857 -0.953824
0.155996 -0.396284 0.0693401 0.457741 -0.556603 -0.693301
0.20202 -0.168749 0.108043 0.920355 0.308091 0.240887
-0.281179 0.297508 -0.122502 -0.993525 -0.0813187 -0.0793478
-0.195842 0.189918 -0.266059 -0.837503 -0.531095 0.128556
-0.103377 -0.00249575 0.384954 0.52949 -0.765843 0.364864
-0.0121943 -0.028888 0.30029 -0.498099 0.334481 0.800013
0.209096 -0.432805 -0.0666061 0.144955 -0.431669 0.890309
-0.214904 0.279264 -0.15831 0.110355 0.324484 -0.939432
0.0547485 -0.286661 -0.0586996 -0.994968 0.0537254 -0.0845766
0.0922881 -0.111476 -0.131959 0.0993401 -0.797668 0.594859
-0.0638624 0.0781807 0.293309 -0.259196 0.22529 0.939182
0.0515828 -0.226875 -0.257005 -0.827873 -0.538775 0.156039
0.221682 -0.200705 -0.104974 0.687316 -0.612567 -0.39033
-0.232065 0.315685 -0.0520704 -0.479247 0.807182 0.344643
0.150963 -0.204139 -0.167833 0.485274 -0.561907 -0.669903
0.152542 -0.345839 -0.109481 0.499841 -0.70471 -0.50353
0.136329 -0.243266 0.134659 0.404187 -0.786981 0.466148
0.115505 -0.0989428 -0.0989013 0.542763 -0.689747 -0.479226
-0.124262 0.138128 0.0606037 -0.298808 0.263368 0.917252
0.165221 -0.260845 0.0317603 0.298026 -0.83808 0.45695
-0.0703776 -0.0268639 -0.295021 -0.870343 0.142165 -0.471478
0.131184 -0.258841 0.151573 0.946854 0.321663 0.000377807
-0.0231636 0.0554543 -0.3047 0.0459052 0.0159173 -0.998819
0.00762528 -0.107159 -0.429721 -0.84746 -0.526216 0.0700647
-0.0374498 -0.0519473 0.374919 0.566088 0.700123 0.43517
0.0693582 -0.0520151 -0.081344 -0.305713 0.446457 0.840961
0.204713 -0.22316 -0.0983919 0.321123 -0.0824749 -0.943439
-0.0303393 -0.0952383 0.480496 0.260683 -0.868201 0.422222
-0.0459874 0.042305 -0.193549 -0.465232 0.847315 -0.256158
-0.0587243 0.0622521 -0.472545 -0.893149 0.445277 0.0633508
-0.180389 0.217129 0.218714 0.673937 0.39187 0.626296
-0.165944 0.0661274 0.0463824 -0.948765 -0.315745 0.0122695
-0.127833 0.0407394 -0.123539 -0.706458 -0.707712 -0.00771355
-0.135274 0.191586 0.210127 -0.55094 0.356535 0.754552
-0.00928426 0.19763 -0.093724 0.801668 0.00561333 0.597743
-0.0310816 -0.0799882 -0.201196 -0.514583 -0.853749 0.0794772
-0.182679 0.337712 -0.251227 0.717778 0.666154 -0.202571
-0.0996247 0.0419656 -0.28137 -0.356483 -0.896383 0.263471
0.169292 -0.324148 0.0770428 0.6319 0.758014 0.161607
0.117767 -0.340228 0.190759 0.534022 -0.778276 -0.330313
-0.0157007 -0.227495 0.335862 -0.851593 -0.514573 -0.10002
0.0551906 -0.0622038 -0.444248 -0.124621 0.675442 -0.726807
0.042711 -0.201711 -0.307496 -0.730435 -0.679853 0.0653022
-0.156767 0.0839233 0.0977257 -0.801926 0.45794 0.383673
0.036002 -0.073583 0.0695213 -0.222054 0.598203 -0.769964
0.127984 -0.199484 -0.183241 0.499295 0.826737 -0.25925
-0.0777691 -0.00964601 -0.148937 -0.625222 -0.775843 -0.0846479
-0.0560921 0.203215 -0.225708 -0.635538 0.667502 -0.387985
0.201604 -0.308343 -0.22306 0.922192 0.228128 0.312281
-0.0677328 0.115357 -0.285448 0.761735 0.634605 0.130525
0.190788 -0.363845 -0.0348015 0.892334 0.428937 0.140545
0.0193564 -0.15615 0.357285 -0.305146 0.0624496 0.950256
-0.255504 0.308284 -0.317108 0.152225 0.0364095 -0.987675
0.118101 -0.376149 0.0654599 -0.939035 -0.256672 -0.228762
-0.043115 -0.131737 0.148291 -0.508624 -0.185735 0.840717
-0.253869 0.288183 -0.244334 -0.261088 0.934384 -0.242404
0.160749 -0.0911415 0.119026 0.642512 0.753925 0.137023
0.06267 -0.0419323 -0.0943693 -0.00906877 -0.0595342 0.998185
-0.166939 0.247687 -0.08378 0.947113 -0.28721 -0.143136
-0.220123 0.210606 -0.0230576 -0.608298 -0.764673 0.212719
-0.0620379 0.272323 0.0795461 0.709594 0.702354 0.0563472
0.135066 -0.0542046 0.0587964 0.978842 0.131372 0.156876
0.169317 -0.294841 -0.177883 0.977553 -0.116135 -0.175793
0.206616 -0.16559 -0.0931034 -0.579881 0.721328 0.378715
-0.0393514 0.0052822 0.303675 0.120551 -0.301925 0.945679
0.165483 -0.230904 0.130717 0.57191 -0.778902 0.257354
-0.145737 0.0865367 -0.226859 -0.872571 -0.467339 -0.142175
0.038527 0.085903 0.210589 0.940366 0.260285 0.219005
0.141829 -0.199017 -0.28138 0.850173 0.474101 0.228982
0.0308545 -0.264382 0.206392 -0.99294 -0.0725959 -0.0938107
0.0909049 -0.290644 -0.180129 -0.819079 -0.56947 -0.0693882
-0.0940588 -0.00331773 0.0836568 0.0791508 0.160752 -0.983816
-0.0552937 0.0974606 -0.0147992 0.624003 -0.778597 0.0663892
0.0921289 -0.291846 -0.19729 -0.846019 -0.527073 -0.08029
-0.179528 0.268465 -0.0742947 0.957093 0.203418 0.206383
-0.00603863 -0.249526 0.394867 -0.396807 0.203479 0.895065
0.139947 -0.241909 -0.11314 0.871569 0.377834 0.312424
-0.0471262 -0.0682386 -0.217558 -0.827805 -0.551649 -0.102088
-0.049237 0.248859 -0.20885 -0.00626578 0.650966 -0.759081
-0.109188 -0.0329753 0.179168 -0.889784 -0.306598 -0.338058
-0.0058389 -0.13145 0.00567497 -0.868312 0.490094 0.0764364
0.12195 -0.335017 -0.259905 0.31802 0.019663 -0.94788
0.0976733 -0.330037 -0.0514468 -0.894907 -0.382924 -0.229151
0.0569856 -0.102046 0.0025643 -0.536859 0.840778 0.0698206
0.0516281 -0.185718 -0.0671746 0.712162 -0.255398 -0.653909
0.212434 -0.36062 -0.00984125 0.7484 -0.377007 0.545676
-0.00224971 -0.104288 -0.4285 -0.64229 -0.532274 0.551496
0.0910005 -0.245483 0.191731 0.867676 0.295667 0.399648
0.144312 -0.0236266 -0.0819626 0.96869 0.246477 -0.0298165
-0.0733479 -0.00223433 -0.255316 -0.742124 -0.665586 -0.0790337
0.0961386 0.0882737 -0.269781 0.841561 0.492102 0.222734
-0.238523 0.227608 -0.151234 -0.889578 -0.432602 -0.146649
-0.175597 0.0852219 0.1517 -0.622126 -0.782721 0.0175428
0.112479 -0.0992098 0.277122 -0.0692654 0.510519 0.857072
0.0710385 0.00810561 0.115981 0.237272 -0.19167 -0.952347
-0.0668121 0.269594 0.154776 0.479365 0.867167 -0.135021
-0.108965 0.151834 0.0646017 -0.426808 0.419786 0.801008
-0.107383 0.155727 -0.400374 0.42537 -0.888397 -0.17266
-0.0688518 -0.130718 0.403144 -0.952028 -0.301516 -0.0522637
0.0504912 -0.249381 0.294842 0.517135 -0.834122 0.191864
0.0500772 0.0397053 0.262915 0.420117 0.888561 0.184284
-0.16118 0.0145251 0.224358 -0.784646 -0.60405 -0.139478
-0.0512359 0.278301 -0.0683683 0.966798 0.1559 0.202476
0.0512354 -0.176703 0.316691 0.900884 0.418265 0.116024
0.0186877 -0.196543 -0.179278 -0.775212 -0.618432 0.128791
0.0868847 -0.3633 0.204055 0.450953 -0.809666 -0.375611
-0.146032 0.184755 0.197877 0.849678 0.526243 0.0333981
-0.0704611 0.302591 -0.110369 0.0178722 0.802697 -0.59612
-0.116669 0.206937 -0.399527 0.572492 0.766721 -0.290502
0.149793 -0.249157 -0.392186 -0.531524 0.445403 -0.720485
0.0474471 -0.0508169 0.200176 0.65111 -0.58251 -0.486557
-0.220491 0.334981 -0.047525 -0.194953 0.197002 0.960824
-0.00403591 0.0910427 -0.276202 0.14399 0.307545 -0.940576
-0.274431 0.264613 0.0189565 -0.853089 -0.51047 -0.107979
-0.00230368 0.119277 -0.227146 -0.489424 0.350595 0.798466
-0.077411 0.159579 -0.310297 0.919098 0.248137 0.306082
-0.190971 0.288874 -0.0417034 0.883396 0.462042 0.0782824
-0.260322 0.314356 0.20968 -0.186144 0.60882 -0.77116
-0.0969038 0.00738872 0.0751454 0.346292 -0.635977 -0.689649
0.0691824 -0.286395 0.267766 0.228189 -0.525909 0.819359
-0.104759 0.195795 0.0742894 0.136548 -0.374997 0.916914
-0.243857 0.263226 -0.288208 -0.718014 -0.678401 0.155655
-0.0895652 -0.0500581 0.169694 -0.504128 -0.862354 -0.0469001
0.187763 -0.243753 0.0524709 0.518383 -0.827428 0.215969
-0.0901904 -0.0873199 0.286071 -0.849857 -0.405581 0.336522
0.139816 -0.100844 -0.0600304 0.263519 -0.251021 -0.931422
0.0974813 0.0541958 -0.197068 0.70878 0.705399 -0.00656008
-0.0897233 0.0516555 -0.0760418 0.444158 -0.724765 0.526725
0.157427 -0.142812 -0.153693 -0.227991 0.313013 0.921978
0.136329 -0.393969 -0.0561975 -0.846041 -0.532257 -0.030294
0.00835908 -0.00231248 0.301078 0.410906 -0.390749 0.823694
0.0859114 -0.206895 -0.360496 0.0800874 0.40883 -0.90909
-0.0977617 0.0937482 -0.362354 -0.0724518 0.270835 -0.959895
-0.223607 0.303104 0.239986 0.164539 0.746873 0.644288
0.0405808 -0.143284 -0.449254 0.545148 -0.811661 -0.209811
0.060086 -0.214798 0.403527 0.861148 0.448168 0.239936
-0.258738 0.293737 -0.00891097 -0.183436 0.667706 -0.721471
0.143219 -0.254282 -0.0590034 0.817348 0.39564 0.418821
0.21648 -0.209758 0.122601 0.380491 -0.826497 0.414885
-0.0226927 -0.151501 0.356595 0.482835 -0.690639 0.538412
0.0662625 -0.0733106 0.144356 0.456281 -0.368343 0.810019
-0.0134334 0.205389 0.0554974 0.836725 0.423538 0.347142
0.0270803 -0.140287 0.327957 0.786217 0.54148 0.297762
0.0344496 -0.271713 0.357154 0.442456 -0.89183 -0.0941936
-0.107916 0.00167003 -0.115584 -0.7309 -0.682222 0.0189598
-0.304802 0.302812 0.0571646 -0.461712 -0.884091 -0.0721529
-0.0461167 -0.083434 -0.192631 -0.719717 -0.67187 0.174921
-0.0271708 0.162849 0.182764 0.969466 0.241298 -0.0437218
0.0191687 0.212556 -0.223049 0.867591 0.485163 0.109097
-0.109259 0.138941 -0.197751 -0.242311 -0.947083 0.21052
-0.15742 0.0196185 0.289003 -0.991389 -0.0466835 -0.122346
0.0908254 -0.210579 0.243954 0.74565 0.66368 0.0594599
0.0706356 -0.155016 -0.0681039 -0.13231 0.130701 -0.982554
0.233864 -0.443339 -0.0884855 0.484661 -0.72024 -0.496345
-0.0750774 0.272114 0.143941 -0.494126 0.303784 0.814589
0.029242 -0.0138342 -0.307214 0.964076 0.260757 0.0506358
-0.0575543 0.212245 0.210199 -0.446085 0.43162 0.784036
-0.024629 0.0881848 -0.471795 0.589076 0.784919 -0.192073
0.0820646 -0.251265 -0.281489 -0.798626 -0.508149 0.32246
0.080729 -0.342673 0.03273 -0.711584 -0.693709 -0.11143
0.0403281 0.0749287 0.138987 0.226328 0.97405 -0.00170111
0.128717 -0.379451 0.250661 0.273685 -0.926441 -0.258465
0.208286 -0.148803 -0.065712 -0.225995 0.672397 -0.704847
-0.00221127 0.157729 0.224593 0.889239 0.389005 0.240683
-0.080071 0.0128887 -0.371374 -0.76082 -0.647623 0.0416857
0.180614 -0.305781 -0.0715204 0.829584 0.549721 0.0979644
-0.175455 0.0494033 0.398041 -0.91028 -0.36331 -0.198485
-0.128353 -0.00923079 0.316013 -0.907326 -0.208872 0.364872
-0.0507847 0.0230354 0.326202 0.990958 0.0201437 0.132655
-0.014323 0.243304 -0.190701 0.73441 0.457289 -0.501527
0.108792 -0.349143 0.158877 0.676881 -0.645663 0.353484
-0.0537002 0.111429 -0.322329 0.756511 0.647951 0.0886036
-0.287216 0.318161 -0.11958 -0.556639 -0.800976 -0.220431
0.0340565 -0.244821 0.163001 -0.744389 -0.660936 0.0951271
0.153133 -0.346685 0.251818 0.540507 -0.485531 -0.687104
-0.150364 0.114815 0.156224 -0.70592 0.611271 -0.357805
-0.179989 0.0428584 0.448244 -0.733969 0.608697 0.301294
-0.0996668 0.0407916 -0.369785 -0.903691 -0.409769 -0.124224
0.165521 -0.185973 -0.108279 -0.309322 0.943682 -0.117404
-0.206954 0.157477 0.0241755 -0.644561 -0.714305 -0.272597
-0.196704 0.164089 -0.248586 -0.886918 -0.43631 -0.151692
-0.150366 0.211087 0.139128 -0.502195 0.749549 0.43125
0.0676125 -0.258897 -0.33806 -0.848058 -0.521857 -0.0919999
0.00194908 -0.0758123 0.339877 0.794939 0.599006 0.0962464
0.120093 -0.00775435 -0.0930792 0.99467 0.0850699 0.0582577
-0.0544692 -0.0275569 -0.373447 -0.602215 -0.738478 0.303294
-0.182317 0.283303 -0.199902 -0.417131 0.729926 0.541489
0.149226 -0.280306 0.155993 0.893274 0.419204 0.162263
0.111516 -0.104435 -0.0787779 0.403821 -0.532513 -0.743881
-0.31346 0.336493 -0.108624 -0.902754 -0.272202 -0.333077
-0.173359 0.311277 -0.28813 0.555175 0.822177 -0.125721
-0.0460045 0.185389 0.168118 -0.0474335 0.236393 -0.970499
-0.0569158 0.0731901 -0.0503666 0.0637718 -0.762655 0.643654
-0.268548 0.260823 -0.0296173 -0.897038 -0.342356 -0.279489
0.0197884 -0.163581 -0.259878 -0.526024 -0.323867 0.78639
0.234276 -0.208155 0.0262712 0.973207 -0.208975 0.0959066
-0.197871 0.290912 0.0190305 0.93316 0.0856445 0.349109
0.011947 0.161786 0.0434049 0.713053 0.688863 -0.130477
-0.139225 0.0177129 0.137501 -0.64984 -0.635115 0.417537
-0.217717 0.271774 0.116633 0.755612 0.609479 0.239972
0.178917 -0.116307 -0.0384107 0.729308 0.684029 0.0146572
0.159941 -0.283003 -0.106597 0.681598 0.550368 0.482202
-0.157863 0.013456 0.451112 0.262533 -0.705374 0.658425
-0.0764473 -0.0931704 0.22747 -0.876616 -0.452761 -0.162949
0.00966075 -0.0702796 0.284667 0.925397 0.358227 0.123748
-0.27674 0.222976 0.139862 -0.658605 -0.752142 -0.0228202
0.0201908 -0.210869 0.0629292 -0.849317 -0.486896 -0.203943
-0.120456 0.0564301 0.00786936 0.467861 -0.883338 0.0286195
-0.299044 0.306685 0.0816599 -0.409583 0.60068 0.686604
-0.08696 0.204028 0.0731694 0.470484 -0.6034 0.643859
-0.0901316 0.0269077 -0.193562 -0.527534 0.777738 0.341806
0.177509 -0.320838 -0.0914654 0.995652 -0.0781514 -0.0506933
0.123273 -0.228303 -0.396916 -0.133673 0.438364 -0.888802
-0.108273 0.123993 -0.205177 0.542338 -0.827105 0.147535
0.173064 -0.408607 -0.0969286 0.586809 -0.726605 -0.357352
-0.0769483 0.0705778 -0.0521438 0.300595 -0.816445 0.493011
0.0815511 -0.134666 -0.156367 -0.0598334 -0.576959 0.814578
0.0404792 -0.274262 0.176223 -0.917078 -0.398532 0.0118928
0.0329539 -0.179055 0.213516 -0.377315 0.797993 -0.469937
0.169004 -0.170364 -0.0842006 -0.318009 0.653528 -0.686857
0.152757 -0.0615073 0.0239094 0.738347 0.662255 0.127523
0.124296 -0.254157 0.227767 0.521073 0.841374 0.143431
-0.0493004 0.181937 0.0692676 -0.293942 0.453664 0.841301
-0.015278 -0.186876 0.0723819 -0.946423 -0.233172 -0.223416
0.0497005 -0.301893 0.211766 -0.748868 -0.592648 0.296588
0.00434283 -0.19532 0.0637331 -0.963326 -0.127117 -0.236315
-0.00125115 -0.0951752 0.382728 0.933286 0.269123 0.237803
-0.129548 0.23152 -0.439815 0.526134 0.787424 -0.321164
-0.21568 0.303269 0.0749494 0.652908 0.405115 0.639994
0.0443226 -0.140466 -0.137398 0.612932 -0.78888 -0.044527
0.133817 -0.20427 -0.305327 0.919296 0.18473 0.347519
0.087641 -0.331742 0.132691 -0.956923 -0.254324 -0.140061
-0.0632503 -0.15015 0.314616 -0.910907 -0.387737 -0.141098
-0.161749 0.16466 -0.405716 -0.829955 -0.55333 -0.0707161
0.067081 -0.212105 -0.301439 -0.74446 -0.667572 -0.0112354
-0.11553 -0.042201 0.367373 -0.112109 0.0241136 0.993403
0.137889 -0.338056 0.248424 0.481931 -0.868182 0.118332
0.0122792 0.0766582 -0.0805645 0.388576 -0.570258 0.72375
-0.0141085 0.156199 -0.229562 0.257307 -0.860292 0.440103
0.108159 -0.106631 0.189606 0.339364 0.862211 -0.376063
-0.0380785 -0.130678 0.0362428 -0.460083 0.789442 -0.406331
-0.134183 0.248463 -0.166964 0.843957 0.459455 -0.276835
0.176795 -0.287925 -0.189504 0.795682 0.581535 0.169433
-0.23365 0.185324 -0.00140166 -0.859076 -0.498969 -0.114099
-0.00477689 0.244372 -0.202793 -0.45427 0.604246 -0.654619
-0.0790755 -0.0656783 0.138463 -0.930842 -0.300353 0.208139
0.0819493 -0.0690312 0.0270354 -0.570997 0.818794 -0.0594779
0.14554 -0.173628 -0.0614024 -0.330028 0.519725 -0.788015
-0.0155331 -0.171972 0.222153 -0.866683 -0.497616 0.0352013
-0.150021 0.250537 0.025075 -0.367985 0.907895 -0.200782
-0.0629612 -0.00552539 -0.356426 -0.672303 0.218166 0.707398
0.027812 -0.163558 -0.305146 -0.991424 -0.0911279 -0.0936692
0.0606792 -0.134792 0.268431 0.125105 -0.391166 0.911777
-0.282209 0.323451 -0.0902312 0.0932882 -0.975886 0.197342
-0.13498 0.248789 0.107523 -0.507443 0.83269 0.221651
-0.191887 0.154988 -0.339613 -0.656565 -0.742415 0.133196
-0.0694819 -0.0670327 0.414649 -0.48905 0.637895 0.594912
0.108929 -0.106235 0.163025 -0.569485 0.57565 0.586783
-0.226788 0.164813 0.111923 -0.770513 -0.512263 0.379336
0.130622 -0.0796666 0.0944833 0.905268 0.406865 0.122272
-0.22422 0.366778 -0.0818088 0.897183 0.335426 0.28732
-0.121012 0.0905013 0.138182 -0.0967278 0.563513 -0.820425
-0.0174729 0.223496 -0.047772 0.90193 0.405229 0.149375
-0.0285071 -0.0438243 0.36777 0.643162 0.765309 0.0253873
0.0182222 0.0245254 0.125623 0.456094 -0.66602 -0.59025
-0.118729 0.0424313 -0.262935 0.00839013 -0.975605 -0.219375
0.128617 -0.411553 0.100323 -0.814034 -0.551479 -0.182262
0.158136 -0.447512 0.106193 -0.922345 -0.385327 0.0283506
0.0530238 -0.284165 0.262998 -0.515848 -0.125945 0.847372
-0.0144506 0.241559 -0.17281 0.849484 0.503436 0.157891
0.0247873 -0.0903236 -0.447943 -0.218658 0.674738 -0.704924
-0.197131 0.182185 -0.153332 -0.943238 -0.261659 -0.204541
-0.00574225 0.108162 0.223489 0.999999 -0.000184472 -0.00157907
0.10538 -0.27452 0.210206 0.699281 0.712291 0.0603931
0.0714706 0.0484232 0.234275 0.966103 0.25251 0.0536944
-0.00632769 0.12573 0.0297271 0.506813 -0.831503 0.227473
0.0411201 0.103321 -0.153326 -0.845197 0.490514 -0.212221
-0.259079 0.206559 0.384195 -0.576054 0.794083 0.193891
-0.0818099 0.093242 -0.245253 0.339644 -0.493909 0.800435
0.0987134 -0.122227 0.220926 -0.547586 0.711743 -0.439968
-0.117518 0.0264928 -0.120316 -0.910155 -0.0839568 -0.405671
0.00944061 -0.125487 -0.479051 -0.649825 -0.654778 -0.385997
0.149311 -0.325683 0.231802 0.826258 0.559576 0.0645929
0.0492228 -0.136268 -0.0932381 0.526575 -0.809848 -0.258584
0.152922 -0.18936 0.194213 0.270299 -0.687029 0.674485
0.119126 -0.0133393 -0.0867092 -0.569215 0.614225 0.546555
-0.0403637 0.0681622 -0.505139 -0.378142 0.350606 -0.856787
0.208749 -0.150503 -0.0258067 0.808338 0.308171 0.501617
0.197908 -0.21897 0.085092 0.750806 -0.569926 -0.333878
0.0510833 -0.0978485 0.0463521 -0.118247 0.792447 -0.598369
0.0750867 -0.266831 -0.204428 -0.868674 -0.482855 -0.110711
0.00768222 0.049897 -0.302137 -0.0625725 0.192185 -0.979362
-0.00959111 -0.125137 0.374833 0.535025 -0.818494 0.209322
0.169168 -0.220107 -0.328175 0.861702 0.486503 0.14417
-0.147782 0.226586 -0.163801 0.433017 0.89546 -0.103185
-0.0358537 -0.033843 0.296922 0.823653 0.558827 0.0964838
-0.173354 0.257455 0.00901148 0.738306 0.668992 -0.0857518
0.0418017 -0.209536 -0.253726 -0.930531 -0.329774 -0.159249
-0.201332 0.21201 0.349262 0.752631 0.652776 0.0861977
-0.264877 0.284552 -0.103633 -0.529729 -0.848152 0.00492897
-0.128836 0.0813017 -0.312644 -0.867637 -0.488197 -0.0941839
0.114583 -0.330801 -0.118571 -0.732244 -0.679699 0.0427406
0.173582 -0.361168 0.115071 0.39355 0.917387 -0.0593216
-0.163764 0.28557 -0.278144 0.785994 0.568796 0.242251
-0.225392 0.31222 0.176813 0.696516 0.717524 -0.00492802
-0.0357413 -0.0400845 0.389429 -0.526986 0.815269 0.240047
-0.0482308 0.151304 0.0804509 -0.587853 0.720827 0.367203
0.200318 -0.206945 -0.152096 0.654786 -0.51333 -0.55475
-0.213074 0.132818 0.211714 -0.941132 -0.267428 -0.206769
-0.0640568 0.182161 0.253618 -0.329136 0.782465 0.5286
0.0101769 -0.122416 0.338394 0.865895 0.460826 0.194589
0.0691637 -0.18885 -0.34101 0.0966616 0.300965 -0.948724
-0.079743 -0.00281111 -0.281596 -0.948327 -0.247574 -0.198449
-0.28844 0.261737 0.174586 -0.815062 -0.577596 -0.0453585
0.179574 -0.224792 0.0917752 0.489578 -0.816145 0.306955
0.0738332 -0.276793 -0.0691378 -0.644208 -0.76338 -0.0473902
-0.193313 0.293349 -0.0305889 0.897932 0.432568 0.0812657
-0.0484069 0.0158698 -0.117742 0.0382891 -0.322995 0.945626
0.136089 -0.309897 0.293682 0.953643 0.188289 0.234762
-0.0565233 -0.113635 0.4715 0.0592975 -0.0762701 0.995322
-0.015778 0.217907 -0.143704 0.990258 -0.0620523 0.124651
-0.155151 0.264902 -0.00532258 -0.472147 0.881247 -0.0219452
0.0110309 -0.112289 -0.397603 -0.859502 -0.481943 -0.170255
-0.137778 0.18706 -0.319278 -0.766685 0.630885 0.11907
-0.0439058 -0.00494726 0.342853 0.544038 0.832247 0.106718
0.0850234 -0.371799 0.25065 -0.551822 -0.823052 0.134455
-0.175603 0.120187 0.06426 -0.23587 0.501763 0.832226
-0.0938259 0.303026 -0.0251539 -0.332659 0.746335 -0.576474
-0.17667 0.255877 0.0760647 0.883526 0.4655 0.0518804
0.0263389 -0.105153 -0.00390747 0.150061 0.736431 -0.65966
0.0379501 -0.120695 -0.0249724 -0.489665 0.869387 0.0662908
0.065239 -0.227244 -0.352218 -0.551399 -0.825328 0.121627
0.132566 -0.207757 -0.126943 -0.510551 0.801384 0.311644
0.159033 -0.227528 -0.30206 0.968161 -0.0598836 -0.24306
-0.0367219 -0.117531 0.238178 0.185592 -0.82387 -0.535531
0.192127 -0.156382 0.0150743 0.7924 0.606971 0.0607367
0.152874 -0.121276 0.196612 0.844129 0.208465 -0.493952
-0.274093 0.216566 0.0762312 -0.667025 -0.669307 0.327271
0.154514 -0.378585 -0.123902 0.201674 -0.265256 -0.94285
-0.180158 0.276413 -0.0874127 0.781772 0.599253 -0.17242
0.111958 -0.367778 0.0490287 -0.668668 -0.684034 -0.291515
-0.213898 0.119594 0.334488 -0.644883 -0.755037 -0.118511
-0.143983 0.0797335 -0.273033 -0.744086 -0.653494 -0.138858
0.0853471 -0.192644 -0.152767 -0.323938 0.874322 0.361421
-0.311773 0.327965 0.0824809 -0.373567 0.334108 0.865344
-0.128573 0.233788 0.136872 -0.515598 0.693142 0.503699
0.176003 -0.226557 -0.353964 0.658989 0.724622 0.201632
-0.022187 0.0621816 -0.37261 0.988961 -0.0908228 0.117077
-0.0112586 -0.17085 0.343365 -0.212815 0.2717 0.938557
-0.0559189 0.257036 0.00271662 0.687369 0.696617 0.205545
-0.120054 0.221162 -0.215996 0.902617 0.424345 0.0722033
0.124479 -0.270399 0.252136 0.386826 0.908324 0.159102
-0.0553958 -0.0115804 -0.276362 -0.513185 -0.852003 -0.103591
-0.276608 0.236977 0.179747 -0.933599 -0.336384 -0.123448
0.00993593 -0.0709543 0.378688 0.97758 0.208975 0.0258135
-0.250004 0.218727 0.0441761 -0.806343 -0.590525 -0.0330242
-0.00459128 0.0327961 -0.438786 0.830408 0.504373 -0.236707
-0.103324 0.148633 0.238556 -0.583122 0.795417 0.165165
-0.021424 0.0934682 0.297808 -0.238707 0.104993 0.965399
-0.110306 0.0167816 -0.0769072 -0.804308 -0.553457 -0.216273
0.0624944 0.0895693 -0.293408 0.0811972 0.145453 -0.986028
-0.0520585 0.260009 0.0850494 0.825271 0.559525 0.0765397
-0.0424872 0.104601 -0.251323 -0.0320173 0.0655369 0.997336
0.0188402 0.082616 -0.175375 -0.432751 0.853717 -0.289645
-0.0982479 0.0644917 0.33077 0.708243 0.634 0.310542
0.14872 -0.367893 0.0187381 0.815174 -0.183617 -0.549342
0.184705 -0.114185 -0.153236 -0.196862 -0.128152 0.97202
0.138818 -0.0255898 -0.0686491 0.86569 0.49766 -0.0539971
0.15026 -0.206813 -0.114607 -0.660742 0.749945 0.0316675
0.209094 -0.172593 0.0342117 0.850655 0.514626 0.107456
-0.204255 0.212695 -0.191738 -0.89682 -0.379892 -0.226707
-0.105813 0.189717 -0.283943 0.841825 0.53224 0.0897328
-0.0165386 0.0936898 0.0448848 0.552637 -0.668418 -0.497805
0.113354 -0.0443715 -0.0303372 -0.518217 0.853159 0.059756
-0.0298026 -0.0128459 -0.408559 0.508891 -0.670711 -0.539607
0.17022 -0.253524 -0.350457 0.632796 -0.772836 0.0478874
0.0412457 0.137875 -0.262789 0.902969 0.424631 0.0658523
-0.0517145 0.226583 0.0816685 0.325555 -0.61222 0.720555
0.0346533 0.0988386 -0.20448 -0.538285 0.791593 0.289186
-0.0755942 0.0780289 -0.24051 -0.268216 0.253823 0.929319
-0.202506 0.0966067 0.187468 -0.376484 -0.901579 0.21311
-0.158636 0.0869435 0.0637374 -0.203466 -0.245348 0.947843
-0.153456 0.0840697 -0.00404363 -0.72662 -0.616381 -0.303477
0.165192 -0.100917 0.0107983 0.800299 0.21611 0.559301
0.18068 -0.243956 -0.0160452 0.666936 -0.70746 -0.233874
-0.0231273 -0.120951 0.158618 0.212896 -0.587134 0.780992
-0.0375975 -0.0598257 -0.249765 -0.84118 -0.535962 -0.0718372
-0.0975059 -0.0572203 0.269933 -0.829856 -0.464377 0.309343
0.147065 -0.198943 -0.134588 -0.436917 0.599417 0.670673
-0.155071 0.125271 0.334007 0.0759113 -0.290556 0.953842
-0.0971454 0.165247 -0.328435 0.944944 0.225254 0.237365
-0.136731 0.169146 -0.404355 0.416966 -0.536379 -0.733783
-0.0553189 0.235066 -0.17665 -0.319594 0.72092 -0.614926
-0.109301 0.191494 0.153877 0.393784 -0.512101 -0.763339
-0.25254 0.190896 0.358769 -0.190254 0.833307 -0.51904
-0.00485009 0.116594 0.063971 0.449026 -0.564479 -0.692632
0.116409 -0.0399618 -0.0573376 -0.202009 0.961084 0.188439
-0.05007 -0.151099 0.281328 -0.738715 -0.459477 -0.493133
0.124591 0.00255976 -0.144406 0.768285 0.640013 -0.0110249
0.182825 -0.333647 -0.0637959 0.82111 0.567079 0.0648122
0.0816015 -0.148778 -0.349451 0.464307 -0.6739 -0.574698
-0.299571 0.283687 0.194731 0.0199948 0.508828 -0.860636
-0.201169 0.18668 -0.219607 -0.905576 -0.423478 -0.0244841
-0.261539 0.168462 0.360881 -0.889901 -0.420197 0.177514
0.00935168 0.131399 -0.139288 0.0502793 0.437443 -0.897839
-0.0556628 -0.110433 0.17305 0.494471 -0.848027 -0.190652
-0.117646 0.0702647 0.0207868 0.54845 -0.833764 -0.063559
-0.171141 0.14717 -0.21075 -0.674507 -0.682727 -0.280934
0.0986718 -0.152798 -0.33023 0.616031 -0.368095 -0.696428
0.219346 -0.192105 -0.132506 0.495436 -0.724211 -0.479647
-0.0866952 0.160585 0.246045 -0.349649 0.275797 0.895367
-0.174342 0.201368 0.219951 0.707327 0.699661 0.100811
0.117583 -0.331412 -0.00989578 -0.487842 -0.865203 -0.115904
0.0656969 -0.154453 0.158442 -0.505941 0.698664 0.505858
-0.16816 0.128705 -0.136644 -0.833353 -0.550796 -0.0463305
-0.230854 0.266355 0.251788 0.0934905 -0.30651 0.947265
0.0244916 -0.145377 -0.373693 0.389099 -0.816649 -0.426248
0.173088 -0.120621 -0.209478 -0.0166936 -0.0793373 -0.996708
0.041809 0.0547592 0.276393 0.842121 0.531216 0.0929598
0.206208 -0.145141 -0.136941 -0.468386 0.793637 0.388272
-0.0289684 0.113706 0.0274797 0.531611 -0.839072 -0.115535
-0.0809541 0.286415 -0.0801049 0.194291 0.88949 -0.413593
-0.065831 0.140899 -0.333553 0.979342 0.143623 0.142345
-0.254937 0.185859 0.251101 -0.264295 0.374802 0.888635
0.158174 -0.141865 -0.221983 0.424696 -0.608741 -0.670125
0.193656 -0.108891 -0.232848 0.483765 -0.276711 -0.830302
0.197895 -0.351151 0.0514921 0.783799 0.488556 0.38337
-0.0829804 0.040733 -0.456852 -0.779638 -0.301982 -0.548608
-0.0207711 -0.213587 0.334108 -0.599568 -0.787862 -0.140685
0.170262 -0.130283 0.181256 0.99415 0.0485279 -0.0964921
-0.09174 0.184632 0.173014 0.393153 -0.255792 -0.883177
0.136863 -0.236878 -0.269346 0.152734 -0.918864 0.363815
-0.0760306 0.20496 0.170058 0.1269 0.2389 -0.962717
0.0105683 0.098521 0.2972 -0.181489 0.056212 0.981785
-0.0609413 0.00382503 -0.408486 -0.87058 -0.428543 -0.241747
0.0925434 -0.266592 -0.286078 0.419039 -0.883919 -0.207591
0.009056 -0.144502 -0.287139 -0.860475 -0.49584 -0.117158
0.065279 -0.253303 0.374668 0.490636 -0.389287 -0.779571
0.093362 -0.104112 -0.413899 0.565508 0.754227 0.333681
0.198872 -0.119374 0.00608116 0.961977 0.197704 0.188449
-0.117916 0.0356852 0.0424502 0.493697 -0.633828 -0.595421
0.0380933 -0.283886 0.228694 -0.924374 -0.302174 -0.232861
0.0388905 0.0434522 -0.290708 -0.173243 0.299641 -0.938191
0.142116 -0.299886 0.223352 0.770243 0.635485 -0.0537053
0.0588785 0.0927261 -0.0961657 -0.0975586 -0.247335 0.964006
0.0949655 0.0475135 -0.297959 -0.0302766 0.27872 -0.959895
0.224616 -0.352462 -0.200218 0.162842 -0.705197 0.690058
-0.302258 0.323178 0.242815 0.54124 0.11387 -0.833122
-0.235684 0.194613 0.0764978 -0.928792 -0.142442 -0.342135
-0.0679409 0.172222 -0.222296 -0.0684129 -0.604703 0.793507
0.0625142 -0.244543 -0.316953 -0.811495 -0.58339 -0.033636
0.0365877 -0.158464 0.189208 -0.333549 0.84126 -0.425473
-0.02438 -0.0761387 -0.308274 -0.845239 -0.528052 -0.0820523
-0.200951 0.0893339 0.234291 -0.795783 -0.594923 -0.113121
0.0898061 -0.0557887 -0.0775236 -0.540564 0.796551 0.270733
-0.0283334 0.0937753 -0.363028 0.906544 0.308864 0.287718
0.0050631 -0.180554 -0.078044 -0.534467 -0.741391 -0.405813
0.013548 -0.269921 0.253726 -0.963223 -0.222003 -0.151382
-0.108459 0.228389 -0.16888 -0.373195 0.718759 -0.586609
0.0624633 -0.119029 -0.460829 0.446956 -0.571998 -0.687785
-0.255648 0.327966 -0.060559 -0.641601 0.692723 0.329367
0.0431514 -0.315451 0.24158 -0.5547 -0.825687 -0.10271
0.171942 -0.0724851 -0.0696656 0.842852 0.530593 0.0898459
0.0322259 -0.163939 -0.0840993 0.339862 -0.386642 -0.857323
0.135039 -0.375411 -0.205732 0.673733 -0.683717 0.280383
-0.0539366 0.285017 0.0508312 0.837507 0.542023 0.0692281
0.239891 -0.372161 -0.0592849 0.237198 0.949741 -0.204276
0.00994126 0.178959 -0.0509412 0.567277 0.823278 -0.0202475
-0.206801 0.250843 0.191397 0.799642 0.59917 0.0396081
-0.266722 0.336763 0.019215 -0.146409 0.409785 -0.900356
0.111974 -0.197975 0.188496 -0.145723 -0.259154 0.95478
-0.0760126 -0.064635 0.099434 -0.66794 -0.424365 -0.611367
-0.128463 0.0721819 -0.143918 -0.022169 -0.0710533 -0.997226
-0.169032 0.259262 0.135853 0.467988 0.882949 -0.037267
-0.156951 0.158746 0.297526 0.681867 0.711464 -0.169931
0.117473 -0.15183 0.241947 -0.116251 -0.188557 0.975157
0.069492 -0.231022 -0.16398 -0.506481 -0.859774 -0.0653107
-0.1604 0.290183 -0.249433 0.971298 0.161965 0.174207
0.0704046 -0.233902 0.277106 0.0425959 -0.63438 0.771847
0.00988874 -0.181936 -0.055284 -0.947713 -0.231343 0.219819
-0.203755 0.246463 -0.300048 -0.0952423 0.0880542 -0.991552
-0.170175 0.266703 -0.137526 0.867136 0.49186 0.0784169
-0.169991 0.125659 -0.0835266 -0.572668 -0.705348 -0.417774
-0.159273 0.250374 -0.103373 0.970444 0.204941 0.127425
-0.096815 0.0988779 -0.191959 0.661378 -0.517276 -0.543144
-0.0886961 0.185138 -0.217892 -0.1832 0.567491 -0.80274
-0.110466 -0.0331473 0.256097 -0.702338 -0.703346 -0.10966
-0.0771687 0.126807 0.0742309 -0.409681 0.531916 0.741098
-0.133994 0.147619 0.212331 -0.369949 0.388154 0.844082
-0.170813 0.0318249 0.481349 -0.121605 0.0240517 0.992287
0.060809 -0.232205 -0.29265 -0.839609 -0.53607 -0.0876679
0.0875611 -0.0346143 0.29469 0.426512 0.90384 0.0340834
0.104988 -0.343868 -0.0766792 -0.82243 -0.562787 -0.0829447
0.00927521 -0.218942 0.11708 -0.888318 -0.426234 -0.170928
-0.161671 0.0885173 -0.0692668 -0.891459 -0.407383 -0.198345
-0.0189833 -0.179118 0.140805 -0.984727 -0.162118 -0.0634907
-0.0976075 -0.0317004 0.103696 0.167732 0.0547253 -0.984312
-0.227319 0.296578 0.162794 -0.899645 0.435488 -0.0314341
-0.0302591 -0.094152 0.198046 0.595072 -0.0094285 -0.803617
0.0542558 -0.263158 0.337316 0.385136 -0.918371 0.090915
0.0778132 -0.244452 -0.125859 -0.914929 -0.178883 -0.361809
-0.240434 0.241811 -0.25906 -0.874397 -0.477541 -0.0859315
0.152593 -0.314335 0.266412 0.888511 0.441509 0.124974
0.105786 -0.171546 -0.218407 0.174708 -0.896766 -0.406556
-0.055068 -0.0595339 0.104885 -0.109418 0.356409 -0.927901
0.0385699 0.148096 -0.141648 0.167755 -0.126771 -0.977644
-0.174753 0.223086 0.145543 0.642429 0.734102 0.219953
0.145295 -0.231831 -0.203739 0.840234 0.480133 0.25195
-0.217347 0.146891 0.0124981 -0.723226 -0.66514 -0.185833
0.173685 -0.253559 -0.186226 0.977424 0.116508 0.176263
-0.283424 0.273349 0.0688083 -0.769536 -0.628288 0.114321
0.0327004 0.15092 -0.0374226 0.808596 0.505277 -0.301443
0.0453391 -0.223447 -0.216506 -0.850719 -0.524224 -0.0382972
-0.236843 0.160154 0.267605 -0.821338 -0.565012 -0.0785212
0.135654 -0.381545 0.139575 -0.079519 0.0250328 0.996519
-0.133388 0.0707719 0.405822 -0.511327 0.854431 0.0921554
-0.00135531 -0.158217 -0.195902 -0.958387 -0.266978 0.101083
0.144472 -0.0505254 -0.0837463 0.425089 0.878205 0.219216
-0.0119337 0.0580115 -0.472814 0.988708 -0.139588 0.0545187
-0.00940013 -0.169188 0.0365774 -0.843927 -0.526757 -0.101557
-0.167592 0.12407 0.0144977 -0.927331 -0.214708 -0.306527
-0.108026 0.247592 -0.141634 -0.356145 0.744797 -0.564304
-0.0543668 0.267178 -0.0449035 0.680701 0.715946 0.15514
-0.119943 0.0679941 0.385104 0.994321 0.105912 0.0103623
-0.15734 0.0274008 0.26994 -0.985009 0.0423071 -0.167235
-0.0126938 0.123021 -0.143503 0.0222528 0.151298 -0.988238
0.200605 -0.239242 0.0146925 0.565383 -0.823965 -0.0377328
0.176147 -0.182852 0.160418 0.616392 -0.69606 0.368188
0.0302288 0.093859 0.298445 0.782 0.454349 0.426665
-0.114163 0.0547638 -0.044328 -0.0620741 -0.737126 0.672898
0.0651299 -0.310869 0.145606 -0.592259 -0.804643 -0.0421702
-0.271435 0.223107 0.162336 -0.877686 -0.456276 -0.14656
-0.0370374 0.150726 0.146933 -0.526746 0.650855 -0.546742
0.103881 -0.106369 -0.257602 0.285902 -0.62052 -0.730216
0.0882746 -0.00731756 0.251921 0.960163 -0.0810901 -0.267415
0.1809 -0.423915 0.120929 0.106729 -0.257614 0.960335
0.0154583 -0.0921358 0.156812 0.944656 -0.326074 -0.0360614
0.126362 -0.107208 -0.136813 0.149637 -0.409887 0.899778
0.0605443 -0.0752298 -0.0570744 -0.260261 0.95234 0.159098
-0.179593 0.298054 -0.165934 0.518938 0.797533 -0.307643
-0.0790664 0.23538 0.0963977 0.364051 -0.769235 0.525114
-0.186046 0.0676242 0.245617 -0.840677 -0.532245 -0.0998831
-0.134537 0.0828143 -0.24591 -0.846314 -0.530855 -0.0441126
-0.205446 0.268455 -0.171673 -0.641837 0.719736 -0.264624
-0.163842 0.00674329 0.343807 -0.834712 -0.512018 -0.202715
-0.157445 0.227977 -0.28088 -0.354284 0.213547 -0.910429
0.153659 -0.163058 0.218078 0.239376 -0.64121 0.729074
0.0910185 -0.120401 -0.383337 0.102247 -0.869726 0.482828
-0.258544 0.249673 -0.0654431 -0.943984 -0.266961 -0.193973
0.140347 -0.427456 0.0604792 -0.368969 -0.749513 0.549629
-0.0691566 -0.0117272 -0.21573 -0.932433 -0.132517 -0.336168
-0.13876 0.0696682 0.38935 -0.399245 0.915182 0.055185
-0.16245 0.0871121 -0.0500101 -0.980736 -0.189082 0.0490407
-0.107951 0.0293863 -0.370285 -0.801688 -0.597741 0.00159003
0.201621 -0.159998 0.0800661 0.839081 0.520909 0.156833
0.0400422 -0.226671 -0.18239 -0.940096 -0.291665 -0.176495
0.149561 -0.0732725 -0.044047 0.954208 0.298652 0.0171169
0.183427 -0.303001 -0.135324 0.387458 0.91748 -0.0900402
-0.176327 0.0376533 0.421368 -0.75517 -0.654596 -0.0349572
-0.0559519 0.20165 -0.224411 0.0765967 0.515839 -0.853254
-0.0974303 -0.00544593 -0.186797 -0.850125 -0.515893 -0.105555
0.0167251 -0.145408 0.130797 -0.156867 0.307864 0.93841
-0.00915048 -0.077103 0.0836069 -0.891979 0.28226 -0.353132
-0.118547 0.101381 -0.362921 0.245648 -0.696263 -0.674444
0.0468733 -0.0350955 -0.38508 0.604615 0.73772 -0.300348
-0.0814049 0.0193069 0.092253 0.330893 -0.270418 -0.904093
-0.0968227 0.045209 0.356632 0.869753 0.493047 -0.0208387
0.0153502 -0.157554 -0.124477 0.58883 -0.804699 -0.0757578
-0.099588 0.228149 -0.19112 -0.0991375 0.606221 -0.789093
0.113076 0.00236991 -0.290041 0.142762 -0.104531 -0.984222
-0.263377 0.306833 0.0997077 -0.0491199 -0.0392281 0.998022
0.0883392 0.0775445 -0.233923 0.646861 0.754837 -0.108586
-0.168561 0.0843507 0.161956 -0.395327 0.40394 -0.824954
0.025967 -0.148168 0.135793 -0.260976 -0.0789998 0.962107
-0.0989141 -0.123092 0.399392 -0.840836 -0.534634 -0.084625
-0.0861906 0.145447 -0.372024 0.399109 -0.600226 -0.693138
0.0904481 -0.111113 -0.325364 0.95525 0.157284 0.250518
-0.0559131 -0.145577 0.455826 0.594726 -0.779742 0.195713
-0.0685544 0.0586072 -0.409541 -0.768476 0.631288 0.104498
