ply
format ascii 1.0
comment Created by Open3D
element vertex 512
property double x
property double y
property double z
property double nx
property double ny
property double nz
end_header
0.158775 -0.470132 0.0704844 0.295272 -0.949901 0.102485
0.216699 -0.299731 0.0666073 0.434144 0.27805 0.856859
0.127622 -0.354432 0.177143 -0.81893 -0.243866 0.519502
-0.141702 0.46184 -0.119597 -0.372198 0.825456 -0.424372
-0.0583295 0.115676 -0.180429 -0.852563 -0.144828 0.502156
-0.106158 0.311829 -0.300504 0.547272 0.20134 -0.812377
-0.0517802 0.32811 0.0891982 0.0216753 0.985107 0.170569
0.0699379 0.0288484 -0.111762 0.892856 0.075174 -0.444025
0.160078 0.0858729 0.0612904 0.872033 0.0724073 -0.484062
0.164839 -0.338335 0.163049 0.301508 0.938118 0.170378
0.0344037 0.318504 0.0949628 -0.374052 0.824443 -0.424709
0.0130725 0.384112 -0.0363887 0.444186 0.328825 0.83341
0.0606022 -0.113881 -0.174854 0.809861 0.187678 -0.55579
0.243558 -0.27205 0.231649 -0.438071 -0.246863 -0.86438
0.23076 -0.159847 0.100683 0.851633 0.163751 -0.497903
0.0527165 -0.295387 0.109482 -0.555379 -0.215666 -0.803145
0.250214 -0.090705 0.165225 0.94278 0.321367 0.088817
0.0219096 -0.14192 0.0982847 0.312803 0.19866 0.92881
0.174992 -0.11326 0.0180017 0.823449 0.216845 -0.524318
-0.178225 0.363445 -0.118184 -0.458654 -0.259257 -0.849954
0.121172 -0.264606 -0.122265 0.853469 0.147327 -0.499886
-0.0401274 0.474588 -0.146545 0.853799 0.222909 -0.470466
-0.0493507 0.136306 -0.159418 -0.830823 -0.19995 0.519377
0.0287703 0.309156 0.0562062 -0.177859 0.983673 0.0274432
0.115004 -0.471695 -0.108523 -0.686672 -0.713912 0.137156
0.103306 0.302605 0.0390158 0.924396 0.0210532 -0.380853
0.212679 -0.247887 0.237809 0.400644 0.302592 0.864825
-0.032511 -0.279101 0.0846264 -0.805815 -0.246295 0.538517
-0.206719 0.443582 -0.0921585 -0.385891 0.698065 -0.603153
-0.140968 0.364171 -0.0746714 0.0382137 -0.964544 0.26114
0.0684388 0.0921807 -0.0944477 0.863346 0.161331 -0.478127
-0.0872809 0.506535 0.0105172 -0.320181 0.939558 -0.121307
0.174637 0.182331 0.123267 0.959185 0.245737 0.13992
0.130188 -0.248696 -0.100129 0.880366 0.0841504 -0.46677
-0.191444 0.349303 -0.0347657 0.560095 0.318196 0.764883
0.205667 -0.372134 0.278144 0.158675 -0.0243317 0.987031
-0.171824 0.0965214 -0.0183951 -0.879657 -0.104695 0.463942
0.0782942 -0.349964 -0.0437875 -0.488172 -0.180821 -0.85381
0.090452 0.419125 0.101485 0.529461 0.225446 0.81783
-0.191381 0.393452 -0.12711 -0.338044 -0.144934 -0.929904
-0.104926 0.418882 -0.0549601 -0.592145 -0.624634 0.509113
0.0383014 -0.0582408 -0.193377 0.739609 0.228153 -0.633186
0.112751 -0.402673 -0.0605711 -0.960212 -0.255992 0.111627
-0.116054 -0.0701862 0.0244117 -0.766637 -0.387477 0.511985
-0.0762808 0.25607 0.0467256 -0.419551 -0.223254 0.879849
-0.0924903 0.373899 -0.268794 0.776621 0.248941 -0.578696
-0.0293022 -0.312968 0.0764761 -0.858174 -0.149593 0.49108
0.0303706 0.0968363 0.169741 -0.801653 -0.20963 0.559828
-0.0481662 0.435324 0.0217168 0.526089 -0.664491 0.530737
-0.0541305 -0.183186 -0.0212632 -0.500042 -0.204248 -0.841571
0.0689566 -0.471197 0.142641 0.472496 -0.579648 0.663895
-0.173937 0.296676 0.0450001 -0.693032 -0.230642 0.683017
-0.0627554 0.507998 0.134753 -0.484543 0.60622 0.630647
-0.0441528 0.172496 0.0719151 -0.867291 -0.107907 0.485965
0.119245 -0.429276 -0.0404526 -0.627655 -0.328732 -0.70568
-0.117737 0.246039 0.0548536 0.606975 0.270018 0.747444
0.225106 -0.287729 0.238628 -0.4517 -0.121701 -0.88383
-0.0115056 -0.214551 0.133203 -0.279819 -0.0828786 0.956469
0.107464 -0.448763 -0.0864185 -0.76298 -0.365181 0.53339
0.102262 0.157148 -0.0143082 0.833934 0.182605 -0.520777
-0.0318107 0.238873 0.115745 -0.859405 -0.096556 0.502095
-0.0391752 -0.256565 -0.00753804 -0.579015 -0.233862 -0.781057
-0.211782 0.45858 -0.0525145 -0.321944 0.945915 -0.03997
-0.159199 0.378845 -0.0582486 0.466523 0.239053 0.851592
-0.0505945 0.152514 -0.127209 -0.736979 -0.305302 -0.603036
-0.0930351 0.187767 -0.211791 -0.842807 -0.175766 0.508707
-0.141565 0.444117 -0.142859 -0.436641 0.581971 -0.686043
-0.141418 0.33499 -0.126927 -0.631448 -0.631597 0.449843
0.00568339 -0.163176 -0.167917 -0.861344 0.0196456 0.507642
0.111686 0.352572 0.0737496 -0.566454 0.566532 -0.598474
0.220954 -0.0717521 0.10963 0.832962 0.189718 -0.519791
0.232459 -0.325418 0.0701319 0.241662 0.673934 0.698149
0.00980134 -0.274926 -0.0296427 -0.501642 -0.24199 -0.83054
9.8993e-05 -0.113137 -0.155384 -0.846465 -0.16876 0.504992
0.068072 0.289612 -0.0241993 0.882694 0.12481 -0.453071
-0.0373692 0.39258 0.153006 -0.819689 -0.22502 0.52676
0.0556092 -0.221319 -0.0707625 -0.757768 -0.187904 -0.624884
0.0748427 -0.159661 0.159296 -0.776648 -0.308158 0.549414
-0.0619009 0.00615617 0.100177 -0.0440601 0.350118 0.935669
0.236737 -0.361276 0.181941 -0.312595 0.883708 -0.348346
0.061232 -0.422265 0.121185 -0.247435 0.95579 -0.158878
0.0424906 0.0136799 0.159931 -0.856132 -0.123958 0.50167
-0.0793311 0.0596125 -0.237908 -0.953382 -0.2931 0.0718031
-0.156456 0.164005 0.0369966 -0.876332 -0.0527484 0.478811
0.142874 -0.366227 0.048305 -0.86427 0.304417 0.400459
0.16491 0.170869 0.0998261 0.812703 0.234699 -0.533319
0.0647121 0.419851 0.110655 -0.23851 -0.442077 -0.864685
-0.0503609 0.0940803 0.0668751 0.302421 0.161365 0.939416
-0.0496033 0.314897 -0.207909 0.842167 0.181392 -0.507792
-0.113023 0.47631 0.050754 -0.758968 -0.296954 0.57947
-0.189221 0.305032 -0.0561135 0.722485 0.414425 -0.553415
-0.0166997 0.313205 0.0710464 0.874861 0.0750457 -0.478525
0.127325 -0.483748 -0.0792579 -0.470322 -0.874679 0.117188
-0.174672 0.174482 0.0101599 -0.836948 -0.203524 0.508032
0.0382256 -0.115605 0.106195 -0.753388 0.0691424 0.653931
-0.0830535 0.330084 0.0572117 -0.865127 -0.143066 0.480716
0.0327342 0.468655 0.0345755 0.230295 -0.968634 -0.093341
0.184393 -0.174281 0.0145146 0.898736 0.0811757 -0.43091
-0.0934887 0.272453 -0.065926 0.512792 0.179283 0.839585
-0.0184479 0.472596 0.147127 0.424351 0.282449 0.860319
0.0534493 -0.269518 0.127634 0.509862 0.195813 0.837674
0.087606 -0.388405 -0.104998 -0.905083 -0.011248 0.425085
0.171281 -0.480996 -0.0475745 0.217264 -0.968553 0.121249
0.13188 -0.207212 0.234915 -0.817675 -0.213261 0.534721
-0.105 0.0399312 -0.06177 -0.396782 -0.295 -0.869217
0.0434674 0.287036 -0.0671561 0.834136 0.188571 -0.518322
-0.10122 0.360447 -0.0861822 0.364994 0.374233 0.852484
0.0186334 -0.264057 -0.211069 -0.709451 -0.297809 -0.638741
-0.0227403 -0.0532615 -0.177506 -0.884805 -0.134435 0.446148
-0.0398372 -0.206861 0.0924612 -0.797359 -0.208138 0.566478
-0.150375 0.326749 0.0501149 0.553409 0.145787 0.820052
-0.0193468 -0.0826117 -0.248087 -0.419894 -0.258613 -0.869947
0.216489 -0.143116 0.207943 0.402846 0.34986 0.845762
-0.201709 0.460543 -0.032462 -0.175987 0.974448 -0.139569
-0.0715945 0.115315 -0.279763 -0.393792 -0.29713 -0.869852
0.292907 -0.414204 0.129006 0.662676 -0.72614 -0.183252
0.149358 -0.0720687 -0.0105276 0.849322 0.159376 -0.50324
-0.20782 0.236044 -0.0651404 -0.77979 -0.181 -0.599306
0.0277558 -0.499452 0.0750726 -0.0666208 -0.966068 -0.249547
0.0811308 0.0563779 0.212128 -0.228 0.196731 0.953579
-0.022262 0.19163 -0.209986 0.903094 0.0968841 -0.418372
0.0813706 -0.340034 -0.094486 -0.869835 -0.0649573 0.489047
-0.00364012 0.345846 0.176376 -0.212793 0.137848 0.967325
0.0236034 -0.284706 -0.181521 -0.888701 -0.14426 0.435201
0.235166 -0.343307 0.210141 -0.468786 0.677685 -0.566553
0.121996 -0.391376 0.0243115 0.476429 0.246961 0.843816
0.0225753 0.315368 0.0967178 -0.332918 0.854703 -0.398307
-0.172147 0.373404 0.0438853 0.293446 0.118224 0.948637
-0.0922557 0.0305337 0.0926417 -0.579529 -0.122271 0.805727
0.10915 0.279421 0.0390559 0.850322 0.164477 -0.4999
0.0699152 0.0894726 0.217232 0.0294429 0.0856193 0.995893
-0.0388911 0.520876 0.104521 -0.0153859 0.942874 0.332794
0.0358568 0.364508 -0.0576006 0.77253 0.246888 -0.585016
-0.0961901 0.219037 0.0478874 0.441462 0.336722 0.831703
0.007643 0.144632 0.134843 -0.811187 -0.205545 0.547473
0.0400116 -0.231018 -0.0543877 -0.454112 -0.257547 -0.852908
0.0820395 0.0175857 0.218424 -0.60743 0.146129 0.780817
0.277861 -0.327619 0.229209 0.440434 0.345095 0.828811
-0.0966407 0.181461 -0.28783 -0.46307 -0.289686 -0.837645
-0.00427261 -0.256203 0.132048 -0.450766 -0.0417865 0.891663
0.286486 -0.285424 0.213249 0.496451 0.327673 0.803845
0.159218 -0.341069 0.146307 0.827645 0.184436 -0.530083
0.180979 0.0930896 0.098781 0.86497 0.13481 -0.483377
0.163105 -0.341274 0.246104 -0.819767 -0.218459 0.529393
0.00339615 0.433924 0.129653 -0.312038 -0.631986 -0.709384
0.096703 0.030098 -0.0653529 0.855014 0.138355 -0.499809
-0.103316 0.163575 -0.27014 -0.621967 -0.224448 -0.750186
-0.0439457 -0.0539972 -0.210073 -0.831913 -0.19474 0.519612
-0.103157 -0.0105353 -0.0498219 -0.606058 -0.281019 -0.744125
0.186092 -0.194119 0.243669 0.414 0.38186 0.826309
0.0147534 -0.418622 0.0926628 0.47511 0.320058 0.819654
-0.0149113 0.39182 0.121442 -0.529123 -0.403268 -0.746595
0.127224 -0.275158 -0.109515 0.853712 0.11177 -0.50861
-0.159933 0.25131 0.0572966 -0.815171 -0.0852609 0.57291
-0.149936 0.235976 0.0594261 -0.580304 0.0147071 0.814267
-0.0420948 0.238222 -0.228758 0.774323 0.226327 -0.590932
0.187666 -0.002194 0.177952 0.47681 0.239527 0.845742
0.0101049 -0.39176 0.0780463 0.429932 0.280842 0.858071
0.211977 -0.33304 0.229312 0.875036 0.0706109 -0.478879
0.199962 -0.304537 0.264568 0.49414 0.214104 0.842606
-0.0787871 0.469375 -0.188991 0.420777 0.811529 -0.405423
0.0154513 -0.486081 0.0478904 -0.323497 -0.752784 -0.573294
0.0699249 -0.160245 0.148027 -0.899525 -0.0420561 0.434841
0.13666 -0.482297 -0.064668 -0.503662 -0.7876 0.354979
-0.0986635 0.240944 -0.126632 -0.354405 -0.475291 -0.805292
0.0158351 0.454165 -0.0537066 0.897516 0.106041 -0.428042
0.0741827 -0.257799 0.0638085 0.336711 -0.936599 0.0969949
-0.0484026 0.494631 -0.117253 -0.0135849 0.962039 -0.272574
0.238181 -0.299501 0.236007 -0.515458 0.0205118 -0.856669
-0.0911021 0.351791 -0.0884571 0.453839 0.213742 0.865069
0.0338579 -0.50069 0.0803462 0.099765 -0.990997 -0.0892856
-0.0837159 0.374577 0.00599558 -0.317438 -0.459699 -0.829404
0.245502 -0.22167 0.192618 -0.247102 -0.798187 -0.549398
-0.0953822 0.415269 0.0647858 -0.845626 -0.170124 0.505939
-0.240709 0.439837 -0.0263119 -0.837137 0.452394 0.307475
0.233422 -0.435282 0.156609 0.283626 -0.949235 0.136048
-0.248323 0.435847 -0.0384276 -0.901435 0.267106 0.34069
0.163228 -0.169076 -0.0228104 0.824084 0.222779 -0.520822
0.0501659 -0.188468 -0.10427 -0.873747 0.0193299 0.485997
0.227545 -0.0207165 0.136835 0.852628 0.160393 -0.497291
0.0596329 -0.182838 -0.195985 0.911773 0.0875553 -0.401253
-0.00336053 0.355395 0.168675 0.0444031 0.254855 0.965959
0.0170553 0.318595 0.00820914 0.277807 0.805228 0.523862
0.14629 -0.382907 0.0601577 -0.868631 0.29587 0.397418
-0.0519133 -0.230911 0.0709054 -0.743841 -0.291716 0.601334
0.212071 -0.342457 0.229062 -0.493358 0.558657 -0.666709
0.274046 -0.35566 0.14816 -0.314316 0.933445 -0.172875
-0.18433 0.205917 -0.0728011 -0.455174 -0.257132 -0.852467
-0.0617388 0.377207 -0.0572631 -0.532846 -0.646825 0.545612
0.219248 -0.241805 0.224442 -0.295012 -0.617769 -0.728923
0.0564363 0.318733 0.0128107 0.0267345 0.982436 0.184675
0.163927 -0.364692 0.138888 0.0868292 0.872455 0.480919
0.0375652 -0.0357686 -0.182536 0.86578 0.0448778 -0.498409
-0.0878024 0.41479 0.0782965 -0.828883 -0.199062 0.522807
0.235386 -0.308213 0.230358 -0.53981 0.222476 -0.811856
0.140039 0.122953 0.16564 0.455028 0.272314 0.847818
-0.104446 0.295832 0.0342781 -0.100166 0.20283 0.974077
0.193039 0.106122 0.144196 0.765381 0.296137 0.571398
0.0496785 -0.267423 0.038939 0.295108 -0.953803 0.0563109
-0.178344 0.280518 -0.0703043 0.351471 0.864649 -0.358957
0.111499 -0.172041 0.209074 -0.863579 -0.0564652 0.501042
0.142057 -0.275306 0.107096 0.439398 -0.179151 0.880247
0.200214 -0.467482 0.01721 0.24994 -0.954707 0.161444
0.120871 -0.418483 -0.0662132 -0.905535 -0.137495 0.401376
0.0047262 0.522491 -0.0256075 -0.00401756 0.966249 -0.257578
0.0161898 0.0380842 -0.199839 0.823032 0.205205 -0.529631
0.0433062 0.04658 0.168307 -0.95003 -0.0614431 0.306051
-0.22154 0.276864 -0.0657255 -0.785036 -0.280974 -0.552062
0.16947 -0.242976 0.106884 0.430509 -0.599846 0.674424
0.0649323 -0.277649 0.101695 -0.523013 -0.177638 -0.833608
-0.0237334 0.457573 0.0581711 0.244061 -0.961321 0.127656
0.121158 -0.306094 0.162422 0.427979 0.138905 0.89305
-0.219172 0.409578 0.0122618 -0.881415 -0.10424 0.460697
0.170375 -0.00746053 0.191278 0.515706 0.270806 0.812842
0.0599492 0.0328775 0.186576 -0.876864 -0.0892763 0.472377
0.0204272 0.154008 0.170368 -0.832781 -0.187342 0.52094
-0.0931097 0.404363 -0.252602 0.867575 0.0563768 -0.4941
0.1382 -0.300924 -0.110692 0.851003 0.101528 -0.515253
0.094744 0.10625 0.200251 0.367084 0.438905 0.820129
-0.0486144 0.338453 0.028117 0.817994 0.19628 -0.540703
-0.12457 0.455764 -0.152507 -0.825509 0.454167 -0.335063
0.185446 0.136831 0.113925 0.758223 0.265995 -0.595269
-0.0541316 0.409155 0.119912 -0.198486 -0.869514 -0.45227
-0.12104 0.247341 -0.0230718 -0.265811 0.952899 -0.14604
0.153026 -0.482477 -0.0055379 -0.46208 -0.879729 0.112072
0.0452531 -0.480399 0.138937 -0.336049 -0.643465 0.687767
0.126862 -0.259457 0.205231 -0.830675 -0.20776 0.516541
-0.00604188 0.384066 0.165028 0.32597 0.258303 0.909408
-0.174255 0.226459 0.0200782 -0.859054 0.0705037 0.507006
0.165507 -0.439679 -0.105247 0.850859 0.142397 -0.50573
0.0428903 -0.387618 0.0667391 0.468854 0.247275 0.847957
0.0852188 -0.395705 0.149098 0.425101 0.226063 0.876462
0.239227 -0.317207 0.247387 0.415389 0.259511 0.87184
-0.00194487 0.270174 -0.142897 0.873843 0.105386 -0.474649
-0.0848634 0.336999 0.0576861 -0.870191 -0.0845144 0.485411
-0.041786 0.126513 -0.264225 0.823707 0.263497 -0.502072
0.151075 -0.376566 0.20561 -0.877432 -0.126878 0.462618
0.076936 -0.305145 -0.205843 0.806781 0.0847262 -0.584745
0.119512 -0.479374 0.0840548 0.31266 -0.944999 0.0960236
0.0948203 0.272803 0.144724 0.484459 0.255603 0.83664
-0.0368916 -0.146352 0.116906 -0.655979 0.0542027 0.752831
0.0509744 0.247705 -0.0713978 0.801257 0.229856 -0.552407
0.089732 -0.370011 -0.0423669 -0.506165 -0.285462 -0.813823
-0.142633 0.0113995 0.00210986 -0.838073 -0.183414 0.513802
0.143337 0.0365099 0.0184704 0.797957 0.220253 -0.561029
-0.00495343 -0.132323 -0.171355 -0.843102 -0.178762 0.507171
-0.0746223 0.396171 -0.0517523 -0.51157 -0.660542 0.549528
-0.0895278 0.169982 0.064011 0.335097 0.326689 0.883733
0.224798 -0.168621 0.208292 0.399329 0.319346 0.859392
0.0135873 0.188769 -0.150302 0.803873 0.227742 -0.549474
0.121012 -0.374956 0.0962561 -0.481836 -0.206476 -0.851588
0.0487199 -0.427781 0.136445 -0.265468 0.949772 -0.165709
-0.163775 0.348773 -0.122515 -0.482801 -0.247465 -0.840038
0.00166544 -0.0182747 -0.239751 0.857997 0.135341 -0.495504
0.0249137 -0.303465 0.0492778 0.454781 0.261238 0.851427
0.29242 -0.265167 0.201222 0.338703 0.29658 0.892928
-0.0453821 0.356802 0.0338659 0.828923 0.267701 -0.491145
-0.0807384 0.206055 -0.126179 -0.50069 -0.0919755 -0.860726
0.262984 -0.435065 0.106007 0.0451321 -0.97652 0.210645
0.119722 -0.103549 0.23889 -0.431714 0.0199516 0.90179
0.121049 0.262757 0.0501088 0.750473 0.309267 -0.584075
-0.0193404 0.508346 -0.0691195 0.185307 0.913025 -0.363383
-0.108513 0.421084 -0.265979 0.138629 0.620386 -0.771947
0.288738 -0.291782 0.203067 -0.516161 0.086001 -0.852163
0.0607726 -0.394407 0.00928205 -0.66855 0.730921 0.137098
0.07545 -0.226784 -0.184527 0.845002 0.172618 -0.506137
0.18474 -0.451572 0.140011 0.315909 -0.943408 0.100915
-0.0689968 -0.179647 -0.0164168 -0.448124 -0.273307 -0.851169
0.204223 -0.22729 0.214535 -0.1759 -0.793213 -0.582985
0.280335 -0.335194 0.178915 -0.468116 0.636528 -0.612943
0.202547 -0.211051 0.169831 0.141504 -0.98088 -0.133605
-0.0594715 0.288709 -0.00876888 -0.457228 -0.262475 -0.849735
0.240228 -0.0446077 0.157104 0.88724 0.460708 -0.023504
0.0897731 0.439082 0.0883927 -0.428473 -0.443405 -0.787276
-0.13993 0.442768 0.0121293 -0.390221 0.212199 0.895935
-0.0274032 -0.10316 -0.0619426 -0.263359 -0.400146 -0.877796
-0.00616062 0.0733256 0.101192 -0.861737 -0.105724 0.496217
0.0899802 0.323934 0.137518 0.458443 0.269958 0.846731
-0.0808962 0.208777 -0.174554 -0.818462 -0.215482 0.532624
0.113663 -0.44891 -0.164496 0.00737389 -0.80125 -0.598284
-0.0455423 0.217526 0.0786204 -0.824439 -0.271284 0.496694
0.122241 -0.339606 -0.145317 0.79592 0.31964 -0.514142
0.0613049 -0.383313 -0.148355 -0.863525 -0.137571 0.485179
0.0221028 -0.357828 0.142817 -0.552414 -0.245303 -0.796659
-0.119953 0.417162 -0.0461261 0.248042 -0.957715 0.145795
0.0669796 -0.316417 0.0201846 -0.547062 -0.761864 0.346824
0.13402 -0.482586 -0.099427 -0.0330606 -0.944812 -0.325942
-0.175082 0.352434 -0.102061 0.275004 -0.950187 0.146687
0.0593271 -0.21687 -0.210788 0.83881 0.218128 -0.498817
-0.0601733 -0.238662 0.00447888 -0.58718 -0.0772688 -0.80576
0.0101719 -0.0267303 -0.226812 0.887231 0.0592324 -0.457506
0.0682004 0.375045 0.114134 -0.397595 0.249669 -0.88294
0.0784962 -0.434355 -0.136022 -0.85592 -0.225896 0.465157
-0.150157 0.44085 -0.136501 -0.450234 0.479965 -0.752943
-0.0506726 0.367512 0.0337648 0.884815 0.0926551 -0.456638
-0.156165 0.227097 0.0500219 -0.819435 -0.274924 0.502935
0.0420953 -0.167639 -0.226785 0.773258 0.159784 -0.61363
0.189773 -0.232531 0.22324 -0.237898 -0.828486 -0.506967
-0.202848 0.410116 0.0293099 -0.807291 -0.226201 0.545082
-0.126135 0.285546 -0.0922641 -0.749484 0.635258 0.186335
-0.201938 0.222911 -0.0598422 -0.569771 -0.271574 -0.775634
-0.0441281 0.407316 0.0604413 0.430383 -0.748358 0.504708
0.254096 -0.38497 0.065364 0.861977 0.0895885 -0.498969
0.120485 -0.370676 -0.165613 0.853316 0.165388 -0.494467
-0.0710521 0.49423 -0.083696 -0.148967 0.959857 -0.237662
-0.0931753 0.143282 -0.223989 -0.842005 -0.182448 0.507681
-0.101361 0.482567 -0.0824915 -0.364086 0.928903 -0.0676755
0.0712151 0.197801 -0.0418648 0.878935 0.14115 -0.455577
-0.162069 0.190769 0.0278135 -0.75851 -0.273798 0.591352
-0.108398 0.200811 -0.10975 -0.489333 -0.232984 -0.840399
-0.0209714 -0.296318 -0.00251455 -0.446308 -0.196867 -0.872956
0.0734076 0.0125394 -0.110764 0.81461 0.211995 -0.539878
0.134895 -0.48049 -0.0646951 -0.6631 -0.608262 0.436251
0.149804 -0.263498 0.211326 -0.057334 -0.915618 -0.39794
-0.128065 0.247708 -0.253261 -0.874928 -0.103121 0.473146
0.0545441 -0.112191 0.135909 -0.873095 -0.152133 0.463206
0.155916 -0.359697 0.0734005 -0.892457 0.220084 0.393807
0.0133324 -0.338555 0.0618078 0.892441 -0.128041 -0.432614
-0.0875295 0.357163 -0.255211 0.855284 -0.0245828 -0.517577
-0.091454 0.229162 -0.129264 -0.480844 -0.281983 -0.830226
-0.0773543 0.216278 -0.177054 -0.747055 -0.315746 0.58499
0.182108 -0.256479 0.265138 0.307947 0.193151 0.931591
0.102615 0.141663 0.184336 0.40271 0.275142 0.872995
0.035918 -0.20523 -0.231567 0.184231 -0.152192 -0.971029
-0.129047 0.126218 0.0674481 -0.851176 -0.146173 0.504116
0.226749 -0.134863 0.101422 0.847403 0.163997 -0.504989
-0.152084 0.256863 -0.0304089 0.405344 0.287588 0.86775
-0.0997682 -0.033041 0.0577226 -0.942096 -0.128547 0.309728
-0.112136 0.0675086 0.0682563 -0.851474 -0.120559 0.510351
0.0752205 -0.427807 0.15925 0.50983 0.12924 0.850512
0.0474401 -0.273032 0.0273696 0.612111 0.27557 0.741203
-0.208414 0.25437 -0.0240291 -0.840702 -0.18991 0.507103
-0.108586 0.38432 -0.283717 0.552293 0.332671 -0.764397
0.0652378 0.434004 0.111623 0.452888 0.270039 0.849689
-0.110822 0.29947 -0.134955 -0.478035 -0.246072 -0.843167
-0.0853142 0.342238 0.00761588 -0.480188 -0.235601 -0.844933
0.0254915 -0.397349 0.0268832 0.201135 0.901923 -0.382203
-0.0671392 -0.00475835 -0.069617 -0.583594 -0.0756227 -0.808517
0.265365 -0.208181 0.15624 -0.0478506 -0.950625 -0.306631
0.0180414 0.337538 -0.0967718 0.798039 0.185888 -0.573219
0.0967935 -0.373081 0.0307102 0.463784 0.251731 0.849433
-0.0480433 0.138212 -0.129176 -0.802556 -0.344387 -0.487136
0.264411 -0.25848 0.222961 0.435352 0.27291 0.857898
0.0818714 -0.313834 -0.0891721 -0.812853 -0.255837 0.523275
-0.108381 0.21975 -0.226074 -0.841832 -0.17472 0.510678
0.15772 0.141805 0.150186 0.519354 0.22374 0.824749
-0.19947 0.226601 -0.0116845 -0.770372 -0.287479 0.569107
-0.20115 0.342779 -0.102525 -0.423027 -0.298707 -0.855466
0.124932 -0.0887441 0.235864 0.150411 0.140161 0.978638
0.189873 -0.244063 0.00184236 0.854021 0.132687 -0.503034
0.115541 -0.0892713 -0.0812055 0.903658 0.132678 -0.407184
-0.109405 -0.0906507 0.0257664 -0.903234 -0.0231524 0.428523
0.163031 -0.36381 0.231477 -0.840242 -0.191388 0.50731
0.318058 -0.395086 0.177563 0.906365 -0.41509 -0.0787521
-0.0482776 0.422757 0.0149544 0.629948 -0.500127 0.59417
-0.0582932 -0.286585 0.0379053 -0.911599 -0.101715 0.398298
0.244499 -0.140635 0.120334 0.838289 0.200178 -0.50715
0.0517044 -0.106285 0.129652 -0.80712 -0.215611 0.549608
0.0163649 -0.493177 0.0581669 -0.443835 -0.80606 -0.391507
0.251439 -0.357666 0.11277 -0.0403172 0.973886 0.22343
-0.0360957 0.414836 -0.158263 0.749962 0.401996 -0.525315
0.12386 0.0984834 0.00583441 0.868355 0.124924 -0.479951
-0.0523504 0.135499 -0.161228 -0.784455 -0.212003 0.582825
-0.143001 0.00583721 -0.0302611 -0.764274 -0.325579 -0.556672
0.113151 -0.207738 0.208413 -0.866503 0.0340726 0.498008
0.281899 -0.386366 0.22529 0.527712 -0.470201 0.707412
0.0965194 -0.150747 0.199102 -0.83579 -0.230668 0.498244
-0.118132 0.298241 -0.303837 -0.0148948 -0.00226182 -0.999887
0.0413405 -0.13722 0.106927 -0.631048 -0.147207 0.761649
-0.149124 0.0772737 0.00903538 -0.853135 -0.094063 0.51314
-0.1031 0.253664 -0.0461647 -0.293101 0.950658 -0.101692
0.192583 -0.0124867 0.18107 0.613973 0.191535 0.765736
-0.107496 0.361259 0.0274801 -0.817576 -0.236873 0.524844
0.068737 -0.426315 0.0573035 0.434746 0.282757 0.855011
-0.0682323 0.188433 -0.166256 -0.739674 -0.262346 0.619724
-0.0258271 -0.238782 0.109862 -0.84199 -0.187107 0.506008
-0.101161 0.384836 0.0440752 -0.852945 -0.159355 0.497082
0.0505257 -0.353638 0.155034 0.537276 0.228279 0.811926
-0.162281 0.226134 0.0363293 -0.76783 -0.313352 0.558791
0.0134688 0.0242011 -0.206564 0.864327 0.103228 -0.492222
0.243781 -0.0866988 0.140416 0.831412 0.217969 -0.51112
-0.202487 0.297207 -0.0796928 0.795052 0.255019 -0.550325
0.0933917 0.210353 -0.00811397 0.844028 0.17234 -0.507854
-0.112251 0.313019 -0.142168 -0.441985 -0.323704 -0.83658
0.0752335 0.425235 0.101493 -0.426455 -0.544145 -0.722525
-0.196166 0.206259 -0.0203946 -0.900241 -0.145499 0.41036
-0.171504 0.256642 -0.0909417 -0.513501 -0.260051 -0.817735
-0.00554112 -0.374146 0.0157858 0.807868 0.207019 -0.551808
0.00935746 -0.0330661 0.0883755 -0.640862 -0.0140194 0.767528
-0.0895882 -0.100066 0.0563249 -0.871822 -0.0682704 0.485042
0.0183833 0.450457 -0.00381718 0.285929 -0.764509 0.577729
0.208382 -0.207041 0.148542 0.107868 -0.991935 0.0665521
0.200664 -0.232982 0.219688 -0.159482 -0.653756 -0.739708
0.189967 -0.294812 -0.0197606 0.864764 0.117706 -0.488189
0.150507 -0.257524 0.178063 0.286782 -0.909452 0.301086
0.0641614 -0.161806 0.136491 -0.866443 -0.158972 0.47329
-0.140538 0.102749 0.0278657 -0.867926 -0.139562 0.476684
0.0606611 -0.0817885 -0.161588 0.867361 0.0477723 -0.495381
-0.0665274 0.516953 0.083854 -0.210233 0.968771 -0.131472
0.125366 -0.120356 0.240172 -0.251478 0.0679587 0.965474
-0.0618745 0.459052 -0.181821 0.780322 0.335985 -0.527458
-0.167292 0.103696 -0.0478699 -0.629395 -0.194354 -0.752388
0.00244091 -0.446992 0.0850189 -0.839696 -0.179693 0.512465
0.011004 0.137817 0.154125 -0.810966 -0.316299 0.492228
0.12435 -0.367904 0.16846 -0.82206 -0.230354 0.520725
0.177506 0.0473701 0.0740707 0.843096 0.188803 -0.50353
-0.048449 0.237243 0.0843027 -0.962322 -0.0482346 0.267598
-0.125984 0.323325 -0.303758 -0.146079 0.0233763 -0.988997
-0.0800014 0.265412 -0.161502 -0.958995 -0.231295 0.163803
0.133983 -0.215995 -0.0887243 0.831157 0.195978 -0.520356
-0.0888034 0.31399 0.034002 -0.744266 -0.339608 0.575095
0.146412 -0.144984 0.244739 0.396191 0.304116 0.866341
0.154267 -0.31767 0.0374772 -0.676397 -0.534826 0.506407
0.0552914 0.0682269 0.198331 -0.877323 -0.118657 0.465
-0.107561 0.280388 -0.131211 -0.557635 -0.220613 -0.800233
0.0588124 -0.173727 -0.19524 0.886189 0.144256 -0.440295
-0.0273754 0.455882 0.0751185 0.132691 -0.9897 0.0537267
-0.0727685 0.131713 -0.190189 -0.863638 -0.122135 0.489094
0.112061 -0.318923 0.159707 -0.836035 -0.208289 0.507603
0.203225 -0.0867824 0.07525 0.860781 0.143189 -0.488419
0.0675695 -0.386613 -0.200769 -0.429105 -0.371603 -0.823274
0.101184 -0.399947 -0.039558 -0.308226 -0.280836 -0.908916
-0.0189663 0.0470843 -0.249125 0.894316 0.0822683 -0.439808
-0.185746 0.378801 0.0416961 -0.292367 0.0503611 0.954979
0.109304 0.293903 0.13234 0.3483 0.2299 0.908754
0.208571 -0.21073 0.165876 0.109868 -0.985938 -0.125914
-0.06211 0.0525049 -0.0906857 -0.452059 -0.282308 -0.846135
-0.0359628 -0.267416 0.0881499 -0.922181 0.022419 0.386109
-0.0905265 0.152081 -0.105955 -0.509076 -0.333694 -0.793404
-0.136188 0.406336 -0.0844158 0.320229 -0.943523 0.084961
-0.0853495 -0.147921 0.0500651 -0.825674 -0.253289 0.504091
0.107643 -0.308871 -0.161912 0.849894 0.130571 -0.51052
0.161238 -0.218232 0.185612 0.19691 -0.973205 -0.118738
-0.0494402 -0.0256766 -0.209474 -0.819594 -0.203714 0.535505
0.0917678 -0.337911 -0.0685063 -0.932166 -0.348344 0.0986022
0.050356 0.305807 0.164379 0.41146 0.307228 0.858086
-0.0846465 0.282387 0.00570205 -0.365536 -0.269752 -0.890852
0.0880329 0.409521 0.106828 0.457638 0.215425 0.862647
0.230678 -0.34398 0.0317756 0.843755 0.180054 -0.505627
-0.104901 0.482595 -0.0905443 -0.306789 0.945001 -0.113369
0.25147 -0.250845 0.212988 -0.450285 -0.342249 -0.824687
-0.181917 0.168175 -0.0582823 -0.27252 -0.477124 -0.835515
-0.0469422 -0.283944 0.0639344 -0.859185 -0.0883968 0.503972
-0.0686453 0.0143291 -0.224019 -0.923702 -0.225114 0.309997
0.0110325 -0.393843 0.0292974 0.681664 0.511662 -0.523006
0.143913 0.229168 0.0911298 0.820318 0.251891 -0.513449
-0.0671014 -0.160691 0.0656697 -0.832921 -0.24276 0.497302
-0.151577 0.35283 -0.133172 -0.476272 -0.194553 -0.857504
-0.165905 0.240195 0.0176947 -0.188102 0.968445 -0.163501
-0.161445 0.0920164 -0.0500118 -0.457708 -0.262092 -0.849594
-0.073577 0.404669 -0.0399298 -0.635425 -0.546035 0.545967
-0.065418 0.124855 -0.281908 -0.207656 -0.131324 -0.969347
0.13045 0.302367 0.118374 0.681159 0.274358 0.678786
0.0347924 -0.383523 0.0664059 0.4754 0.155622 0.865896
0.0335051 0.419627 0.136672 0.465608 0.232214 0.853982
-0.121065 0.453587 -0.204486 -0.538216 0.801913 -0.259344
0.0291074 0.286543 -0.0883567 0.863402 0.0838141 -0.497506
0.151054 -0.261897 0.219167 -0.101791 -0.863952 -0.493179
-0.0519141 0.399357 0.125178 -0.229849 -0.711986 -0.66351
0.0498285 -0.496575 0.0797516 0.152182 -0.98835 0.00214082
-0.0367496 0.453317 0.0504855 0.340713 -0.929874 0.138742
0.270766 -0.242508 0.197552 -0.348277 -0.528244 -0.774378
0.0582062 0.0694371 -0.116072 0.850519 0.113819 -0.513482
-0.103647 0.0445058 -0.0572946 -0.46852 -0.234282 -0.851822
-0.0968896 0.15151 -0.275761 -0.47384 -0.291179 -0.831078
0.157704 -0.477945 -0.106755 0.346493 -0.860605 -0.373231
-0.0608769 0.140484 -0.279571 0.341879 -0.0350172 -0.939091
-0.0996172 0.161077 0.0704702 0.357878 0.292469 0.886784
0.127551 -0.175962 0.241418 -0.563444 -0.15993 0.810526
0.114776 0.105491 -0.00923311 0.89797 0.0338724 -0.438752
0.0765234 0.282709 -0.0103377 0.810551 0.229806 -0.538699
-0.106792 0.45523 0.0598339 -0.853449 -0.119139 0.507377
-0.146952 0.365181 0.0372288 0.620171 0.251284 0.743131
0.202105 -0.302392 0.227529 0.875304 0.158154 -0.45698
0.0662794 -0.213218 -0.196321 0.921371 0.0430937 -0.386289
-0.153135 0.347676 -0.277795 -0.95265 0.0345444 -0.3021
0.12445 -0.268286 0.0618707 -0.538449 -0.653439 0.532063
0.17035 -0.103607 0.0172067 0.833823 0.215698 -0.508148
-0.0494234 -0.0944476 -0.0519383 -0.562936 -0.21085 -0.799153
-0.0486812 0.380952 0.00148054 0.43951 0.105956 0.891967
-0.0600138 0.514291 0.027283 -0.34609 0.935379 -0.0727164
0.197527 -0.21933 0.200539 -0.194702 -0.905815 -0.376286
0.208231 -0.45614 0.084747 0.329735 -0.935727 0.125256
0.126474 0.136461 0.0251055 0.807116 0.280293 -0.519615
0.0202708 -0.210014 0.121874 0.407783 0.318393 0.855768
-0.0100958 0.528728 0.0825388 -0.0201649 0.918948 0.393863
0.0355886 -0.0674684 -0.196699 0.809407 0.247769 -0.53242
-0.0911053 0.477357 -0.15471 -0.260363 0.937659 -0.230233
-0.196144 0.4016 -0.00617788 0.255687 -0.953052 0.162221
0.164663 -0.221663 0.157438 0.257722 -0.932044 0.254704
0.0993661 0.0661281 -0.0482676 0.837072 0.194492 -0.511354
0.0307872 -0.24315 -0.0482233 -0.469825 -0.485011 -0.737583
-0.0172593 -0.389015 0.0877212 -0.881516 -0.0369031 0.470709
0.148535 -0.179195 0.248923 -0.044048 0.0986401 0.994148
-0.249957 0.372235 -0.0543915 -0.864774 -0.0524581 0.499413
0.1952 -0.288065 -0.00463328 0.8002 0.215127 -0.559822
-0.00162104 0.204041 -0.167347 0.81132 0.216915 -0.542871
0.115004 -0.394141 0.0318019 0.381097 0.316923 0.868518
0.0617658 0.322248 0.0703602 -0.322094 0.855581 -0.405262
0.0484413 -0.0930055 -0.186387 0.813577 0.270801 -0.514549
0.191403 -0.404435 -0.0517689 0.815928 0.307524 -0.489581
-0.103202 0.288539 -0.195896 -0.860406 -0.124613 0.494138
-0.0644573 0.0838143 -0.271396 -0.411423 -0.314031 -0.855637
0.178386 -0.0424324 0.0472834 0.866677 0.108932 -0.486832
0.0586767 0.423198 0.114537 -0.382802 -0.465266 -0.798117
0.0559387 -0.242108 0.114941 -0.185201 0.150515 0.971106
0.0127052 0.231819 0.181359 -0.788821 -0.0652601 0.611149
-0.073291 0.477962 -0.176528 0.218012 0.899817 -0.377888
0.256338 -0.415402 0.0565183 0.857937 0.150102 -0.491339
0.0353208 0.370503 0.134365 -0.435605 0.248271 -0.865222
-0.0113625 0.22931 -0.177367 0.868149 0.117264 -0.482252
-0.148029 0.20331 0.0583235 -0.850711 -0.154561 0.502396
