ply
format ascii 1.0
comment Created by Open3D
element vertex 128
property double x
property double y
property double z
property double nx
property double ny
property double nz
end_header
0.0845987 -0.385881 0.0311947 0.894543 -0.33476 -0.296189
0.278096 0.150693 0.0521414 0.905009 -0.282584 -0.317968
-0.0192519 0.050506 0.155947 -0.478678 0.326164 0.815159
-0.0583574 -0.0774191 0.0493666 0.68216 0.57304 -0.454184
0.17769 0.0271713 0.287333 -0.508375 0.340155 0.791107
0.185273 -0.28224 0.218064 0.900548 -0.320415 -0.293848
0.362248 0.0886225 0.368845 -0.477116 0.408979 0.77788
0.0702078 -0.333795 -0.0668027 0.892153 -0.354268 -0.28028
-0.0923755 -0.196112 -0.245036 -0.981784 -0.0727843 -0.175505
0.217738 0.0844393 -0.0573015 0.903426 -0.328996 -0.274923
0.0286408 -0.383272 -0.135154 0.898648 -0.271136 -0.344844
0.0909439 0.198785 -0.423532 -0.78152 0.580186 -0.229369
0.0570362 -0.319751 0.197529 -0.764668 -0.198627 0.61305
-0.0536661 -0.0904951 0.143033 -0.702749 -0.143196 0.696878
0.118796 0.276527 -0.0714458 -0.553249 0.824875 0.116179
0.311452 0.0263497 0.26575 0.902681 -0.283366 -0.323838
0.0247925 -0.0505947 -0.47455 0.889935 -0.355481 -0.285743
0.0731705 0.00852273 -0.397607 0.895283 -0.342479 -0.284914
0.0802745 0.118287 -0.487221 0.899053 -0.276629 -0.339381
0.157501 -0.263149 0.119106 0.899665 -0.304018 -0.313329
0.0140043 0.199088 -0.131329 -0.620811 0.769582 -0.149459
-0.118738 -0.0118529 0.094086 -0.709237 -0.169677 0.684247
0.112176 0.0414208 -0.316548 0.893779 -0.307606 -0.326401
0.23904 -0.170049 0.254582 0.903775 -0.279058 -0.324526
0.218649 0.357035 -0.302979 -0.645535 0.763073 -0.0316804
0.166347 0.0662011 -0.188966 0.900614 -0.283121 -0.329754
0.0226648 0.178605 -0.244617 -0.734985 0.636946 -0.232586
0.0708798 0.216437 -0.306235 -0.716602 0.658835 -0.228948
0.140845 -0.349819 0.159541 0.891926 -0.374613 -0.253244
0.218888 -0.0435672 0.069421 0.888167 -0.353906 -0.293102
0.276155 -0.0679583 0.260752 0.90903 -0.265837 -0.320928
0.118374 -0.302266 0.271745 -0.737519 -0.100934 0.667742
0.235327 -0.0891692 0.163762 0.904649 -0.229725 -0.35894
0.190657 0.0385466 0.0284831 -0.454584 -0.679145 -0.576294
0.180876 0.330414 -0.181068 -0.628748 0.776945 0.0321333
0.231293 0.25046 0.147538 -0.45966 0.702788 0.542957
0.0934578 0.0415468 0.228387 -0.478992 0.336192 0.81089
-0.00958537 -0.117786 -0.0649591 0.42149 0.802073 0.423114
0.128385 0.139504 -0.374625 0.882835 -0.30059 -0.3609
-0.0265872 -0.455562 -0.0732779 -0.923434 -0.321126 0.210114
-0.0102966 -0.0282538 -0.127945 0.410619 0.0686617 0.909218
0.0313041 -0.417708 0.113904 -0.835495 -0.275888 0.47522
0.00992733 -0.322324 0.127794 -0.791975 -0.307466 0.527485
-0.0336228 0.0202123 -0.351033 -0.921035 0.2581 -0.291684
0.340493 0.152191 0.228748 0.913474 -0.330121 -0.237877
-0.0758281 -0.297798 -0.264493 -0.980317 -0.186869 -0.0637024
0.0100596 -0.471308 0.0230825 -0.854666 -0.367607 0.366621
-0.0340046 -0.383618 -0.0125469 -0.899532 -0.32803 0.288511
0.116054 -0.0412101 -0.222402 0.905321 -0.284083 -0.31574
0.0498765 -0.0966136 -0.362585 0.896903 -0.319134 -0.306136
-0.0692289 -0.208825 -0.350357 -0.961761 0.0106673 -0.273681
-0.0646138 -0.363921 -0.161616 -0.95944 -0.272444 0.0724544
-0.050717 -0.281908 0.0509321 -0.87266 -0.324647 0.364786
0.215304 -0.321853 0.341419 0.897233 -0.310087 -0.314356
0.0497838 -0.214846 0.218786 -0.674008 -0.216729 0.706216
-0.108723 0.085048 -0.0619468 -0.782986 0.545793 -0.2984
0.167924 -0.0912865 0.313678 -0.552772 0.146156 0.820416
-0.0242932 -0.23345 0.124349 -0.800472 -0.281713 0.529039
0.113876 0.138058 0.180766 -0.460659 0.607111 0.647465
0.10697 0.243918 0.0196546 -0.505278 0.800606 0.322063
-0.0909612 -0.265404 -0.156044 -0.984754 -0.155445 -0.0780834
0.382639 0.200125 0.298504 0.895451 -0.293534 -0.334672
0.113623 0.204378 0.10865 -0.456515 0.734074 0.502722
0.29292 -0.133433 0.407788 -0.524611 0.122956 0.842416
0.137272 -0.439673 0.252389 -0.756533 -0.219472 0.616028
0.0953163 0.094032 -0.0577787 -0.236835 -0.925302 0.296184
-0.0892087 -0.210694 0.00789217 -0.954013 -0.228206 0.194375
0.227141 -0.202918 0.368255 -0.600574 0.0460788 0.798241
0.329449 0.414395 -0.0670387 -0.510855 0.82685 0.235256
-0.0767972 -0.0574884 -0.29045 -0.934369 0.159282 -0.318722
0.0935308 0.0138631 0.0962658 -0.443878 -0.277774 -0.851947
-0.0746051 0.08969 -0.15249 -0.828444 0.481904 -0.285394
0.0162438 0.20039 -0.0317244 -0.565372 0.819939 0.0897514
-0.127407 -0.112792 -0.0217699 -0.961044 -0.264897 0.0788942
-0.107599 -0.193255 -0.103433 -0.970287 -0.241122 0.0200983
0.130497 -0.105133 0.0637175 -0.0218432 0.494484 -0.868912
0.0632448 0.086545 0.0608893 -0.286599 -0.743401 -0.604331
0.0684183 -0.513476 0.114937 0.897716 -0.311263 -0.311804
-0.160147 0.0338725 0.0221213 -0.97674 -0.035421 -0.21148
0.151372 -0.181983 0.0175209 0.888679 -0.288238 -0.356608
0.200136 -0.176615 0.152366 0.886253 -0.281251 -0.36804
0.262268 0.371706 -0.223358 0.898648 -0.306645 -0.313689
-0.0495155 -0.411068 -0.334727 0.885426 -0.289151 -0.363887
0.0266664 -0.130124 0.0298066 0.210553 0.900136 -0.381342
0.244159 -0.0163776 0.345817 -0.526872 0.339261 0.779299
0.238391 0.189651 -0.112844 0.88811 -0.370126 -0.272519
0.171219 0.301254 -0.400919 -0.708585 0.68621 -0.164387
-0.07197 -0.306459 -0.0584665 -0.942768 -0.288865 0.166572
0.0387325 -0.0602912 0.103369 -0.126081 0.419395 -0.899006
0.12564 -0.273437 0.0326945 0.885519 -0.375745 -0.273261
0.373078 0.298581 0.175209 0.897655 -0.296217 -0.326298
-0.0273214 0.0904331 -0.0624413 0.425802 -0.824324 0.373071
0.290226 0.233541 0.213069 -0.462007 0.592795 0.659654
0.119164 0.278852 -0.236576 -0.676972 0.735135 -0.0358487
0.259623 0.056904 0.0956855 0.898892 -0.315699 -0.303855
0.241928 0.116015 0.279406 -0.445061 0.461575 0.767378
0.183108 0.303964 -0.0084858 -0.562448 0.766235 0.310704
0.118426 -0.19908 -0.065635 0.881255 -0.282756 -0.378734
0.041375 -0.0284703 0.219184 -0.552556 0.149442 0.819969
0.106794 -0.141384 -0.152808 0.887201 -0.302675 -0.348229
0.301324 0.0990186 0.166444 0.896293 -0.305985 -0.320985
0.235136 0.355618 -0.0757737 -0.540346 0.824321 0.168883
0.00861259 -0.125826 0.195545 -0.634288 -0.133419 0.761497
0.264726 -0.00162839 0.168226 0.902279 -0.316884 -0.292364
-0.0433095 -0.463314 -0.20645 -0.945145 -0.321617 0.0571333
0.0333443 0.0362417 -0.521068 -0.872164 0.375003 -0.314169
0.0570305 -0.200869 -0.228891 0.89624 -0.25392 -0.363701
0.329781 -0.0261093 0.402767 -0.521117 0.309681 0.79532
-0.0639121 0.135467 0.0241582 -0.540891 0.820089 0.186794
0.0259841 -0.19369 -0.334859 0.906402 -0.265686 -0.328399
0.177669 0.15789 -0.247152 0.896132 -0.306592 -0.320855
-0.0413438 0.0803017 -0.26062 -0.808607 0.460913 -0.365668
-0.0467522 0.0530609 0.0676114 0.630677 -0.498855 -0.594466
0.325808 0.218556 0.118244 0.89836 -0.335663 -0.283336
0.198432 0.26205 -0.295029 0.890005 -0.280969 -0.359092
-0.0215973 -0.145099 -0.510534 -0.923071 0.170268 -0.344891
0.223975 0.245354 -0.202061 0.893794 -0.304547 -0.329218
0.0672367 -0.265655 -0.150227 0.898042 -0.313733 -0.30837
0.0887403 -0.129905 0.260875 -0.614917 0.0741259 0.785101
-0.0482715 -0.278843 -0.446524 -0.969117 0.000226395 -0.246601
0.265629 0.322027 0.0628621 -0.490052 0.777459 0.394216
0.0105297 -0.332612 -0.234251 0.904223 -0.3139 -0.289565
0.284083 0.262785 -0.0474955 0.896987 -0.325327 -0.299293
-0.101584 -0.0535812 -0.205275 -0.962136 0.0817786 -0.260013
-0.126778 -0.0826663 -0.110849 -0.983348 -0.109444 -0.145081
0.357767 0.386512 0.0402011 0.897874 -0.308354 -0.314229
-0.0556283 -0.123034 -0.387464 -0.955758 0.118369 -0.269288
0.144495 -0.202751 0.303874 -0.676541 0.0239137 0.736017
