ply
format ascii 1.0
comment Created by Open3D
element vertex 128
property double x
property double y
property double z
property double nx
property double ny
property double nz
end_header
0.0218714 -0.125141 -0.266125 -0.365357 -0.0274678 0.930462
0.100614 -0.258076 -0.2405 -0.377248 -0.0265154 0.925733
-0.176762 -0.23443 -0.193551 -0.775778 -0.500986 -0.383642
-0.468447 0.0470706 0.146119 -0.470493 0.858223 -0.205156
0.0261463 -0.211277 0.317522 0.500033 -0.834308 0.232156
-0.0883891 0.191617 -0.232899 -0.574377 0.810349 -0.115869
-0.0215039 0.372343 0.40644 -0.501899 0.834435 -0.227628
-0.420193 -0.063838 0.0250883 -0.172883 -0.98196 -0.0765863
0.0122286 0.230419 -0.329403 -0.460098 0.854918 -0.239636
-0.143383 -0.0796021 -0.405009 -0.0109308 -0.239763 -0.97077
0.138763 -0.251133 -0.230455 -0.0342028 -0.484265 0.874252
-0.0503663 -0.368779 -0.251494 -0.342596 -0.928408 -0.143827
0.38169 0.00723305 0.0869996 0.765749 0.497583 0.407479
0.193302 -0.050021 0.429336 -0.187988 -0.0146151 0.982063
0.0516483 0.130814 -0.496667 0.514709 -0.841668 0.163309
0.432803 0.418443 -0.237097 0.503754 -0.842839 0.189353
-0.123379 -0.357388 -0.121673 -0.766325 -0.557143 -0.319902
-0.554869 -0.117824 -0.0197279 -0.780095 -0.544843 -0.307569
-0.121146 0.0758557 -0.588877 0.430705 0.0147 -0.902373
-0.188468 0.286505 0.463155 -0.496075 0.847065 -0.19076
0.241152 -0.057926 0.293357 -0.756873 -0.556646 -0.342472
0.265943 0.300984 -0.0951701 0.924059 0.0564293 0.378062
-0.33707 -0.107005 -0.512404 0.522964 -0.839278 0.148732
0.176165 0.0491972 0.270973 -0.786958 -0.513491 -0.342088
-0.427067 -0.0336553 -0.327758 -0.515926 0.845952 -0.134856
0.122539 0.262841 0.277838 0.803906 0.529361 0.271131
-0.640581 -0.0643839 0.25269 -0.807758 -0.303527 0.505369
0.15805 0.402598 0.0525469 -0.495218 0.84779 -0.189765
-0.230623 0.0529168 -0.479388 -0.506267 0.841968 -0.186505
-0.341235 -0.107989 -0.512503 0.58844 -0.802212 0.100966
0.334163 0.423193 0.0377349 0.768678 0.554814 0.3183
0.24276 0.0419491 0.127514 -0.786426 -0.5399 -0.300069
0.353018 0.406623 -0.384297 0.295706 0.0612381 -0.953314
-0.0186922 0.241184 0.369765 -0.00917476 -0.508797 0.860838
-0.462524 -0.0598696 -0.33158 -0.774297 -0.538631 -0.332175
0.303419 0.000898224 -0.228566 0.37757 0.0258132 -0.925621
0.330288 0.456659 -0.00216607 0.757557 0.560507 0.334573
-0.444946 0.00628768 -0.107377 -0.503687 0.840469 -0.199779
0.148938 0.365949 -0.0940658 -0.517618 0.847318 -0.118844
-0.199073 0.277823 0.458332 -0.528648 0.837271 -0.139677
-0.356751 0.0793732 -0.00775973 -0.538999 0.839329 -0.0707633
0.104586 0.38957 0.54215 0.540626 -0.832805 0.118991
0.0729835 0.413621 0.331326 -0.455119 0.86443 -0.213605
-0.0839492 0.155772 -0.00719515 0.51581 -0.839048 0.173028
-0.28044 0.0248758 -0.471532 -0.502458 0.843107 -0.19159
0.349229 0.192684 -0.148824 0.834288 0.547629 0.0637655
-0.614787 -0.0538075 0.092745 -0.5136 0.83859 -0.181611
0.190532 -0.0518923 0.430573 -0.294558 0.0874356 0.951625
0.178791 0.187244 0.0414433 -0.767186 -0.555292 -0.321056
-0.0623033 0.0737361 -0.296425 -0.379635 0.0246525 0.924808
0.124343 0.272485 -0.44932 -0.451301 0.866325 -0.214027
-0.576605 -0.0586084 -0.0440788 -0.515605 0.838594 -0.175814
0.0953118 0.270504 0.0988599 -0.786475 -0.526964 -0.322128
-0.0584063 0.0487347 0.33055 -0.400594 -0.0129503 0.916164
-0.483366 -0.120759 -0.179747 0.501432 -0.842763 0.195745
-0.0183837 -0.277562 -0.361406 0.0327673 -0.196196 -0.980017
-0.305167 0.159255 0.208989 -0.49271 0.822703 -0.283544
-0.269008 0.144902 0.435083 -0.38252 0.019716 0.923737
-0.252138 0.0844828 -0.276694 -0.501136 0.845352 -0.185048
0.158386 0.0268975 -0.225592 -0.640007 -0.733416 -0.229111
-0.266834 -0.248119 0.240658 -0.510438 -0.0534168 0.858254
0.0479964 0.129883 0.296231 0.383741 0.0242138 -0.923123
-0.258053 -0.076679 0.164619 0.394725 -0.0229657 -0.918512
-0.345594 -0.187158 0.127897 -0.780957 -0.542721 -0.309129
0.0421399 0.13553 -0.518743 0.377967 0.0276253 -0.925407
0.0408752 0.00722776 -0.333992 0.37183 0.0473472 -0.927093
-0.0230753 0.32757 0.205388 -0.502043 0.843438 -0.191223
0.276573 -0.168889 -0.185622 0.397143 -0.824609 0.402861
0.241946 0.274811 -0.352428 0.510031 -0.841244 0.179377
-0.49724 0.0543486 0.340463 -0.335612 -0.0766257 0.938879
0.266903 0.403415 0.162588 0.53563 -0.830437 0.153215
-0.163259 -0.379622 0.0381995 -0.0807949 -0.995702 -0.0452686
-0.30854 0.184139 0.418394 -0.428537 0.0115811 0.90345
-0.508078 -0.0453669 0.238732 0.530052 -0.836854 0.136817
-0.33248 0.0664432 -0.137953 -0.498971 0.844226 -0.195733
-0.198965 -0.0408868 -0.591721 0.508757 -0.841123 0.183518
-0.363916 -0.154782 0.115783 -0.762907 -0.553267 -0.334468
-0.25878 0.0843161 -0.263121 -0.500525 0.841599 -0.202945
0.33127 0.0519864 -0.098614 -0.809371 -0.546063 -0.216181
0.178071 0.460078 0.250878 -0.518262 0.837111 -0.17507
-0.193537 -0.371339 0.205789 0.47682 -0.846948 0.235205
-0.257762 0.0745348 0.098672 0.519683 -0.837171 0.170511
-0.358563 -0.00754266 0.219076 -0.0447328 -0.471178 0.880903
-0.127773 0.166414 0.162174 0.500356 -0.843723 0.194358
-0.081985 0.0572636 -0.463695 0.476657 -0.852044 0.216375
-0.125343 0.28421 0.287142 -0.519919 0.835886 -0.176009
0.308635 0.148774 0.0248593 0.771934 0.531772 0.348334
0.18351 0.427951 0.377591 0.796241 0.497232 0.344618
-0.180148 -0.160359 -0.310551 -0.771797 -0.542198 -0.332191
0.1048 0.121909 -0.308454 0.402614 0.0656018 -0.913016
0.346591 0.387655 -0.128397 0.458828 -0.847007 0.268432
0.228202 0.179913 0.16094 0.812436 0.512966 0.277153
0.241582 0.389956 -0.238802 -0.510259 0.840367 -0.182808
-0.017226 0.168566 -0.133871 0.549616 -0.823312 0.141703
0.448117 -0.0441266 -0.0699832 0.557388 -0.820556 0.12652
-0.189195 0.0632209 -0.134143 0.460302 -0.865197 0.198886
0.00857234 0.28038 -0.0971796 -0.462246 0.861894 -0.208487
-0.203472 0.0159963 0.270117 -0.393986 -0.000350382 0.919116
0.338125 -0.0166658 0.224924 0.82484 0.498811 0.266133
0.111677 0.400501 0.536786 0.452606 0.433371 0.779319
0.194246 0.158913 -0.189552 -0.41288 0.0296601 0.910303
0.139548 -0.0931565 -0.299657 0.394597 -0.00604063 -0.918834
-0.201657 -0.257274 0.132029 0.775075 0.538063 0.33128
-0.341256 0.0766888 0.332452 0.56483 -0.818036 0.108558
-0.0561459 -0.0791331 0.328352 -0.380578 0.00410615 0.92474
-5.95805e-05 0.34254 0.206807 -0.561158 0.812011 -0.160437
0.314611 0.400337 -0.396381 -0.51971 0.837337 -0.169614
0.27213 -0.179117 -0.210246 0.463145 -0.862786 0.202726
-0.18212 -0.0894556 -0.189569 0.772377 0.53853 0.336776
0.148085 0.104722 0.397122 0.316505 0.331431 0.888807
-0.359524 -0.0590758 -0.204478 0.204805 -0.972738 0.108793
0.306893 0.00123996 -0.228318 0.271324 0.102119 -0.957055
0.391429 -0.0309897 0.10267 0.916552 -0.224151 0.331193
-0.0441725 0.337539 0.531101 -0.355155 -0.0673772 0.932376
0.0999395 0.308572 -0.22053 -0.477358 0.854348 -0.20547
-0.084316 -0.272782 0.231472 0.44651 -0.108227 -0.888209
-0.200825 -0.18616 0.00981772 0.752991 0.576028 0.318114
0.00151836 0.216883 -0.375448 -0.47914 0.853903 -0.203163
-0.222086 0.164031 -0.00310343 -0.510284 0.844156 -0.16435
-0.19092 0.143205 0.308279 0.143025 -0.621672 0.770109
-0.0428369 0.286176 0.0631279 -0.456384 0.854501 -0.248076
-0.0616231 -0.263326 -0.359071 -0.28933 -0.413941 -0.8631
0.068352 -0.00658728 0.381672 -0.426079 -0.00674269 0.904661
-0.270794 -0.0658938 -0.0152212 0.776826 0.537116 0.328705
-0.155783 -0.149221 0.203276 0.378648 0.0248044 -0.925208
-0.128253 -0.362941 -0.101467 -0.780876 -0.523763 -0.340449
-0.031805 -0.366868 -0.233075 0.479068 -0.844164 0.240583
-0.285302 -0.0527588 -0.346325 0.0117117 -0.999836 -0.0138422
