ply
format ascii 1.0
comment Created by Open3D
element vertex 128
property double x
property double y
property double z
property double nx
property double ny
property double nz
end_header
0.0567841 0.329116 0.216906 0.310541 -0.938306 0.152137
-0.218531 -0.0196483 -0.0508897 0.402207 0.721731 -0.563324
-0.011266 0.0383103 0.259905 -0.348901 -0.914687 0.203998
0.125376 -0.138258 -0.237828 -0.304857 -0.205349 -0.929997
-0.0469975 -0.32213 0.0232519 -0.688204 -0.650081 -0.322134
-0.0861836 0.166584 0.347743 -0.749264 0.480427 0.455844
0.368959 -0.118317 -0.246641 -0.097855 0.477552 0.873137
-0.0974491 -0.0829163 0.447073 -0.823753 0.313597 0.472322
0.088558 -0.135749 0.110833 -0.558371 0.382643 0.736075
0.288308 0.405678 0.259093 0.938483 -0.00233002 0.345317
-0.0800136 0.220025 0.00426817 -0.672206 0.670189 -0.314621
-0.0766179 -0.285289 0.297512 0.914484 0.352946 -0.197859
0.0596253 0.160353 0.54653 0.777333 -0.159739 0.608471
0.0775775 0.0112072 0.165381 0.104985 0.979636 -0.17115
-0.296434 0.167259 -0.0932039 -0.885191 -0.143214 -0.442636
-0.0146347 -0.127871 0.0319376 0.480704 -0.292694 -0.826592
-0.0346869 -0.354487 0.196852 0.785172 0.61915 -0.0125619
-0.0292271 0.0802853 0.0954485 -0.37055 0.620691 0.690967
0.000509034 0.00540739 0.525448 -0.147066 -0.0439575 -0.988149
0.0948516 -0.148833 0.115296 -0.464028 0.355063 0.811547
0.357302 0.412637 0.141489 0.292463 0.93316 -0.208992
0.197699 -0.0689692 -0.0162522 0.854586 -0.0855985 0.512207
-0.0999544 0.0407472 -0.169352 -0.487934 -0.187861 0.852425
0.127272 0.32156 0.464239 -0.165241 0.886651 0.431909
-0.148799 -0.168459 0.290644 -0.874839 -0.476416 0.0876585
0.014989 0.274988 0.355723 -0.659519 0.723433 0.204155
0.0151487 -0.262428 0.0907683 0.461313 -0.279844 -0.841949
-0.187206 0.0935627 -0.262921 -0.678479 0.258655 -0.687578
0.0827198 0.296197 0.47122 -0.540194 -0.0578404 0.83955
-0.176761 0.04403 0.118699 -0.995053 -0.0373502 0.0920588
-0.120649 -0.234328 0.170516 0.922628 0.384709 -0.0274987
0.0950335 0.221277 -0.149833 -0.435221 0.598652 -0.672457
-0.157892 0.0462385 0.273362 -0.930039 0.135083 0.341731
-0.0407408 -0.373546 0.184786 -0.91608 -0.393068 0.0793414
0.0689446 -0.00397497 -0.0466666 -0.576414 -0.0106531 0.817088
0.106604 -0.254343 -0.172879 0.279778 0.579477 0.765461
-0.176993 -0.0951578 -0.209221 0.240803 -0.812258 -0.531273
-0.183917 -0.0544733 0.244259 -0.887232 -0.376999 0.265877
-0.141303 -0.082882 0.0997145 0.796119 -0.127289 0.591602
0.191641 0.3481 0.342401 -0.573597 -0.622857 -0.532011
0.246173 0.361989 -0.00338109 -0.164042 0.885095 -0.435543
0.433495 -0.258876 -0.189562 -0.243508 0.234267 0.941182
0.147854 -0.466466 0.0194722 -0.414576 -0.810409 -0.413962
-0.102519 -0.0901483 0.437285 -0.92243 0.217668 0.318972
-0.217902 0.131494 -0.13843 -0.343211 -0.938358 0.0411062
-0.0558514 -0.22415 -0.0623043 0.686894 0.488632 0.537974
0.13803 -0.0751683 -0.13482 -0.364096 -0.911107 0.193177
0.285354 0.170578 -0.210468 0.105498 0.288663 -0.951601
-0.0302245 -0.31649 0.428473 -0.823993 -0.421417 0.378739
-0.0529172 0.166828 -0.121467 0.865737 -0.172402 0.469869
-0.195348 -0.169476 -0.0421906 0.524965 -0.372879 -0.765097
0.503888 0.181531 -0.138885 0.884902 -0.0910344 0.456795
0.226505 0.277098 -0.109716 0.267198 -0.731137 0.627729
0.517589 0.0655292 -0.217868 -0.0685744 -0.997498 -0.0171693
0.185702 -0.508603 0.152828 0.772846 -0.189335 0.605691
0.20766 0.40763 0.127436 -0.321421 0.946302 -0.0346704
0.0337207 -0.352287 -0.0775819 -0.652628 -0.631596 -0.418524
-0.237874 0.105894 0.00875246 -0.275132 0.700035 0.658979
0.284013 -0.307744 -0.192665 0.000842897 0.156249 0.987717
0.174987 0.0937027 -0.222306 0.41121 -0.383261 0.827053
0.00299273 -0.181934 0.511053 0.537265 0.382492 -0.751696
0.233948 -0.202849 -0.239415 -0.138858 -0.310269 -0.940453
0.282072 -0.458872 -0.0156465 0.890279 -0.233032 0.39128
-0.152611 0.220964 -0.219854 0.475266 -0.228938 -0.849535
-0.176919 0.0613814 0.152903 -0.938873 0.341515 -0.0434096
0.0229462 0.264236 -0.0330704 -0.361743 0.655337 -0.66308
0.0957873 -0.271005 -0.154031 0.366701 0.638283 0.67685
-0.0179757 0.0573905 0.240668 0.133525 0.979875 -0.148377
0.0273091 0.123591 -0.00708241 0.361638 0.912596 -0.190752
0.121871 -0.00485096 -0.259918 -0.417338 0.327733 -0.847597
-0.0945738 0.0538899 0.425473 -0.835334 0.103402 0.53993
-0.0479691 0.0765353 0.0898289 -0.398017 0.589225 0.703134
-0.331736 0.0493679 -0.0758245 -0.863447 0.0327387 -0.503377
0.0598793 -0.0182353 -0.0360133 -0.532333 0.158398 0.831584
0.411761 0.378313 0.0489694 0.541334 0.782887 -0.306668
0.288166 -0.483462 -0.0343435 -0.0869218 -0.970298 -0.225758
-0.0161185 -0.151194 -0.184063 -0.330172 -0.340265 -0.880458
-0.336034 -0.147056 -0.111097 -0.801341 0.178529 -0.570947
0.45775 -0.230618 -0.196741 0.880175 -0.26588 0.393192
0.34784 0.279462 -0.12857 0.251352 0.399059 -0.881802
0.466516 0.294633 -0.0490136 0.838313 -0.145773 0.52534
0.28627 0.3436 -0.0175208 0.328133 -0.879513 0.344653
0.0845013 0.331277 0.060471 0.326175 -0.891971 0.313045
0.0118348 -0.000631398 -0.208112 -0.367112 0.0605527 -0.928204
0.138915 -0.455162 0.0437872 0.506201 0.686472 0.52203
0.200449 -0.052459 -0.024856 0.703127 -0.121185 0.700662
-0.18734 0.0991817 -0.27402 -0.802969 0.160489 -0.574007
0.201718 0.177999 0.0444276 0.899046 -0.062293 0.433401
-0.121131 -0.254183 0.145376 0.868786 0.495107 -0.00888739
0.13055 0.303699 -0.0512294 -0.314198 0.830102 -0.460662
-0.00576261 0.271321 0.351183 -0.639125 0.768466 0.031294
0.505678 0.0199605 -0.24504 0.237156 -0.870851 -0.430554
0.386861 -0.400472 -0.132551 -0.419383 0.438879 0.794672
0.16956 -0.404286 -0.100037 0.0257528 -0.765012 -0.643501
0.295454 0.0274021 -0.248875 -0.277174 -0.0795246 0.957523
-0.028179 0.287916 0.115066 -0.711146 0.702834 0.0172206
0.20248 -0.393043 -0.12821 -0.214055 -0.763974 -0.608707
0.195364 0.350247 0.350079 0.0810845 -0.67048 -0.737483
0.287577 0.036382 -0.246549 0.0488984 -0.24198 0.969048
-0.00227997 -0.19662 0.513907 0.539008 0.342505 -0.76952
-0.173385 -0.118016 0.0889313 -0.96098 -0.270041 -0.0599608
0.0384562 0.123315 -0.190052 -0.485793 0.546433 -0.682215
0.0211751 0.0116797 0.554156 0.951193 -0.0169493 0.308131
-0.100729 0.17032 0.170187 0.81574 -0.568521 0.106545
-0.169263 -0.0911887 -0.200537 0.0683557 -0.954547 -0.290118
0.436371 -0.105801 -0.262339 0.178564 -0.124207 -0.976057
-0.295398 -0.137173 -0.130909 -0.426922 0.432162 0.794338
-0.0747172 -0.22562 -0.0820336 -0.629066 -0.542177 -0.557065
-0.00879162 0.162362 0.451197 0.69338 -0.51608 -0.502877
-0.0324347 0.265807 0.110779 -0.768009 0.640274 -0.0145607
-0.063964 -0.292318 0.296544 0.921085 0.379124 -0.0886977
0.353758 -0.378765 -0.106666 0.787573 -0.14808 0.598165
-0.0921858 0.0471864 0.399239 0.782344 -0.13804 -0.607357
0.0222214 -0.337165 0.412187 0.994689 -0.0220149 -0.100544
0.0854328 -0.425306 0.331902 0.501249 0.742578 -0.444215
-0.187764 0.222312 -0.227254 -0.903103 0.206095 -0.376736
-0.102694 -0.0464847 -0.0637487 0.108568 0.988319 0.106949
-0.340046 0.00512174 -0.0612544 -0.988167 0.0989984 -0.117151
0.094012 0.344009 0.223399 0.428981 -0.903224 0.0126937
0.385267 0.261044 -0.132979 -0.27906 -0.541781 0.792842
-0.00161019 -0.130434 0.0310237 -0.175282 -0.984512 0.00341573
0.16328 0.0617022 0.0605754 0.47679 -0.299125 -0.826556
0.0406416 -0.405346 0.0882967 0.564605 0.792221 0.231534
0.00152064 -0.119964 -0.136918 0.919738 0.0536787 0.388846
-0.0798632 0.200651 0.220682 0.789477 -0.568336 -0.231778
0.266179 -0.125732 -0.159848 -0.591566 -0.793506 0.142821
0.380152 0.11997 -0.237101 0.170695 0.349462 -0.921271
0.0470683 -0.464188 0.204231 -0.247099 -0.964271 0.0955204
