ply
format ascii 1.0
comment Created by Open3D
element vertex 128
property double x
property double y
property double z
property double nx
property double ny
property double nz
end_header
0.0862476 -0.286382 0.110831 -0.51373 0.106533 0.851312
-0.158561 0.139935 0.026586 0.538965 -0.796813 -0.273141
0.402103 -0.0921593 -0.314207 -0.0594894 -0.500509 -0.863685
-0.119447 -0.0660629 0.391087 -0.826451 -0.385253 0.410559
0.193401 -0.33858 0.00140361 -0.146959 -0.948022 -0.282236
0.0569047 -0.14495 0.424971 0.803634 0.409501 0.431835
-0.120609 -0.0511138 0.402747 -0.820309 -0.37679 0.430259
0.103073 0.250134 -0.0390815 0.766878 0.468229 0.438929
0.366854 -0.0188384 -0.275525 0.793146 0.428015 0.433268
1.4257e-05 -0.126022 0.111822 -0.0305491 0.752041 -0.658408
-0.0594054 0.147532 0.151049 0.596794 -0.57381 -0.560874
0.273844 -0.0948286 -0.30339 -0.0685746 -0.487068 -0.870668
-0.0122839 -0.121856 0.511271 -0.277281 -0.384466 0.880512
0.0401001 -0.163135 0.420283 0.594285 -0.691953 -0.409909
0.00732199 -0.125503 0.497759 0.803375 0.410574 0.431298
-0.0971352 0.0522764 0.126891 0.56317 -0.296004 -0.771506
0.4022 -0.103544 -0.262184 0.840963 0.369479 0.395305
-0.0897314 0.0986369 -0.263253 -0.480044 0.214418 -0.850637
-0.0583526 0.146869 -0.0876089 -0.806155 -0.39947 -0.436505
-0.0441691 0.241999 -0.126145 -0.593296 0.421814 0.685619
-0.0823758 0.161062 0.0804871 0.782422 0.411186 0.467698
0.00265147 -0.299412 0.0611531 -0.530735 0.149073 0.834324
0.130148 -0.11329 0.167841 -0.129126 0.830794 -0.541394
-0.0657024 -0.270346 -0.012557 -0.800805 -0.415164 -0.431683
0.0342123 0.0752718 -0.0660944 -0.80035 -0.413484 -0.434132
-0.109312 0.315678 0.297773 0.80117 0.414775 0.431379
-0.0207307 -0.219265 0.128441 0.0864022 -0.795499 0.599764
-0.0162825 -0.0401001 0.136819 -0.789036 -0.40585 -0.461203
0.047796 0.234482 -0.0162053 0.279185 -0.900242 0.334095
0.312099 -0.148435 -0.274579 -0.144202 -0.560836 -0.815272
0.408224 -0.0976468 -0.272861 0.798543 0.414201 0.436768
-0.179246 0.346304 0.319173 -0.96121 0.258365 0.096551
0.168926 -0.112523 -0.161396 0.476704 -0.874791 -0.0865684
-0.168549 0.246052 0.420565 -0.949288 0.0106626 0.314226
-0.0926492 0.0127238 0.235187 -0.500792 0.039679 0.864658
0.0146129 0.0416307 0.303119 -0.597342 0.565819 0.568358
-0.0776398 -0.179299 0.329171 -0.693209 -0.603694 0.393719
0.0155031 -0.184844 0.420804 0.583495 -0.603192 -0.543777
0.0662995 0.0650934 -0.11759 -0.808679 -0.398623 -0.432595
-0.168863 0.403178 0.135564 -0.947661 0.313662 -0.0596304
-0.0149471 -0.0754506 0.492056 0.804262 0.41703 0.423378
0.231319 -0.0983003 0.00421026 -0.514837 0.827503 0.224012
0.123655 -0.135013 -0.191279 0.427729 -0.901975 0.0590666
0.424765 -0.132251 -0.276687 0.807364 0.406987 0.42723
-0.176245 0.295028 0.342842 0.4859 -0.871324 -0.0685313
-0.225036 0.244747 0.137742 -0.946161 0.322302 -0.0300301
0.0149139 0.324309 -0.250421 -0.531813 0.329377 -0.780183
-0.228109 0.0671667 0.126897 -0.58416 0.416797 0.696447
0.0475922 -0.0178628 -0.261186 0.305147 0.335469 -0.891261
-0.0269328 0.119712 0.00546345 -0.811149 -0.399112 -0.427489
0.281937 0.0542676 -0.183795 0.82488 0.40025 0.399216
0.268564 -0.0023309 -0.103776 0.797399 0.423109 0.430272
-0.069878 -0.269181 0.0697511 0.210171 -0.853036 0.477659
0.127246 -0.0138256 -0.145301 0.799468 0.4772 0.364872
-0.0154275 0.0918031 0.0219726 0.808855 0.382983 0.446182
-0.0253187 0.301726 0.130236 0.279394 0.391677 -0.876657
-0.118664 0.139436 0.176401 -0.545599 0.198701 0.81415
-0.00896471 0.304758 -0.124019 -0.533716 0.254756 0.806378
0.0462172 0.0641302 -0.0809187 -0.814718 -0.381051 -0.437076
-0.0122825 0.15504 -0.0575647 -0.786817 -0.396702 -0.472808
0.0162113 -0.117068 0.163075 0.828383 0.405018 0.386966
-0.0168355 0.0429043 -0.21785 -0.290323 -0.379392 0.878507
-0.0260284 -0.00628638 0.122787 -0.797206 -0.415804 -0.437686
0.0154957 0.115157 -0.0574618 0.81349 0.421125 0.401108
-0.0867821 0.100282 -0.189717 -0.0659593 -0.702745 0.708378
0.0271554 0.270442 0.0824294 0.786935 0.44386 0.428628
0.303322 -0.297115 0.0320464 0.37978 0.238859 -0.893708
0.158525 -0.189381 -0.0520779 0.594753 -0.75734 -0.26964
-0.0721789 0.188145 0.0360881 0.812508 0.409954 0.41445
0.345716 -0.353561 -0.0137059 -0.348363 0.911643 -0.21806
0.0862706 -0.134166 0.0298385 -0.821576 -0.374459 -0.429876
-0.215178 0.234585 0.244861 -0.965808 0.197652 0.167778
-0.13748 0.27963 0.0832684 0.313391 0.369805 -0.87466
0.287148 0.0589368 -0.204172 0.803763 0.410993 0.430174
0.169511 -0.138675 0.071334 -0.351416 0.924656 -0.146687
-0.244233 -0.06448 0.153174 -0.869251 -0.272527 0.412471
-0.0153509 0.172783 0.166324 0.58124 -0.605451 -0.543682
0.0686362 -0.114823 0.0484362 -0.810858 -0.422626 -0.404841
-0.0378458 0.280197 0.19522 0.84153 0.338437 0.421055
-0.0134625 -0.295196 -0.0344685 -0.141591 -0.969039 -0.202275
0.250666 -0.128753 0.0393384 0.796451 0.422244 0.43287
0.198391 0.134552 -0.109784 -0.363468 -0.297139 0.882949
-0.131207 0.214295 0.0189498 -0.496829 0.862553 0.0957283
-0.000723356 -0.211784 0.133427 0.0960261 -0.804683 0.585887
0.155955 0.404491 -0.281806 0.790181 0.354057 0.500257
-0.0847134 0.123408 0.124401 0.794825 0.402527 0.454119
0.0738338 0.471363 -0.215769 -0.130286 0.824025 -0.551369
0.0498098 -0.124067 0.0961858 -0.793468 -0.443243 -0.417066
-0.041735 0.0137453 0.459939 0.764486 0.398169 0.506975
0.251117 0.0691333 -0.160933 -0.0100203 0.708359 -0.705781
0.0418232 0.107128 -0.113068 -0.821537 -0.427979 -0.376711
0.128637 -0.343741 0.0869647 -0.239775 -0.967199 -0.0838653
-0.0998606 0.0894307 -0.200788 -0.00923222 -0.696629 0.717372
0.212684 0.124828 -0.120838 0.822225 0.365281 0.436482
-0.0292797 0.236381 -0.100565 -0.540839 0.820092 0.186928
0.0789539 -0.257963 0.424135 0.107366 0.622652 -0.775098
0.295427 -0.0245226 -0.136805 0.816059 0.372296 0.442091
0.146709 -0.316373 0.366071 -0.111724 0.780343 -0.61529
-0.0557626 0.249653 0.000362285 -0.364591 0.917525 -0.158813
-0.144686 0.276153 0.293805 0.0527752 -0.736443 0.674438
0.177898 0.387707 -0.311132 0.804694 0.40854 0.430771
-0.0117046 -0.0364915 0.129482 -0.824804 -0.402457 -0.397148
-0.115607 0.116765 -0.169536 0.0652138 -0.798727 0.598149
-0.12934 -0.0431319 0.249296 -0.438087 0.897619 -0.0485847
-0.00965432 0.156515 0.189975 0.593697 -0.506777 -0.625061
0.192992 -0.129929 0.0801821 -0.392618 0.910615 -0.128962
-0.0364684 -0.0408533 -0.28374 -0.805661 -0.415281 -0.422435
0.258473 0.0376773 -0.260875 -0.34216 0.908812 -0.23872
-0.0339326 0.270342 0.103563 -0.0805831 0.809262 -0.581894
-0.175743 0.0744336 0.0980765 0.563902 -0.439677 -0.69907
0.296909 -0.354916 0.173293 0.815883 0.401543 0.416049
0.422176 -0.114593 -0.285996 0.798644 0.397173 0.45213
-0.0761999 -0.149658 0.372961 -0.717937 -0.561858 0.410954
-0.165711 0.282279 0.298467 0.0312816 -0.753813 0.656344
0.167379 0.16176 -0.159407 0.256456 0.421038 -0.870033
-0.221093 0.262055 0.10629 -0.94465 0.328053 -0.00426033
0.0756136 0.209968 -0.0762077 0.0958053 -0.808926 0.580052
0.34668 -0.349747 0.0033249 -0.274807 0.900789 -0.336244
0.0232214 -0.140877 0.344971 0.547092 -0.770351 -0.327491
0.0424225 -0.149929 0.0633003 -0.307957 0.884948 -0.349327
-0.141578 -0.215878 0.0758885 -0.788166 -0.454077 -0.415462
0.0988413 -0.116336 -0.00926133 -0.80896 -0.429453 -0.40144
0.0216613 -0.0327501 0.0590788 -0.767985 -0.449866 -0.455873
0.0190659 0.0560001 0.243168 0.476505 -0.028066 -0.878724
-0.111485 0.380107 0.237825 0.815306 0.384128 0.433268
-0.0847686 0.271279 0.286669 0.0206403 -0.750728 0.660289
-0.0329297 -0.143613 0.207278 0.249616 -0.852329 0.459594
-0.112219 0.200791 -0.153354 -0.655761 0.630008 0.416015
