ply
format ascii 1.0
comment Created by Open3D
element vertex 128
property double x
property double y
property double z
property double nx
property double ny
property double nz
end_header
-0.025681 0.368321 0.13166 -0.370171 0.864355 0.340388
0.0473201 0.44917 0.0126964 -0.00488345 0.999811 0.0187931
0.0262702 0.296809 0.125228 0.870262 -0.129871 0.475161
-0.0653956 0.181658 0.104187 -0.497913 -0.486429 0.717962
-0.143031 -0.235612 0.113203 -0.848231 0.199649 -0.490556
0.124421 0.418859 -0.0322251 0.791244 -0.199949 0.577887
-0.0735125 0.000622102 0.0757338 0.364476 -0.347368 -0.863998
0.122686 -0.0491966 -0.138087 0.859452 -0.155132 0.487109
-0.0294646 -0.0837766 0.148628 0.839476 -0.152445 0.521576
0.108875 0.123167 -0.257944 -0.117539 -0.82112 -0.558522
0.228331 0.22408 -0.281028 0.870445 -0.18198 0.457393
0.0808647 0.276844 -0.20297 -0.831312 0.134022 -0.539405
-0.0244478 -0.357752 0.0930797 0.88118 -0.143854 0.450364
-0.0963964 -0.438008 0.202546 0.985987 0.00731052 0.166662
-0.0621995 -0.18561 -0.019075 -0.379572 -0.744742 0.548893
-0.00600792 -0.103628 -0.106269 -0.232763 0.63802 0.733997
0.211665 0.228372 -0.270116 -0.862127 0.106478 -0.495378
-0.177557 -0.38178 0.147676 -0.734311 -0.090004 0.67282
-0.0337705 0.361482 0.117033 -0.0755669 -0.939492 -0.334133
0.0806422 0.346259 0.0358545 -0.190717 -0.950573 0.245025
-0.00675775 0.395347 0.00528752 0.402711 -0.215009 -0.889716
-0.069962 -0.433115 0.110686 0.304179 -0.483993 -0.820504
0.132897 0.287669 -0.119229 -0.344407 0.526437 0.777333
0.113416 0.379274 -0.220064 0.154023 0.698397 -0.698941
0.165079 0.395732 -0.123407 0.116506 -0.985497 -0.123374
-0.067749 -0.445837 0.121479 0.0719272 -0.952761 -0.295082
0.0923677 0.26314 -0.202742 0.0578334 0.886141 -0.459793
0.198802 0.0750006 -0.279294 0.961925 -0.0181887 0.272706
-0.1066 -0.348852 0.0369387 -0.189682 0.780623 0.595524
-0.0211487 0.312143 0.196874 -0.304992 -0.520044 0.797831
0.0497452 0.0876825 -0.199207 -0.179518 -0.893904 -0.410741
0.0415648 0.281192 0.112829 0.793954 -0.14338 0.59083
-0.0960261 -0.267339 0.0188635 -0.143174 0.898202 0.415613
-0.0445958 0.00211408 0.199999 -0.437795 0.406531 0.801915
-0.143171 -0.312414 0.127809 -0.436358 0.26374 0.860252
0.168129 0.189724 -0.218585 -0.243153 0.305519 0.920616
-0.0905277 -0.114903 0.122009 -0.393182 -0.87108 0.294327
-0.0794226 -0.136822 0.213312 -0.380987 0.787776 0.484002
0.140114 0.459402 -0.0720494 -0.919536 0.0975165 -0.380715
-0.0557649 0.0746885 0.0655856 0.403598 0.160025 -0.900833
0.191556 0.288389 -0.186539 0.927105 -0.0642767 0.369249
-0.00674433 -0.34987 0.00733409 0.126552 -0.908741 -0.397711
0.171414 0.019796 -0.215667 0.950324 0.0207779 0.310568
0.0565648 0.404927 0.104779 0.248486 0.954728 -0.163549
0.053833 0.389276 0.0966538 0.18001 0.983653 -0.0048724
0.159886 0.110577 -0.197028 -0.188017 0.750708 0.633314
0.16451 0.182475 -0.213146 -0.611683 -0.552092 0.566603
0.0397771 -0.237968 -0.0278524 0.686921 0.43217 -0.584267
0.0592812 -0.082671 -0.0647373 0.0478296 -0.556527 -0.829452
-0.106845 -0.266994 0.0339824 -0.0536336 -0.618402 -0.784029
0.127184 0.320408 -0.0666141 -0.456175 -0.432166 0.777905
0.0855752 0.0136278 -0.203546 -0.15969 -0.815225 -0.556693
-0.0830981 -0.362923 0.182011 0.406546 -0.457644 -0.790748
-0.159112 -0.18418 0.172848 -0.78109 0.172933 0.599994
0.124154 0.311074 -0.265054 -0.101626 -0.994438 -0.0276552
-0.116124 -0.017202 0.109145 0.0575453 0.37132 -0.92672
0.135551 0.0954827 -0.151061 -0.0442451 0.937225 0.345908
0.123584 0.306645 -0.142483 -0.388892 0.237515 0.89014
0.12991 -0.0507431 -0.146205 0.755216 -0.18984 0.627383
-0.0982274 -0.285352 0.253853 0.930142 -0.321624 0.177185
0.128902 0.434786 -0.0507386 0.0206537 0.661176 -0.749946
0.0385317 0.185093 0.0703121 0.409993 0.275932 -0.869348
-0.0700434 -0.367292 0.180935 0.393597 -0.666221 -0.633428
0.0403155 0.411587 -0.0745712 0.292496 -0.394225 -0.871225
0.0141299 -0.0134888 -0.130018 0.0118535 -0.865954 -0.499983
-0.0319823 -0.0873269 0.142821 0.299867 -0.67306 -0.67607
0.194812 0.410776 -0.205381 -0.743659 0.232374 -0.626875
0.104832 0.47865 0.0386214 0.759231 -0.302071 0.576473
0.130089 0.145976 -0.34055 -0.676819 -0.0586543 -0.733809
-0.0769921 0.154 0.0829597 -0.449493 -0.591758 0.669163
-0.0239996 -0.172857 -0.00904911 -0.177758 0.834437 0.521648
0.101052 0.400397 -0.186962 -0.260937 -0.748616 0.609497
-0.043783 0.281142 0.0891059 -0.533721 -0.705359 0.466488
-0.012304 -0.104506 -0.107619 -0.243108 0.648799 0.721082
0.0184623 -0.041123 -0.152533 -0.115415 -0.313243 -0.942634
-0.117684 -0.418938 0.218281 -0.109565 -0.554786 0.824747
-0.0667532 -0.0263134 0.0892661 -0.577419 0.41814 0.701246
-0.063855 -0.205756 0.154741 0.406681 0.258634 -0.876196
0.0243505 -0.318239 -0.0161388 0.812169 -0.187531 0.552462
-0.12146 -0.100652 0.126982 -0.601358 0.45111 0.659446
0.182858 0.448309 -0.137695 0.0365145 0.992314 -0.118234
-0.0643733 -0.284787 -0.0327234 -0.0437972 -0.390865 -0.919405
0.0915178 0.474538 0.0593046 0.959996 0.227781 0.162863
0.0764486 -0.145914 -0.0731067 0.646676 -0.261339 0.716598
0.159943 0.168777 -0.327515 0.357587 0.436885 -0.825387
-0.0293876 0.0874405 0.179963 -0.377706 0.525225 0.762546
0.12259 -0.0524464 -0.125105 0.0598326 -0.929613 -0.363647
-0.0408317 0.212385 0.0377314 0.579618 0.0338838 -0.814184
-0.0772245 -0.126314 0.234286 -0.109093 0.857709 0.502428
0.20009 0.23798 -0.280568 0.120283 -0.632262 -0.765361
-0.115051 -0.284438 0.237965 -0.910596 -0.123424 -0.394439
0.131088 0.297568 -0.304171 0.0979586 0.736673 -0.669116
-0.00317285 -0.293375 0.055806 0.923057 -0.136223 0.359734
-0.00760359 0.376113 0.0167252 -0.609662 0.323855 0.723485
0.243326 0.327899 -0.286856 0.966789 -0.0540124 0.249805
-0.0243683 -0.259017 -0.042817 -0.217091 0.266106 -0.93918
0.0064918 -0.184162 0.00857503 -0.104074 0.879827 0.463761
0.0917864 0.419133 -0.153059 -0.161307 0.975224 -0.151387
-0.152382 -0.300081 0.173472 0.497539 0.0123648 -0.867354
0.243383 0.151298 -0.327406 0.834311 -0.130561 0.53561
-0.0765738 0.0654973 0.112321 0.280253 -0.263582 -0.923029
0.198225 0.283404 -0.195105 0.961537 0.0303037 0.273
0.197224 0.0460912 -0.286768 0.0453163 -0.967724 -0.247906
-0.1669 -0.402787 0.130338 0.300308 0.870181 -0.39064
-0.131185 -0.206045 0.209109 -0.634141 -0.101592 0.766514
-0.173319 -0.404786 0.137057 -0.357613 -0.927522 -0.108703
0.0015439 0.223782 0.151537 -0.688094 -0.103871 -0.718148
0.173101 -0.00787134 -0.208275 0.952029 -0.0812563 0.295022
0.235223 0.329387 -0.258655 0.848101 -0.12058 0.515931
0.0368559 0.0521043 -0.183878 -0.246971 0.405565 0.88007
-0.110779 -0.378546 0.0618 -0.102274 -0.739031 -0.665863
0.19961 0.0937514 -0.271007 0.0581167 0.989149 0.134931
0.00635871 0.372826 0.0179438 0.389341 -8.26501e-05 -0.921094
0.0414016 -0.0942394 -0.0334148 -0.347328 0.461468 0.81634
-0.00643246 0.0364003 0.136114 0.837687 -0.151763 0.524641
-0.0321593 0.299627 0.0600407 0.322791 0.384358 -0.864913
0.014943 0.126021 0.124977 0.922363 -0.0386426 0.384386
-0.0425701 -0.363017 0.101545 0.935994 0.0176625 0.351574
0.00905161 0.106099 0.103839 0.614377 0.114127 -0.780715
-0.0796283 -0.124749 0.222404 -0.410056 -0.185721 0.892951
0.0249568 0.331707 -0.0594966 -0.454011 -0.838838 0.300374
0.120903 0.236753 -0.283161 -0.033868 -0.359231 -0.932634
-0.0699103 -0.281076 0.175447 0.852372 -0.177925 0.491737
0.0531651 -0.169126 -0.0774173 -0.861876 0.156319 -0.482426
-0.0193795 0.183124 0.177714 -0.624502 0.31352 0.715334
0.132708 0.326218 -0.0621475 0.829614 -0.175807 0.529936
0.0306245 0.410334 -0.0783599 0.285264 -0.581682 -0.761755
0.089992 0.1088 -0.250115 0.300388 0.94423 -0.134895
