ply
format ascii 1.0
comment Created by Open3D
element vertex 128
property double x
property double y
property double z
property double nx
property double ny
property double nz
end_header
-0.24457 -0.116325 0.28171 -0.691358 -0.63033 0.353139
-0.451511 -0.190251 0.0855363 -0.951448 -0.255399 0.171808
-0.354971 -0.0787095 0.238046 0.563114 -0.407693 0.718811
0.229447 -0.111567 -0.00455204 -0.797101 -0.506353 0.328994
0.101742 0.150715 -0.28884 -0.534679 0.10231 -0.838839
-0.472024 0.0962719 -0.062955 0.45499 0.740997 -0.49387
-0.289441 -0.0128246 0.324755 -0.755571 -0.545838 0.362177
-0.0282721 0.242394 -0.11503 -0.246923 0.636132 -0.731002
0.309336 -0.0417269 -0.147146 -0.721651 -0.597363 0.349826
-0.213834 -0.0421944 -0.142155 -0.330988 0.162585 -0.929523
-0.304858 0.0725262 0.275183 0.598758 0.734439 -0.319513
-0.442544 -0.0348002 -0.17887 0.830354 0.502534 -0.240774
-0.00800142 0.2484 0.00907253 -0.551344 0.746069 0.373364
-0.366601 -0.0115697 -0.000630921 0.912793 0.0254212 -0.40763
-0.397923 -0.275213 0.127561 -0.847617 -0.528815 0.0435813
0.513071 0.11509 -0.109905 0.907297 0.289101 -0.30534
-0.314834 -0.277602 -0.265927 -0.693275 -0.604335 -0.392617
-0.403353 -0.195006 0.197861 0.53156 -0.43578 0.726319
-0.0556212 0.184628 0.118201 -0.258576 0.857043 0.445664
0.397605 0.177005 -0.299447 0.73979 0.573737 -0.351477
-0.283524 -0.16513 0.110917 -0.873863 -0.352876 0.334427
0.395822 0.00730879 -0.10309 0.552676 -0.808828 0.200863
0.167749 -0.0882777 0.116417 0.639305 -0.574277 0.511366
-0.428295 0.171829 0.157305 0.912903 0.277599 -0.299245
-0.355716 -0.133806 -0.118867 0.868483 0.297858 -0.396254
-0.0407324 -0.310068 0.272703 0.660946 0.733283 -0.159516
0.0567666 -0.116208 0.195311 0.558871 -0.313146 0.767856
-0.263841 -0.0758357 0.425076 -0.463061 -0.15189 0.873215
-0.376876 -0.158719 -0.2483 0.774443 0.525572 -0.352153
-0.223722 -0.201323 0.206417 -0.516818 0.342396 -0.784643
-0.420965 0.0101367 0.263956 -0.743773 -0.0541635 0.666234
0.206562 0.368896 -0.275629 -0.429441 0.609008 -0.666851
0.0441148 0.236638 -0.206311 -0.604885 0.510871 -0.610839
-0.44987 -0.221229 -0.00596572 -0.906675 -0.399172 0.13639
0.409625 0.0794632 0.00584382 0.691522 -0.55246 0.465387
-0.171602 0.146773 0.0351707 -0.503436 0.858923 -0.0938285
0.277333 0.296848 -0.369976 0.838897 0.437345 -0.324009
-0.248285 -0.367227 -0.230239 -0.320409 -0.886449 -0.333985
-0.259667 -0.402782 0.106007 -0.529316 0.425106 -0.734241
-0.0731271 -0.313104 0.186182 0.831246 0.421057 -0.362962
-0.298451 -0.17694 0.364141 -0.686117 -0.239461 0.686951
0.267965 0.155587 -0.348181 -0.420286 -0.166074 -0.892065
-0.171912 0.00380011 0.258231 0.00759231 0.608884 0.793223
0.431646 0.270668 -0.079682 0.697829 0.615945 -0.365578
0.295011 0.404862 -0.165872 0.78838 0.490474 -0.37134
0.00324521 -0.48336 0.123748 0.454041 0.512382 -0.728912
0.429528 0.195321 -0.17871 0.850602 0.404635 -0.335777
-0.491396 -0.0775283 -0.00541515 -0.924028 -0.317672 0.212735
0.0453039 0.300849 -0.0824044 -0.458643 0.811706 -0.361636
-0.105335 -0.485899 -0.0708126 -0.259375 -0.960422 -0.101556
-0.0419544 -0.305594 0.396674 -0.113224 -0.575493 0.809931
-0.151662 -0.248663 -0.0919318 0.0217281 -0.406803 -0.913257
0.317502 0.0646221 0.0726213 -0.760787 -0.542509 0.356212
0.207253 0.307109 0.0521502 -0.189819 0.601349 0.776111
0.18756 0.398219 -0.133901 -0.447587 0.894201 0.00841473
-0.296919 -0.262803 0.064312 0.61605 -0.422583 0.66476
0.372768 0.0532511 -0.283335 0.10094 -0.88568 -0.453191
0.353024 0.354411 -0.117905 0.830251 0.303917 -0.467246
-0.0120843 0.00258588 -0.229501 0.774535 0.507196 -0.377953
-0.145298 -0.444882 0.144592 -0.335736 -0.883836 0.325754
-0.195068 -0.425401 -0.154138 -0.296958 -0.838835 -0.456258
-0.195889 -0.27314 0.121587 -0.720985 -0.598875 0.348612
0.509872 0.202917 -0.010471 0.571607 0.681072 -0.45761
-0.0520084 -0.113643 -0.186249 -0.264612 -0.283844 -0.921636
0.118887 0.331757 -0.190658 -0.584391 -0.597695 0.548861
-0.138876 0.0590743 -0.158639 -0.626533 0.348602 -0.697089
-0.0303282 -0.499953 0.0182703 0.0494515 -0.99876 -0.00568947
0.318008 0.307271 0.0542363 -0.923115 -0.162526 0.348488
-0.0949826 -0.343961 0.0837722 0.808419 0.491349 -0.324091
0.372838 0.264467 -0.214958 0.837184 0.43248 -0.33479
0.108261 0.0127125 0.195729 0.320647 -0.0387503 0.946406
-0.218185 -0.395771 0.217215 -0.700722 -0.570489 0.428404
0.0488607 -0.225887 0.101347 -0.696198 -0.609655 0.378984
-0.105431 -0.0347347 -0.198635 -0.243074 -0.105599 -0.964243
-0.119036 0.174497 -0.0566017 -0.621778 0.742734 -0.248474
-0.345267 0.0338583 0.102764 -0.597419 0.793172 0.118185
-0.205279 0.0969749 0.15222 -0.369825 0.903156 0.218035
-0.14099 -0.106825 0.305035 0.348975 0.182691 0.919152
0.271809 0.189918 0.115818 0.411569 0.160612 0.897115
0.0767853 0.230162 0.0941125 -0.17455 0.685705 0.706641
0.0943197 -0.0395128 -0.230535 -0.0645109 -0.606712 -0.7923
0.0551453 -0.212773 -0.0592068 0.375773 -0.891452 -0.253196
-0.277002 0.0586864 0.0245025 -0.643299 0.750081 -0.153441
-0.232996 -0.302814 -0.142348 0.829487 0.470549 -0.300891
-0.178858 -0.197294 0.414521 -0.471359 -0.334831 0.81591
-0.485549 -0.0487437 0.0879859 -0.963744 0.187083 0.190254
-0.294195 -0.208247 -0.12683 0.839994 0.393428 -0.373664
-0.124562 -0.393714 0.277605 -0.267275 -0.789045 0.553148
-0.0148671 -0.215291 0.185754 0.727354 -0.475883 0.494461
-0.0608228 -0.295844 -0.0124862 0.516054 -0.673957 -0.52865
0.37902 0.188614 0.060675 -0.304688 -0.0612301 0.950482
0.197012 -0.083261 -0.173251 0.246814 -0.728268 -0.639304
0.0521926 0.117604 0.178397 0.0924203 0.507269 0.856818
-0.261082 -0.414409 -0.0699242 -0.552587 -0.797976 0.240586
-0.34775 -0.352264 0.0361018 -0.688107 -0.710422 0.147684
-0.465167 0.0454528 0.146245 -0.916082 0.082097 0.392496
-0.228322 -0.32739 -0.0118502 -0.749156 -0.555675 0.360543
0.307274 -0.0264696 0.0135994 0.86773 -0.496596 -0.0208957
-0.303424 -0.250532 0.248434 -0.526233 0.442888 -0.725899
-0.426801 -0.20646 -0.142146 -0.821607 -0.470711 -0.321548
-0.457559 -0.110463 0.177935 -0.957295 -0.154937 0.244092
-0.222284 0.0728551 -0.0678986 -0.584011 0.604332 -0.541954
0.13717 -0.140137 -0.103012 0.893307 0.433498 -0.118664
0.179645 0.371152 -0.0305738 -0.254621 0.964367 0.0718693
0.425052 0.330997 0.00429111 0.622336 0.714677 -0.319272
-0.361728 -0.325808 -0.0874956 -0.796354 -0.603468 0.040577
-0.474637 0.134636 0.0633578 -0.964777 0.245974 0.0932887
0.209243 -0.0114922 -0.256822 -0.0757367 -0.482673 -0.87252
-0.127249 -0.0823827 0.426195 0.632088 0.593995 -0.497629
0.0250435 -0.440828 0.238429 0.790013 0.513618 -0.334777
-0.19012 -0.168728 -0.141623 -0.339812 -0.32592 -0.882215
-0.0530292 -0.172834 0.451711 0.89429 0.447438 -0.00669859
-0.245284 0.0783637 0.394714 0.745423 0.564288 -0.354857
-0.110245 0.0946883 0.183789 0.862061 0.44721 -0.23844
-0.180765 0.00666715 0.47121 -0.406583 0.163208 0.898918
0.160897 0.14335 0.150105 0.215127 0.177413 0.960336
0.217694 0.0523944 0.138891 0.395175 -0.0928608 0.9139
-0.378688 0.166684 0.258338 0.924985 0.11532 -0.362082
-0.00394542 0.123133 -0.226018 -0.408645 -0.00332718 -0.912687
0.191857 0.102506 -0.310335 -0.143007 -0.376321 -0.915386
-0.089278 -0.224238 0.306938 0.684356 0.686529 -0.245632
-0.234001 -0.302921 0.315401 -0.540665 -0.588573 0.601052
0.452584 0.051381 -0.205149 0.464139 -0.87469 -0.139615
-0.473156 -0.0895845 -0.111333 -0.905937 -0.0795528 -0.415871
-0.0283299 -0.202052 -0.127003 0.259505 -0.566854 -0.781878
0.292512 0.40542 -0.0289043 -0.248012 0.8115 0.529111
-0.187555 -0.452925 0.0154295 -0.795832 0.26549 -0.544212
-0.0417144 -0.0283432 0.258502 0.681734 0.650636 -0.334531
