ply
format ascii 1.0
comment Created by Open3D
element vertex 849
property double x
property double y
property double z
property double nx
property double ny
property double nz
end_header
0.0668594 0.137953 0.0114313 0.454188 0.113072 -0.883701
-0.239304 0.0760463 -0.449601 0.200831 -0.370104 0.907023
0.359715 0.202578 0.105061 0.674584 -0.619138 -0.402
-0.0607971 0.0122441 0.0656876 -0.674584 0.619138 0.402
0.00773844 -0.243523 0.206877 -0.0682825 -0.594569 0.80114
-0.371953 -0.037432 -0.467788 -0.735033 -0.512987 -0.443363
0.337622 0.163816 0.127687 0.674584 -0.619138 -0.402
0.392585 0.37222 0.0462213 0.735033 0.512987 0.443363
-0.00321823 -0.241449 0.382233 -0.0682827 -0.594569 0.80114
0.0606391 0.0273134 0.246257 -0.674584 0.619138 0.402
0.391399 0.26941 0.0552977 0.674566 -0.619151 -0.402011
-0.124302 -0.0817742 0.0238011 0.215164 -0.796589 0.564934
0.0804896 0.207879 -0.371664 0.674583 -0.619145 -0.401991
-0.272991 -0.249075 -0.105039 0.735033 0.512987 0.443363
-0.292605 0.0128364 -0.324214 -0.674584 0.619138 0.402
-0.0555939 -0.117595 0.106143 0.0682825 0.594569 -0.80114
0.289359 0.205059 0.356313 -0.674584 0.619138 0.402
0.273142 0.229481 0.12746 -0.735033 -0.512987 -0.443363
-0.322098 -0.455541 -0.025471 0.674584 -0.619138 -0.402
-0.335232 -0.259128 -0.270911 -0.719366 -0.67357 -0.169753
0.258594 0.428177 -0.221886 0.0682826 0.594569 -0.80114
-0.0615986 0.0653828 -0.0796877 0.674584 -0.619138 -0.402
-0.258613 -0.422157 0.0296441 0.674584 -0.619138 -0.402
0.0501369 0.241719 -0.101582 -0.674584 0.619138 0.402
0.211153 -0.0027931 0.545198 -0.674584 0.619138 0.401999
-0.306908 -0.18492 -0.0436434 -0.674584 0.619138 0.402
-0.100642 0.0925833 -0.124909 -0.674584 0.619138 0.402
-0.041181 -0.192535 0.173661 0.0442998 -0.804029 -0.592937
0.0134807 -0.1848 0.120673 0.674584 -0.619138 -0.402
-0.346357 -0.0303572 -0.347891 -0.674584 0.619138 0.402
-0.330634 -0.137305 -0.420733 -0.735033 -0.512987 -0.443363
0.331894 0.355827 0.165807 0.735033 0.512987 0.443363
0.222972 0.392416 -0.105836 0.674583 -0.619138 -0.402002
0.379464 0.514242 -0.0963487 0.735033 0.512987 0.443363
-0.00924418 0.229936 -0.245269 0.674584 -0.619138 -0.402
-0.341683 0.0512786 -0.502306 0.341415 -0.221152 0.913525
-0.179106 -0.102472 0.0438359 -0.674584 0.619138 0.402
-0.323141 -0.0663841 -0.253446 -0.674584 0.619138 0.402
0.0550116 -0.196442 0.350386 0.068275 0.594573 -0.801137
0.255785 -0.0817388 0.443031 -0.302882 0.264479 -0.915594
0.0642848 0.14064 -0.277093 0.0682826 0.594569 -0.80114
-0.205926 -0.0650281 -0.431974 0.674585 -0.619138 -0.402
0.337545 0.0972157 0.455661 0.735033 0.512987 0.443363
0.232418 -0.099684 0.507528 -0.0682824 -0.594569 0.80114
-0.348088 -0.438818 0.139793 -0.716646 -0.418642 -0.557814
-0.118801 0.142549 -0.294525 0.674584 -0.619138 -0.402
-0.0925348 0.0529872 -0.189834 -0.735033 -0.512987 -0.443363
-0.165687 -0.244113 0.222314 0.674584 -0.619138 -0.402
0.0734703 0.185539 -0.0380911 0.674584 -0.619138 -0.402
0.340876 0.211009 0.318476 0.735033 0.512987 0.443363
-0.00460991 0.0700982 0.0708701 -0.674584 0.619138 0.402
0.0322902 -0.232705 0.322398 0.392546 0.722231 0.569464
0.000111108 -0.040756 -0.123611 0.674584 -0.619138 -0.402
0.192905 0.260215 0.0473175 0.674584 -0.619138 -0.402
-0.171624 -0.0212007 -0.0687777 -0.674584 0.619138 0.402
-0.0297657 -0.205423 0.406707 -0.0682826 -0.594569 0.80114
-0.0820744 -0.241936 0.13406 -0.735033 -0.512987 -0.443363
-0.101011 -0.378897 0.27189 -0.0682821 -0.594569 0.80114
-0.147024 0.117231 -0.302893 0.674584 -0.619138 -0.402
0.0637926 0.114998 -0.12192 0.971426 -0.222582 -0.0823937
0.0510515 -0.0714846 0.320143 0.674584 -0.619138 -0.402
0.274156 0.394479 -0.0651303 -0.735033 -0.512987 -0.443363
-0.040234 -0.148534 0.347816 -0.674584 0.619138 0.402
0.088203 0.201202 -0.348437 0.674584 -0.619138 -0.402
0.0910954 0.0577127 0.250546 -0.674584 0.619138 0.402
0.151316 0.418848 -0.237953 0.0682823 0.594569 -0.80114
0.11891 0.156349 0.0831183 0.674585 -0.619138 -0.402
0.0198873 0.330082 -0.315033 0.0682823 0.594569 -0.80114
0.271718 0.221422 0.301508 -0.674584 0.619138 0.402
-0.0605713 0.0873522 -0.1118 0.674584 -0.619138 -0.402
-0.0954872 0.190135 -0.266503 -0.674584 0.619138 0.402
-0.259536 -0.301529 -0.0666537 0.735033 0.512987 0.443363
-0.167827 -0.429823 0.193796 0.674584 -0.619138 -0.401999
-0.171175 0.200201 -0.409017 -0.674584 0.619138 0.402
0.326913 0.17838 0.0974411 -0.735033 -0.512987 -0.443363
-0.34251 -0.127799 -0.19136 -0.674584 0.619138 0.402
-0.36154 -0.170742 -0.157155 -0.674584 0.619138 0.402
0.304924 -0.0360671 0.560921 -0.0682824 -0.594569 0.80114
-0.171297 0.12101 -0.287255 -0.674584 0.619138 0.402
-0.181431 0.0289175 -0.535559 0.674584 -0.619138 -0.402
0.123268 0.152204 0.0968143 0.674585 -0.619138 -0.402
0.305331 0.439229 0.0224582 -0.674584 0.619138 0.402
0.301411 -0.0513817 0.549256 -0.0682824 -0.594569 0.80114
-0.00825034 0.0803011 -0.193994 -0.0551659 -0.799535 -0.59808
-0.222781 -0.165177 -0.0883516 0.674584 -0.619138 -0.402
-0.311009 -0.144926 -0.112122 -0.674584 0.619138 0.402
0.0044069 0.279673 -0.236776 -0.674584 0.619138 0.402
-0.329414 -0.256499 0.0288316 -0.674584 0.619138 0.402
0.381902 0.402922 0.0284096 0.735033 0.512987 0.443363
-0.266023 0.101307 -0.509188 0.0682824 0.594569 -0.80114
0.0774817 0.106851 0.089832 0.674584 -0.619138 -0.402
0.0170761 0.189537 -0.363242 -0.997206 0.0650631 -0.0367068
0.0986171 0.233856 -0.00811863 -0.674584 0.619138 0.402
0.317624 0.0111624 0.586644 0.676541 0.300652 0.672236
-0.0715164 -0.186543 0.0536159 0.0682825 0.594569 -0.80114
-0.326007 -0.501506 0.161719 -0.0682826 -0.594569 0.80114
0.16955 0.136141 0.261407 -0.674584 0.619138 0.402
-0.0826469 0.00952543 0.0332093 -0.674584 0.619138 0.402
0.249626 0.0408487 0.384699 -0.735033 -0.512987 -0.443363
-0.272164 -0.463668 0.0708375 0.674584 -0.619138 -0.402
0.30561 0.454879 -0.00117668 -0.674584 0.619138 0.402
-0.123366 -0.0574773 0.0680745 -0.674584 0.619138 0.402
0.0426979 -0.11624 0.203087 0.472349 -0.726576 -0.498972
0.0999138 0.141189 -0.174168 0.674584 -0.619138 -0.402
0.0971909 0.105827 -0.00163822 0.735033 0.512987 0.443363
0.220054 0.251908 0.105668 0.674584 -0.619138 -0.402
-0.0942323 -0.222689 0.371413 -0.674584 0.619139 0.401999
-0.140533 0.224167 -0.394506 -0.674584 0.619138 0.402
-0.335477 -0.37217 -0.140958 -0.735033 -0.512987 -0.443363
-0.124755 0.119983 -0.207572 -0.674584 0.619138 0.402
-0.270776 -0.119039 -0.457612 0.674566 -0.619149 -0.402014
0.0376573 0.212829 -0.330326 -0.068254 -0.5946 0.801119
0.0829125 -0.246301 0.331906 0.674584 -0.619142 -0.401994
0.0699582 0.0894064 0.104074 0.674584 -0.619138 -0.402
0.136239 0.291422 -0.0958355 0.674584 -0.619138 -0.402
-0.345064 -0.0859031 -0.456284 -0.735033 -0.512987 -0.443363
0.414399 0.23626 0.144949 0.674584 -0.619138 -0.402
0.212054 0.246969 0.0998511 0.674584 -0.619138 -0.402
0.169581 0.101065 0.31548 -0.674584 0.619138 0.402
0.320522 0.51649 -0.0710438 -0.674585 0.619138 0.401999
-0.00309265 -0.228349 0.159934 0.674584 -0.619138 -0.401999
0.0865526 0.241732 -0.316713 0.437773 0.703721 0.559581
0.156876 0.402322 -0.249744 0.0682823 0.594569 -0.80114
-0.287689 -0.331731 0.0149653 0.735033 0.512987 0.443363
0.0804639 0.277008 -0.349259 0.0682654 0.594595 -0.801122
-0.105655 0.182262 -0.333628 0.674584 -0.619138 -0.402
0.171396 -0.146825 0.397129 0.0682826 0.594569 -0.80114
0.31609 0.40044 0.100253 -0.674584 0.619138 0.402
0.271816 0.00168967 0.50124 0.51918 0.0107938 0.854597
-0.0298923 -0.220394 0.395585 -0.0682756 -0.594571 0.801139
-0.22553 -0.380396 0.189952 0.0682825 0.594569 -0.80114
-0.421491 -0.292804 -0.069763 -0.674584 0.619138 0.402
0.242419 0.0195115 0.521184 0.695452 0.350401 0.627349
-0.31543 -0.414113 0.227479 -0.0682827 -0.594569 0.80114
0.0282757 -0.185062 0.188823 0.0682825 0.594569 -0.80114
0.154124 0.142717 -0.138708 0.735033 0.512987 0.443363
0.286861 0.329926 0.159806 -0.674584 0.619138 0.402
-0.32968 -0.507725 0.15679 -0.0682826 -0.594569 0.80114
0.265544 0.322962 0.0318953 -0.735033 -0.512987 -0.443363
0.148719 0.298756 -0.0861883 0.674587 -0.619138 -0.401995
0.297042 0.0724738 0.2695 -0.735033 -0.512987 -0.443363
-0.208293 -0.211082 0.162133 -0.674584 0.619138 0.402
-0.155428 -0.00598636 -0.1583 0.742535 0.506027 0.438837
0.146868 0.274968 -0.2749 -0.0682825 -0.594569 0.80114
0.0727352 0.00557376 -0.0730969 0.674584 -0.619138 -0.402
0.0686653 -0.0347187 0.0112914 0.0682826 0.594569 -0.80114
-0.285626 -0.317371 0.196065 -0.674584 0.619138 0.402
-0.123605 -0.211946 0.243388 0.674584 -0.619138 -0.402
-0.250715 -0.416596 0.0343332 0.674584 -0.619138 -0.402
-0.00658749 -0.0455049 0.0592835 -0.0682826 -0.594569 0.80114
-0.124606 -0.0622134 0.0732865 -0.674584 0.619138 0.402
-0.271065 -0.150947 -0.408953 0.674584 -0.619138 -0.402
0.0600833 0.136895 0.0765534 -0.674584 0.619138 0.402
-0.368236 -0.0815659 -0.422885 -0.735033 -0.512987 -0.443363
-0.101689 0.165796 -0.377108 -0.0682825 -0.594569 0.80114
0.416194 0.218201 0.175775 0.674584 -0.619138 -0.402
-0.237017 -0.428586 0.151032 0.227668 0.692517 -0.684534
0.113799 0.0625813 0.218956 0.674584 -0.619138 -0.402
0.278534 -0.120456 0.466353 0.674584 -0.619138 -0.402
-0.314716 -0.385741 -0.120587 0.674585 -0.619138 -0.401999
0.124928 0.079726 -0.0174231 0.735033 0.512987 0.443363
-0.334473 -0.0601472 -0.282067 -0.674584 0.619138 0.402
-0.29895 -0.234091 -0.327693 0.674584 -0.619138 -0.402
0.21762 0.288912 -0.266351 0.674584 -0.619138 -0.402
-0.039463 0.0857677 -0.137866 -0.0682826 -0.594569 0.80114
0.0252426 0.29659 -0.339433 0.0682823 0.594569 -0.80114
0.199471 0.312425 -0.0220758 0.674584 -0.619138 -0.402
0.0809857 -0.0605392 0.0555898 -0.0682826 -0.594569 0.80114
-0.291248 -0.214659 0.0284381 -0.674584 0.619138 0.402
0.200571 0.31548 -0.240258 -0.0682825 -0.594569 0.80114
0.212293 0.361291 -0.01363 -0.674584 0.619138 0.402
-0.332924 -0.0643857 -0.27294 -0.674584 0.619138 0.402
-0.274523 -0.503048 0.164962 -0.0682826 -0.594569 0.80114
-0.148994 -0.405499 0.248058 -0.0682683 -0.59458 0.801133
-0.0662572 0.275488 -0.348908 -0.674584 0.619138 0.402
-0.100099 -0.236878 0.202617 -0.0682825 -0.594569 0.80114
-0.0199707 -0.187668 0.120366 -0.0682825 -0.594569 0.80114
0.343809 0.403864 -0.23164 0.674584 -0.619138 -0.401999
-0.156585 0.0961392 -0.224262 -0.674584 0.619138 0.402
0.37028 0.463936 -0.125991 -0.691882 -0.720143 -0.0519015
-0.185146 -0.380156 0.263785 -0.0682826 -0.594569 0.80114
-0.27081 -0.264415 0.0771781 0.674584 -0.619138 -0.402
-0.401361 -0.256867 -0.165141 -0.735041 -0.512978 -0.44336
-0.109799 0.126654 -0.259685 0.178412 -0.797343 -0.576553
0.227728 0.0383317 0.423219 -0.569332 -0.6362 -0.520683
-0.416263 -0.284872 -0.108032 -0.73503 -0.51299 -0.443365
-0.0174377 0.239963 -0.212272 -0.674584 0.619138 0.402
-0.392496 -0.493899 0.161697 -0.0682826 -0.594569 0.80114
0.208602 0.44971 -0.156002 -0.674584 0.619138 0.402
0.0666017 -0.0259862 0.0798524 -0.606728 -0.612705 -0.506433
0.200239 0.208513 0.201442 -0.674584 0.619138 0.402
0.325935 0.14949 0.414424 0.735033 0.512987 0.443363
-0.243711 -0.448401 0.110065 0.601173 0.776795 -0.187567
-0.309146 -0.471963 0.021555 0.674615 -0.619114 -0.401986
0.358489 0.378372 -0.167746 0.674585 -0.61914 -0.401997
-0.313093 -0.17968 -0.0620912 -0.674584 0.619138 0.402
0.158641 0.398286 -0.160641 -0.674584 0.619138 0.402
-0.266962 -0.0912961 -0.29759 0.735033 0.512987 0.443363
-0.192985 -0.0511721 -0.213936 0.674584 -0.619139 -0.401999
-0.0446599 0.104075 -0.0486662 -0.674584 0.619138 0.402
-0.343606 -0.206399 -0.22134 -0.0210592 -0.63631 0.771146
-0.416321 -0.482584 0.168064 -0.0682826 -0.594569 0.80114
-0.327733 -0.156806 -0.121887 -0.674584 0.619138 0.402
-0.289461 -0.0562509 -0.30041 0.84154 0.396981 0.366356
-0.048796 0.187121 -0.18351 -0.674584 0.619138 0.402
-0.022329 0.017449 -0.2503 0.0682825 0.594569 -0.80114
-0.365957 -0.138635 -0.360633 -0.735033 -0.512987 -0.443363
-0.029227 0.25297 -0.252088 -0.674584 0.619138 0.402
-0.200192 -0.170639 -0.0420336 0.674584 -0.619138 -0.402
-0.1159 -0.0081273 -0.0812141 -0.559836 -0.641834 -0.524055
-0.213198 -0.235632 0.191714 -0.674584 0.619138 0.402
-0.437506 -0.425164 0.107214 -0.674585 0.619138 0.402
-0.105421 -0.0861487 0.080156 0.674584 -0.619138 -0.402
0.0192633 -0.123289 0.346586 0.674584 -0.619138 -0.402
-0.194199 0.0776486 -0.321092 0.674584 -0.619138 -0.402
0.21947 0.237055 0.189755 -0.674584 0.619138 0.402
0.132292 0.356907 -0.207796 0.53339 -0.841176 0.0889858
0.015955 -0.20579 0.340119 0.0682825 0.594569 -0.80114
-0.0748129 -0.234204 0.381508 -0.0682826 -0.594569 0.80114
-0.134924 -0.0152545 -0.0785399 0.674584 -0.619138 -0.402
0.237099 0.017834 0.534386 0.703843 0.703649 0.0973772
-0.395532 -0.173553 -0.271201 -0.735038 -0.512983 -0.443359
-0.33693 -0.327089 -0.190709 -0.735033 -0.512987 -0.443363
-0.39784 -0.481116 0.0884855 -0.735033 -0.512987 -0.443363
-0.342952 -0.356887 -0.146248 -0.735033 -0.512987 -0.443363
-0.0080887 0.205239 -0.339858 -0.0683044 -0.594541 0.801159
0.150953 0.00338592 0.434663 -0.674584 0.619139 0.401999
-0.23446 -0.063247 -0.383928 0.735033 0.512987 0.443363
0.108969 0.0700205 0.199395 0.674584 -0.619138 -0.402
-0.219082 -0.0593513 -0.245131 0.674584 -0.619138 -0.402
0.0903359 0.120152 0.153105 -0.674584 0.619138 0.402
0.0115155 0.19901 -0.35734 -0.566482 -0.637904 -0.521705
0.28817 0.374564 -0.18828 -0.157746 -0.652893 0.740842
-0.417895 -0.464594 0.102618 -0.735033 -0.512987 -0.443363
0.112022 -0.168084 0.260288 0.674584 -0.619138 -0.402
0.367134 0.273502 0.202637 0.735033 0.512987 0.443363
0.340809 0.312526 0.201128 0.735033 0.512987 0.443363
-0.405718 -0.347149 0.0404032 -0.674584 0.619138 0.402
-0.286779 -0.212344 -0.141761 0.360292 0.751445 -0.552739
-0.246269 0.0222294 -0.260927 -0.674584 0.619138 0.402
0.333454 0.0206723 0.341154 0.674584 -0.619138 -0.402
-0.0608602 -0.072154 0.195567 -0.674584 0.619138 0.402
-0.254063 -0.175007 -0.343366 0.674584 -0.619138 -0.402
0.224655 0.243441 0.126431 0.674584 -0.619138 -0.402
0.222837 -0.00866079 0.466237 -0.584462 -0.115302 -0.803187
0.0069366 0.0246497 -0.212891 0.674584 -0.619138 -0.402
0.140131 0.172996 0.155279 -0.674584 0.619138 0.402
0.127311 0.369273 -0.16853 -0.674584 0.619138 0.402
0.203458 0.397487 -0.0842033 -0.674584 0.619138 0.402
-0.331406 -0.0840348 -0.240131 -0.674584 0.619138 0.402
-0.332878 -0.121757 -0.184503 -0.674584 0.619138 0.402
-0.203753 -0.0872147 -0.0948728 0.620623 -0.772354 -0.135265
-0.275499 0.00622808 -0.499639 -0.612858 -0.166148 -0.772528
-0.0826238 -0.227623 0.11841 -0.735033 -0.512987 -0.443363
0.293851 0.364863 -0.255406 0.674584 -0.619138 -0.401999
-0.157979 0.160053 -0.325037 -0.674584 0.619138 0.402
-0.391514 -0.400929 -0.0147793 -0.735033 -0.512987 -0.443363
0.160355 -0.145733 0.396998 0.0682826 0.594569 -0.80114
-0.0361722 -0.074962 0.00787005 0.744426 -0.564977 -0.355851
-0.105199 -0.290771 0.266724 0.068283 0.594568 -0.80114
-0.296315 -0.270539 0.0438102 0.674585 -0.619138 -0.401999
-0.361281 0.0530751 -0.553102 0.0682824 0.594569 -0.80114
-0.214033 -0.000453033 -0.171897 -0.674583 0.619136 0.402005
0.25577 0.0509488 0.362827 -0.735033 -0.512987 -0.443363
-0.21135 -0.151959 -0.0878997 0.081895 0.581941 -0.809097
-0.324964 -0.502511 0.110532 0.456116 0.777766 -0.432478
0.211761 0.399283 -0.0730357 -0.674584 0.619138 0.402
-0.342531 -0.235822 -0.0250237 -0.674584 0.619138 0.402
0.00543396 0.115111 -0.276991 -0.674588 0.619135 0.401997
-0.00140744 0.023746 -0.225501 0.674584 -0.619138 -0.402
-0.40407 -0.325477 -0.0812654 -0.735033 -0.512987 -0.443363
0.268171 -0.00394562 0.581628 -0.0682824 -0.594569 0.80114
0.158511 0.0182315 0.362292 0.674584 -0.619138 -0.402
-0.0110809 -0.119867 -0.0205492 0.674584 -0.619138 -0.402
0.353095 0.277517 -0.021465 0.674584 -0.619138 -0.402
-0.0485519 0.0939253 -0.310119 -0.735033 -0.512987 -0.443363
0.330724 0.23456 0.0261211 -0.735033 -0.512987 -0.443363
-0.0748815 0.0264825 -0.0803448 0.0682825 0.594569 -0.80114
-0.192708 0.0997073 -0.433914 -0.0682825 -0.594569 0.80114
0.356856 0.358644 0.121163 0.735033 0.512987 0.443363
0.0361316 -0.149321 0.243914 0.710385 -0.592797 -0.379399
0.013039 0.0380712 -0.223322 0.674584 -0.619138 -0.402
0.269816 0.471962 -0.0875526 -0.674585 0.61914 0.401995
-0.158589 0.03792 -0.511094 0.674584 -0.619138 -0.402
-0.128548 -0.169983 0.232653 -0.674584 0.619138 0.402
-0.1035 0.127781 -0.183914 -0.674584 0.619138 0.402
-0.309226 -0.27534 -0.281407 0.674584 -0.619138 -0.402
0.230064 -0.0922532 0.442322 0.0140269 0.555222 -0.831584
0.0909042 -0.0302251 0.385662 -0.674584 0.619138 0.402
-0.278621 -0.340999 0.0106552 0.735033 0.512987 0.443363
-0.221621 -0.204147 0.0668976 0.674584 -0.619138 -0.402
-0.288289 0.0146171 -0.319715 -0.674584 0.619138 0.402
-0.394851 -0.294196 -0.132742 -0.735033 -0.512987 -0.443363
0.125478 0.17794 -0.131971 0.735033 0.512987 0.443363
-0.318154 -0.116888 -0.167295 -0.674584 0.619138 0.402
0.0805432 -0.160537 0.449421 -0.0682825 -0.594569 0.80114
-0.130226 -0.410644 0.227356 0.674584 -0.619138 -0.401999
-0.051551 0.203103 -0.212748 -0.674584 0.619138 0.402
-0.0242143 0.146907 -0.453459 0.674584 -0.619138 -0.401999
0.142217 0.199297 0.118271 -0.674584 0.619138 0.402
0.0721237 -0.142584 0.21625 0.674584 -0.619138 -0.402
0.0710363 -0.112166 0.120965 0.0682825 0.594569 -0.80114
0.0599054 0.059396 -0.148968 -0.0682825 -0.594569 0.80114
0.273007 -0.014738 0.518902 0.606962 0.775151 -0.17532
0.239188 0.277918 0.0977184 0.674584 -0.619138 -0.402
0.0124365 0.0127132 0.187856 -0.674584 0.619138 0.402
-0.418388 -0.250505 -0.129704 -0.674584 0.619138 0.402
0.036287 -0.141383 0.459865 -0.0682825 -0.594569 0.80114
0.299695 0.458434 -0.0165783 -0.674584 0.619138 0.402
0.0402206 0.196764 -0.0489844 -0.674584 0.619138 0.402
-0.0196559 0.242158 -0.281564 0.674584 -0.619138 -0.402
-0.0551722 -0.0311413 0.141947 -0.674584 0.619138 0.402
0.3069 0.418421 0.0571385 -0.674584 0.619138 0.402
-0.207893 -0.0402041 -0.473506 0.674584 -0.619139 -0.401999
-0.264366 -0.0418718 -0.565704 0.674591 -0.619128 -0.402004
-0.212589 0.0696602 -0.339649 0.674585 -0.619138 -0.402
0.284137 0.392735 0.0585007 -0.674584 0.619138 0.402
0.351657 -0.072127 0.514625 0.674584 -0.619138 -0.402
-0.131349 -0.0369317 0.0230351 -0.674584 0.619138 0.402
0.0316068 -0.259908 0.357753 0.203044 0.777926 0.594646
0.0143383 0.102495 0.0527701 -0.674584 0.619138 0.402
0.162016 -0.0130068 0.478474 -0.674584 0.619138 0.402
0.191305 0.0152524 0.421911 0.674584 -0.619138 -0.402
-0.0417823 -0.202803 0.117853 0.674584 -0.619138 -0.402
0.0983184 0.0174818 -0.0485063 0.674584 -0.619138 -0.402
0.0849703 0.287705 -0.113954 -0.674584 0.619138 0.402
0.330774 0.230578 0.312582 0.735033 0.512987 0.443363
-0.362492 -0.546457 0.105486 -0.735033 -0.512987 -0.443363
0.379531 0.273727 0.181824 0.735033 0.512987 0.443363
-0.334072 -0.413713 -0.095219 -0.735033 -0.512987 -0.443363
-0.42189 -0.314751 -0.0366312 -0.674584 0.619138 0.402
0.0908409 0.203421 -0.347427 0.674584 -0.619138 -0.402
-0.0735926 -0.0561786 0.0874077 0.674584 -0.619138 -0.402
-0.0568035 -0.311515 0.293688 0.392544 0.722232 0.569465
-0.0304153 -0.136549 -0.0273008 0.674584 -0.619138 -0.402
-0.303388 -0.218077 -0.359804 0.674585 -0.619138 -0.402
0.35692 -0.00574971 0.421225 0.674586 -0.619137 -0.401999
0.2171 0.393964 -0.118075 0.674581 -0.619138 -0.402006
-0.237142 -0.272269 0.207959 -0.674584 0.619138 0.402
0.267839 0.49865 -0.168796 0.0682823 0.594569 -0.80114
-0.0347763 -0.0923049 -0.102674 -0.0682826 -0.594569 0.80114
-0.395634 -0.205126 -0.234501 -0.735034 -0.512986 -0.443363
0.117287 0.0146794 -0.0123599 0.674584 -0.619138 -0.402
0.415974 0.362674 -0.047104 0.674584 -0.619138 -0.402
0.102249 -0.100527 0.195455 -0.0682825 -0.594569 0.80114
-0.373149 -0.409754 0.191479 -0.674584 0.619138 0.402
0.419584 0.44234 -0.163743 0.674577 -0.619138 -0.402013
-0.409056 -0.433503 0.0519913 -0.735033 -0.512987 -0.443363
-0.324475 -0.31246 -0.217294 -0.39841 0.15309 -0.904341
0.254142 -0.128789 0.438255 0.674588 -0.619109 -0.402039
-0.243314 0.0497835 -0.298406 -0.674584 0.619138 0.402
-0.310243 -0.21114 -0.00885697 -0.674584 0.619138 0.402
-0.0187946 0.131068 -0.395817 -0.0682828 -0.594569 0.80114
0.0984929 -0.0284985 0.0226027 0.674584 -0.619138 -0.402
0.27154 0.355449 0.094788 -0.674584 0.619138 0.402
-0.393393 -0.44272 0.141681 0.662798 0.747759 -0.0394364
0.18941 -0.151595 0.465337 -0.0682824 -0.594569 0.80114
-0.28984 -0.261066 0.102275 -0.674584 0.619138 0.402
0.133554 0.3222 -0.0855542 -0.674584 0.619138 0.402
-0.268949 -0.260114 0.135865 -0.674584 0.619138 0.402
-0.0734103 -0.0887295 0.123566 0.414505 0.177473 -0.892574
-0.24919 0.0224767 -0.566257 0.0682824 0.594569 -0.80114
-0.00186733 -0.0248408 0.221692 -0.674584 0.619138 0.402
0.122023 0.269709 -0.0862497 0.674584 -0.619138 -0.402
-0.39548 -0.501495 0.108153 -0.735033 -0.512987 -0.443363
0.286475 0.2099 0.344016 -0.674584 0.619138 0.402
0.203232 0.31174 -0.242807 -0.0682825 -0.594569 0.80114
-0.184188 -0.189774 0.0142932 0.67459 -0.619131 -0.402002
-0.401597 -0.442892 0.0504882 -0.735033 -0.512987 -0.443363
-0.26609 -0.143523 -0.107268 0.120928 -0.719957 -0.683403
0.294911 0.120155 0.217863 -0.735033 -0.512987 -0.443363
-0.398236 -0.305487 -0.0112056 -0.674584 0.619138 0.402
-0.0827068 -0.128095 0.09604 0.0682825 0.594569 -0.80114
-0.0420434 0.0357179 -0.249941 0.674584 -0.619138 -0.402
-0.0115965 0.136559 -0.276546 0.744411 -0.564991 -0.355862
-0.267626 0.114872 -0.499257 0.0682827 0.594569 -0.80114
-0.113252 0.196752 -0.425332 0.0682827 0.594569 -0.80114
0.148732 0.176241 -0.180283 -0.0682828 -0.594569 0.80114
0.139125 0.00184526 0.0491509 0.735033 0.512987 0.443363
-0.372775 -0.189828 -0.290097 -0.735033 -0.512987 -0.443363
0.185186 -0.0449915 0.47282 -0.0583921 0.498109 -0.865146
-0.281871 -0.0483984 -0.585027 0.674585 -0.619138 -0.402
0.316502 0.365671 -0.218641 0.674585 -0.619132 -0.402007
0.224825 0.294153 0.110801 -0.674584 0.619138 0.402
-0.185821 0.0679816 -0.456872 -0.0682825 -0.594569 0.80114
-0.021755 -0.0383653 -0.123944 0.0682825 0.594569 -0.80114
0.318556 0.459102 0.0140429 -0.674585 0.619138 0.401999
-0.0889274 -0.0538038 0.0546267 0.567852 -0.823059 0.0108904
-0.365008 -0.437296 -0.016645 -0.735033 -0.512987 -0.443363
0.297541 -0.0467492 0.406513 -0.733136 -0.498245 -0.462886
0.410484 0.312078 0.0216084 0.674584 -0.619138 -0.402
-0.0325502 -0.196927 0.0621068 0.674584 -0.619138 -0.402
-0.196422 0.0446248 -0.545323 0.0682824 0.594569 -0.80114
0.132575 0.196013 -0.164648 0.735033 0.512987 0.443363
-0.0829686 -0.107226 0.212484 -0.674584 0.619138 0.402
0.0590976 -0.0838189 0.280942 0.735033 0.512987 0.443363
0.191352 -0.173972 0.448895 -0.0682689 -0.594583 0.80113
-0.294475 -0.000241394 -0.493517 -0.0236721 0.526146 -0.850065
-0.0862371 0.0796914 -0.231173 -0.735033 -0.512987 -0.443363
0.300374 0.393844 0.084039 -0.674584 0.619138 0.402
-0.0307291 -0.156427 0.268237 -0.0682826 -0.594569 0.80114
0.190415 0.301623 -0.0206357 0.674584 -0.619138 -0.402
-0.316424 -0.376438 0.235354 -0.674584 0.619139 0.401999
0.00643848 -0.201878 0.174481 0.0682825 0.594569 -0.80114
-0.240659 -0.371457 -0.0170407 0.735033 0.512987 0.443363
0.0056249 -0.0478688 -0.103403 0.674584 -0.619138 -0.402
-0.0186398 -0.0248417 -0.0527249 -0.203027 -0.77793 -0.594648
0.157896 0.219913 0.11283 -0.674584 0.619138 0.402
0.100184 0.00805467 0.342278 -0.674584 0.619138 0.402
-0.0108335 -0.0313098 0.0694566 -0.0682826 -0.594569 0.80114
-0.304342 -0.00437266 -0.519374 0.737523 0.54199 0.402874
-0.0589318 0.194209 -0.211434 -0.674584 0.619138 0.402
0.305577 0.399428 -0.239217 0.0682826 0.594569 -0.80114
-0.312245 -0.449707 -0.0179227 0.67458 -0.619142 -0.402002
-0.315186 -0.393116 -0.110017 0.674571 -0.619149 -0.402006
0.22166 0.379169 -0.0254476 -0.674584 0.619138 0.402
0.00751468 -0.0993082 0.352127 -0.674584 0.619138 0.402
-0.226313 -0.010534 -0.455736 0.712538 0.403786 0.5738
0.343651 0.100314 0.235606 0.674584 -0.619138 -0.402
-0.158983 -0.233689 0.279698 -0.674584 0.619138 0.402
0.380935 0.285409 0.0130982 0.674597 -0.61913 -0.401992
-0.384928 -0.425381 0.195779 -0.674584 0.619138 0.402
0.0609472 -0.0036794 0.232319 0.674584 -0.619138 -0.402
-0.412658 -0.238084 -0.139219 -0.674584 0.619138 0.402
0.122425 -0.237466 0.395898 -0.0682821 -0.594569 0.80114
0.00853213 -0.112083 0.373509 -0.674584 0.619138 0.402
-0.15166 -0.0484283 0.00665725 -0.674584 0.619138 0.402
0.331178 0.555603 -0.113402 -0.674584 0.619139 0.402
-0.375493 -0.113846 -0.373506 -0.735033 -0.512987 -0.443363
-0.103902 -0.0238191 -0.0821218 -0.735033 -0.512987 -0.443363
0.3364 -0.092087 0.522029 -0.0682821 -0.594569 0.80114
0.109782 0.21714 -0.336771 0.674584 -0.619138 -0.402
0.40667 0.347911 -0.0399804 0.674584 -0.619138 -0.402
-0.0351949 -0.0653666 0.228182 -0.674584 0.619138 0.402
-0.402822 -0.480666 0.0962252 -0.735033 -0.512987 -0.443363
0.0871151 -0.0345858 0.38602 -0.674584 0.619138 0.402
-0.0462992 -0.0871173 -0.104381 -0.735033 -0.512987 -0.443364
-0.190415 0.0977633 -0.345722 0.674584 -0.619138 -0.402
-0.0843794 -0.0688771 0.151053 -0.674584 0.619138 0.402
0.026681 0.243119 -0.143099 -0.674584 0.619138 0.402
0.170924 0.116601 0.293808 -0.674584 0.619138 0.402
-0.274493 -0.260571 -0.089248 0.735033 0.512987 0.443363
0.0127539 -0.0604043 0.0498744 -0.0682797 -0.594572 0.801138
-0.0527298 -0.246463 0.374292 -0.0682826 -0.594569 0.80114
0.150932 0.364527 -0.183771 0.674584 -0.619138 -0.402
0.200931 0.272772 0.0414462 0.674584 -0.619138 -0.402
0.279056 0.276224 0.063572 -0.735033 -0.512987 -0.443363
0.226569 0.322402 0.0702206 -0.674584 0.619138 0.402
0.142485 0.196932 0.122364 -0.674584 0.619138 0.402
0.42517 0.282215 0.0963401 0.735033 0.512987 0.443363
0.387902 0.470669 -0.0599239 0.735033 0.512987 0.443363
0.0437806 0.201363 -0.408526 0.0682826 0.594569 -0.80114
-0.149947 0.123054 -0.483155 0.0682824 0.594569 -0.80114
0.403125 0.346813 0.058146 0.735033 0.512987 0.443363
-0.0181103 -0.0330305 -0.0829497 -0.143307 0.800532 0.581903
-0.049571 -0.172087 0.125503 0.997206 -0.065071 0.0367009
0.108425 0.0555875 0.2829 -0.674584 0.619138 0.402
0.0810242 0.338631 -0.303477 0.0682823 0.594569 -0.80114
0.0765156 0.11184 0.0805267 0.674584 -0.619138 -0.402
-0.156304 -0.270951 0.341582 -0.674584 0.619139 0.401999
0.363311 0.0619478 0.327685 0.674576 -0.619144 -0.402005
0.176618 -0.190816 0.403695 0.674584 -0.619138 -0.402
-0.251789 -0.451745 0.0866662 0.674583 -0.619138 -0.402003
-0.408198 -0.271054 -0.0809562 -0.674584 0.619138 0.402
0.324484 0.307625 0.233862 0.735033 0.512987 0.443363
-0.28184 -0.202792 -0.347185 0.674584 -0.619138 -0.402
-0.0806868 -0.101265 0.207133 -0.674584 0.619138 0.402
0.00571513 -0.050719 -0.0988622 0.674584 -0.619138 -0.402
-0.256755 0.0657485 -0.407738 0.674589 -0.619132 -0.402002
0.199005 0.332829 -0.297728 0.0682876 0.594563 -0.801144
0.356629 0.384201 -0.179844 0.674585 -0.619133 -0.402007
0.112819 -0.019886 0.0333789 0.674584 -0.619138 -0.402
-0.378567 -0.130162 -0.248227 -0.674584 0.619138 0.402
0.0432815 0.0327196 0.121924 0.0811922 -0.715778 0.693592
0.0526842 -0.000747546 0.210107 0.949237 -0.28587 -0.131254
0.0725472 0.114326 0.0700386 0.674584 -0.619138 -0.402
-0.281396 -0.124178 -0.156573 0.674584 -0.619138 -0.402
0.0739533 0.255425 -0.0827259 -0.674584 0.619138 0.402
-0.161352 -0.257321 0.249929 0.674584 -0.619138 -0.402
0.162488 -0.176136 0.444829 -0.0682824 -0.594569 0.80114
-0.0475285 0.207754 -0.275349 0.674584 -0.619138 -0.402
-0.198955 0.0333056 -0.475707 0.269482 -0.300444 0.914939
-0.165063 -0.151952 0.143608 -0.674584 0.619138 0.402
-0.298204 -0.112014 -0.207599 0.952706 -0.277208 -0.12453
0.287397 0.473821 -0.185556 0.0682826 0.594569 -0.80114
-0.07782 0.150599 -0.386352 -0.0682825 -0.594569 0.80114
-0.323459 -0.365501 0.113339 0.735037 0.512984 0.443361
-0.24343 0.0933217 -0.365654 -0.674584 0.619138 0.402
-0.317556 -0.281618 0.0110141 0.983879 0.0929096 0.15281
-0.32903 -0.531981 0.138844 -0.0682826 -0.594569 0.80114
-0.373293 0.0636293 -0.546293 0.0682824 0.594569 -0.80114
-0.0558796 0.281867 -0.34132 -0.674584 0.619138 0.402
0.231455 0.259064 0.175968 -0.674584 0.619138 0.402
0.121838 0.0224579 -0.0167035 0.674584 -0.619138 -0.402
-0.0613564 -0.106424 -0.05708 -0.735033 -0.512987 -0.443363
-0.23698 -0.111751 -0.0389891 -0.674584 0.619138 0.402
-0.2958 -0.151067 -0.077142 -0.674584 0.619138 0.402
-0.391383 -0.165137 -0.215867 -0.674584 0.619138 0.402
-0.34072 -0.104572 -0.224128 -0.674584 0.619138 0.402
-0.188014 -0.0407524 -0.0661697 -0.674584 0.619138 0.402
0.061899 0.016544 -0.0140769 0.346332 0.73895 0.577933
-0.187622 -0.17076 -0.0207537 0.674588 -0.619138 -0.401995
-0.0758672 0.185547 -0.288702 0.674584 -0.619138 -0.402
0.405624 0.303374 0.104262 0.735033 0.512987 0.443363
-0.0232593 -0.249076 0.200114 -0.0682825 -0.594569 0.80114
0.254796 -0.136894 0.451836 0.674584 -0.619138 -0.402
-0.0241033 0.141388 -0.444772 0.674584 -0.619138 -0.401999
-0.325545 -0.254636 0.0324549 -0.674584 0.619138 0.402
-0.220989 -0.266703 0.164304 0.674584 -0.619138 -0.402
0.161824 0.00880614 0.444557 -0.674581 0.619145 0.401994
-0.159733 -0.0835948 -0.0149176 0.674585 -0.619138 -0.402
-0.181625 0.0889855 -0.255264 -0.674584 0.619138 0.402
-0.336365 -0.210175 -0.0541775 -0.674584 0.619138 0.402
-0.236389 -0.29886 -0.122956 0.674584 -0.619138 -0.402
-0.369787 -0.23313 -0.0749075 -0.674584 0.619138 0.402
-0.39005 -0.209988 -0.238133 -0.735033 -0.512987 -0.443363
-0.0760487 0.0691899 -0.1098 0.674584 -0.619138 -0.402
-0.140705 -0.0172244 -0.0852075 0.674585 -0.619138 -0.402
0.173208 0.208244 0.156497 -0.674584 0.619138 0.402
0.134606 -0.166998 0.379022 0.0682826 0.594569 -0.80114
-0.0395484 -0.35533 0.294619 -0.0682821 -0.594569 0.80114
-0.122938 0.0228204 -0.0548787 -0.674584 0.619138 0.402
-0.306159 -0.24923 -0.250068 -0.0682826 -0.594569 0.80114
-0.0392233 -0.00451165 -0.100308 0.0682823 0.594567 -0.801141
0.241766 0.455646 -0.109494 -0.674584 0.619138 0.402
-0.3627 -0.500276 0.0523985 -0.735033 -0.512987 -0.443363
-0.0199863 0.0583046 -0.169988 0.674588 -0.619136 -0.401998
-0.268392 0.0537006 -0.408709 0.674587 -0.619134 -0.402001
-0.246065 -0.248077 0.0935372 0.674584 -0.619138 -0.402
0.0762638 0.339094 -0.20771 -0.674584 0.619138 0.402
0.366127 0.077602 0.308302 0.674593 -0.619132 -0.401995
0.000889798 -0.201629 0.341923 0.0682825 0.594569 -0.80114
-0.0956824 0.104667 -0.492175 0.0682826 0.594569 -0.80114
0.286019 0.0478659 0.316246 -0.735033 -0.512987 -0.443363
0.115151 -0.0114799 0.335291 0.674584 -0.619138 -0.402
-0.207886 0.0667507 -0.265087 -0.674584 0.619138 0.402
-0.291731 0.11549 -0.500853 0.0682827 0.594569 -0.80114
0.320003 0.422209 0.0732919 -0.674584 0.619138 0.402
-0.0215871 0.103181 -0.0707605 0.674584 -0.619138 -0.402
-0.428072 -0.382203 0.0568793 -0.674585 0.619138 0.402
-0.0133828 -0.0347664 -0.0447795 -0.682568 -0.557819 -0.472164
0.156183 0.329619 -0.121196 0.674584 -0.619138 -0.402
-0.325977 -0.481032 0.0871109 0.341428 -0.221137 0.913524
0.342927 0.319538 -0.0924322 -0.735033 -0.512987 -0.443363
-0.157472 0.196529 -0.380366 -0.674584 0.619138 0.402
-0.046441 0.0509225 -0.263863 -0.735033 -0.512987 -0.443363
0.166924 0.125085 0.21184 0.674584 -0.619138 -0.402
-0.105493 -0.222732 0.150665 -0.735033 -0.512987 -0.443363
0.102976 0.162195 0.0473747 0.674584 -0.619138 -0.402
-0.147003 -0.19342 0.237781 -0.674584 0.619138 0.402
-0.0825326 0.0742836 -0.231057 -0.735033 -0.512987 -0.443363
-0.387734 -0.212815 -0.238702 -0.735035 -0.512986 -0.443362
0.196011 -0.00258496 0.45728 0.674584 -0.619141 -0.401997
0.148609 -0.0453744 0.443638 0.674584 -0.619138 -0.402
-0.400275 -0.40073 -0.00048665 -0.735033 -0.512987 -0.443363
0.281397 0.479818 -0.080219 -0.674584 0.619138 0.402
0.401353 0.114373 0.330023 0.735033 0.512987 0.443363
-0.396665 -0.28554 -0.0392924 -0.674584 0.619138 0.402
-0.39183 -0.263528 -0.173235 -0.735035 -0.512985 -0.443363
0.00144879 0.153895 -0.421156 0.674586 -0.619131 -0.402009
-0.350721 -0.135628 -0.389372 -0.735033 -0.512987 -0.443363
0.276965 0.194155 0.161995 -0.735033 -0.512987 -0.443363
-0.123213 0.129452 -0.281757 0.674584 -0.619138 -0.402
-0.346406 -0.282719 -0.200289 0.0140201 0.555216 -0.831588
0.0167688 0.181164 -0.355606 -0.0682699 -0.594583 0.801131
-0.248521 -0.230659 0.12478 -0.674584 0.619138 0.402
-0.0276884 -0.200532 0.138007 0.674584 -0.619138 -0.402
0.0288001 -0.103866 0.332676 0.674584 -0.619138 -0.402
-0.181002 0.0594574 -0.270928 0.674583 -0.61914 -0.401999
-0.0684342 -0.0359049 0.127029 -0.674584 0.619138 0.402
0.173068 0.145366 0.253103 -0.674584 0.619138 0.402
-0.0901709 0.252885 -0.354226 -0.674584 0.619138 0.402
0.290832 0.496884 -0.108246 0.632618 0.204218 0.747054
-0.145748 0.0966904 -0.206926 -0.674584 0.619138 0.402
-0.425965 -0.313218 -0.0591498 -0.735032 -0.512987 -0.443364
0.0278055 0.154171 -0.377353 0.674586 -0.619121 -0.402023
0.346576 0.112951 0.422482 0.735033 0.512987 0.443363
-0.411197 -0.203908 -0.189403 -0.674584 0.619138 0.402
0.0299174 0.057409 -0.21619 0.0682825 0.594569 -0.80114
0.241714 0.386018 -0.184401 -0.0682825 -0.594569 0.80114
0.193591 0.167207 0.253904 -0.674584 0.619138 0.402
-0.272603 -0.242472 0.102562 -0.674584 0.619138 0.402
0.184626 0.0891047 0.359149 -0.674584 0.619138 0.402
-0.0575341 -0.173047 0.29435 0.674584 -0.619138 -0.402
0.104907 0.0475352 0.0530158 0.735033 0.512987 0.443363
-0.319134 -0.31224 0.0695422 0.750276 -0.559892 -0.351579
0.239222 0.125015 0.395456 -0.674584 0.619138 0.402
-0.276606 -0.170201 -0.0776531 0.674585 -0.619138 -0.401999
-0.230702 -0.11394 -0.0250826 -0.674584 0.619138 0.402
-0.186325 -0.143139 0.0943552 -0.674584 0.619138 0.402
0.421233 0.24502 0.145902 0.735033 0.512987 0.443363
-0.330018 -0.175056 -0.097615 -0.674584 0.619138 0.402
-0.304707 -0.351426 0.216494 -0.674584 0.619138 0.402
0.0748725 -0.0463439 0.170142 0.0682826 0.594569 -0.80114
-0.247012 -0.189311 0.0636304 -0.674584 0.619138 0.402
-0.254553 -0.192779 -0.208586 0.485271 -0.0384367 0.873518
0.174308 -0.0927987 0.507685 -0.0682824 -0.594569 0.80114
0.0734769 0.0406391 -0.00907479 -0.524846 -0.661507 -0.535673
-0.22789 -0.340676 0.21923 0.0682825 0.594569 -0.80114
-0.153519 0.108247 -0.237766 -0.674584 0.619138 0.402
0.258785 0.374099 -0.191792 -0.0682825 -0.594569 0.80114
-0.0829338 -0.051955 0.127417 -0.674584 0.619138 0.402
0.0850218 0.0553328 0.244019 -0.674584 0.619138 0.402
-0.00807165 -0.25501 0.197004 -0.0682825 -0.594569 0.80114
-0.236911 -0.111194 -0.131126 0.458459 -0.857784 0.232427
0.239331 0.352349 0.0455122 -0.674584 0.619138 0.402
0.113069 -0.0389053 0.436226 -0.674584 0.619138 0.402
-0.0287337 0.241072 -0.232936 -0.674584 0.619138 0.402
-0.253388 -0.442211 0.0693 0.674584 -0.619138 -0.402
-0.260934 -0.372024 0.0172297 0.735033 0.512987 0.443363
0.318796 0.350248 0.182097 -0.674585 0.619138 0.401999
-0.154241 -0.215855 0.260189 -0.674584 0.619138 0.402
-0.344952 -0.152583 -0.157287 -0.674584 0.619138 0.402
-0.225651 -0.0611609 -0.400945 0.735033 0.512987 0.443363
0.182156 0.389421 -0.169715 0.674584 -0.619138 -0.402
0.180821 0.211965 0.163541 -0.674584 0.619138 0.402
-0.305539 -0.041401 -0.573301 -0.735033 -0.512987 -0.443363
-0.250505 -0.381195 0.257443 -0.0682827 -0.594569 0.80114
-0.283862 -0.0918509 -0.268929 0.735036 0.512984 0.443361
-0.338154 -0.44707 0.133182 -0.724583 -0.451243 -0.520922
0.0686144 -0.0179909 0.267227 0.674584 -0.619138 -0.402
0.00871225 -0.0631651 -0.0149301 0.0682827 0.594569 -0.80114
0.0678167 0.335432 -0.216245 -0.674584 0.619138 0.402
-0.246643 -0.165556 -0.345472 0.674584 -0.619138 -0.402
-0.297414 -0.333628 0.0332813 0.735033 0.512987 0.443363
-0.348358 -0.246673 -0.01809 -0.674584 0.619138 0.402
-0.374071 -0.330725 -0.124927 -0.735033 -0.512987 -0.443363
0.115857 0.380253 -0.204661 -0.674584 0.619138 0.402
-0.414227 -0.440765 0.170307 -0.674584 0.619138 0.402
-0.0892667 -0.217169 0.308851 0.67787 -0.541708 -0.497036
0.0235261 -0.0411627 -0.0215032 0.674584 -0.619138 -0.402
-0.346655 -0.223764 -0.0505158 -0.674584 0.619138 0.402
-0.0216733 -0.329932 0.285206 0.674593 -0.619087 -0.402065
-0.322762 -0.0694388 -0.248106 -0.674584 0.619138 0.402
0.117317 0.0258774 0.0326324 0.674584 -0.619138 -0.402
-0.407155 -0.162616 -0.264586 -0.735033 -0.512987 -0.443363
0.232102 -0.0339438 0.556291 -0.0682824 -0.594569 0.80114
0.050765 0.0837838 -0.131648 -0.0682778 -0.594574 0.801137
-0.313304 -0.00437682 -0.332439 -0.674584 0.619138 0.402
-0.154988 0.0974055 -0.223533 -0.674584 0.619138 0.402
0.0930243 0.158626 0.0983621 -0.674584 0.619138 0.402
0.210206 0.238926 0.171328 -0.674584 0.619138 0.402
0.239177 0.0883934 0.451784 -0.674584 0.619138 0.402
-0.0518164 -0.0508222 -0.135751 0.0682825 0.594569 -0.80114
0.4204 0.420264 -0.0554797 0.735033 0.512987 0.443363
-0.32208 -0.426262 -0.0705348 0.674584 -0.619138 -0.402
0.403364 0.198193 0.229706 0.735033 0.512987 0.443363
0.368975 0.305555 -0.0379993 0.674584 -0.619138 -0.402
-0.0545775 -0.193554 0.330382 0.676326 -0.508364 -0.533056
0.111675 0.362799 -0.184797 -0.674584 0.619138 0.402
0.0581531 -0.145163 0.214577 -0.907131 0.37125 0.198208
-0.270222 -0.175555 0.00349497 -0.674584 0.619138 0.402
0.157618 0.354366 -0.285271 0.0683047 0.594556 -0.801147
0.154222 0.363204 -0.176214 0.674584 -0.619138 -0.402
-0.374615 -0.468456 0.0353344 -0.735033 -0.512987 -0.443363
0.013626 -0.0229035 0.176163 0.58019 -0.137393 -0.802809
0.285443 0.104369 0.504817 -0.674584 0.619139 0.402
0.322093 0.546385 -0.11445 -0.674588 0.619139 0.401992
-0.156296 -0.179185 0.138073 0.674584 -0.619138 -0.402
0.134086 0.240193 -0.0205483 0.674584 -0.619138 -0.402
0.112681 -0.0584316 0.403459 0.674584 -0.619139 -0.401999
-0.310974 -0.0208791 -0.303113 -0.674584 0.619138 0.402
0.362743 0.134842 0.214466 0.674587 -0.619137 -0.401998
-0.0146733 -0.0625871 0.0459167 -0.0682833 -0.594569 0.80114
0.428576 0.478689 -0.169911 0.0682826 0.594569 -0.80114
-0.0732217 -0.277311 0.349651 -0.0682826 -0.594569 0.80114
0.233885 0.305588 -0.244759 -0.0682932 -0.594557 0.801148
-0.420278 -0.415423 0.121124 -0.674585 0.619138 0.402
-0.10007 -0.209695 0.126591 -0.735033 -0.512987 -0.443363
-0.180242 0.111993 -0.423733 -0.0682825 -0.594569 0.80114
0.0699264 0.326323 -0.198676 -0.674584 0.619138 0.402
0.270402 0.115536 0.462378 -0.674584 0.619138 0.402
-0.311553 -0.384377 0.119021 0.732134 0.63079 0.257065
-0.254433 -0.123387 -0.0503561 -0.674584 0.619138 0.402
0.361602 0.377474 0.091508 0.735033 0.512987 0.443363
0.0640316 -0.153592 0.278417 -0.0682825 -0.594569 0.80114
-0.174313 0.0721823 -0.452774 -0.0682825 -0.594569 0.80114
-0.286105 -0.257691 -0.26979 0.674584 -0.619138 -0.402
0.220846 -0.120619 0.420792 0.0682826 0.594569 -0.80114
0.024871 0.129845 0.0283228 -0.674584 0.619138 0.402
0.0961825 0.132007 -0.228476 0.674584 -0.619138 -0.402
-0.109715 -0.0368743 -0.0573792 -0.735033 -0.512987 -0.443363
-0.260275 -0.307226 0.22298 -0.674584 0.619138 0.402
-0.156359 0.00780784 -0.171253 0.906472 0.298454 0.298722
0.31347 0.480029 -0.0851818 0.0131499 0.554561 -0.832039
0.227389 -0.166077 0.45079 0.674584 -0.619138 -0.401999
0.282721 -0.000447174 0.377613 -0.735033 -0.512987 -0.443363
-0.249265 -0.377552 0.260253 -0.0682827 -0.594569 0.80114
-0.138238 -0.409228 0.211729 0.674584 -0.619138 -0.401999
-0.183496 0.094159 -0.26637 -0.674584 0.619138 0.402
0.171735 0.385014 -0.118226 -0.674584 0.619138 0.402
-0.0482956 -0.189537 0.397438 -0.674584 0.619139 0.401999
0.0934103 0.0768162 -0.148126 0.674584 -0.619138 -0.402
0.116786 0.0234447 0.346434 -0.674584 0.619138 0.402
-0.193164 0.113808 -0.493701 0.0682824 0.594569 -0.80114
0.212273 -0.121271 0.419578 0.0682826 0.594569 -0.80114
-0.333591 -0.0946661 -0.227422 -0.674584 0.619138 0.402
-0.249086 -0.331496 -0.0493071 0.735033 0.512987 0.443363
-0.305031 -0.33113 0.122503 0.674582 -0.619137 -0.402005
0.371875 0.411518 0.0350871 0.735033 0.512987 0.443363
-0.0603117 0.160622 -0.162022 -0.674584 0.619138 0.402
-0.151616 -0.185835 0.218358 -0.674584 0.619138 0.402
-0.00826139 0.153278 -0.0633669 -0.674584 0.619138 0.402
-0.125506 -0.0850343 0.0447359 0.674584 -0.619138 -0.402
0.254321 -0.148271 0.46856 0.674584 -0.619138 -0.401999
-0.332302 -0.114082 -0.444836 -0.735033 -0.512987 -0.443363
0.0134271 -0.0339226 -0.0552369 -0.0682826 -0.594569 0.80114
-0.0176715 0.0826555 -0.203679 0.710379 -0.592803 -0.379404
-0.00966799 -0.316859 0.285218 0.674584 -0.619138 -0.402
0.00453131 -0.251139 0.30549 0.0682758 0.594576 -0.801136
-0.141379 -0.199033 0.178669 -0.267463 -0.76271 -0.588844
-0.105969 -0.256176 0.362546 -0.0682826 -0.594569 0.80114
-0.241732 -0.362352 -0.0257975 0.735033 0.512987 0.443363
0.359371 0.322321 -0.0799378 0.674584 -0.619138 -0.402
0.265835 0.353435 0.0883151 -0.674584 0.619138 0.402
-0.228833 -0.183095 0.00484614 0.456153 0.777773 -0.432426
-0.0152137 0.304493 -0.337016 0.0682823 0.594569 -0.80114
-0.270725 -0.340321 -0.0032213 0.735033 0.512987 0.443363
0.30184 0.527356 -0.119129 -0.674584 0.619138 0.402
-0.26066 -0.434061 0.100542 0.699645 0.709922 0.0806708
0.350404 0.403331 -0.219753 0.674584 -0.619138 -0.401999
-0.0465729 -0.299923 0.264928 0.0682814 0.59457 -0.801139
0.273011 0.0248361 0.364459 -0.735033 -0.512987 -0.443363
-0.0211967 -0.00994402 0.104124 0.674584 -0.619138 -0.402
0.199634 0.281431 0.0259336 0.674584 -0.619138 -0.402
-0.211425 -0.0628941 -0.226825 0.674584 -0.619138 -0.402
0.165164 -0.0445551 0.465277 0.606449 -0.204968 -0.76825
0.120436 0.103753 -0.144262 0.674584 -0.619138 -0.402
-0.146074 0.10427 -0.219146 -0.674584 0.619138 0.402
-0.427347 -0.356993 -0.00620949 -0.735033 -0.512987 -0.443363
0.0194424 -0.00293654 -0.0941389 0.0682825 0.594569 -0.80114
-0.0820687 0.0360828 -0.178371 -0.0682825 -0.594569 0.80114
0.368188 0.527421 -0.0929039 0.735033 0.512987 0.443363
-0.148376 0.0194535 -0.0923791 -0.674584 0.619139 0.401999
-0.181204 0.0308899 -0.538215 0.674584 -0.619138 -0.402
0.23234 0.395686 -0.0329627 -0.674584 0.619138 0.402
-0.0230996 0.240169 -0.315212 -0.0517455 -0.60955 0.791057
0.345066 0.243402 0.0176027 0.674584 -0.619138 -0.402
0.210028 0.368569 -0.0286398 -0.674584 0.619138 0.402
-0.160277 0.00715049 -0.0934016 -0.674584 0.619138 0.402
0.226291 0.474851 -0.16504 -0.674584 0.619138 0.402
-0.207413 -0.232619 0.134591 0.674584 -0.619138 -0.402
0.0825141 0.185662 -0.0696778 0.735033 0.512987 0.443363
-0.312545 -0.349747 0.0770159 0.735033 0.512987 0.443363
-0.388524 -0.0335637 -0.444791 -0.735033 -0.512987 -0.443363
0.130236 -0.0422597 0.470199 -0.674584 0.619138 0.402
-0.277486 -0.386803 0.0617696 0.735033 0.512987 0.443363
-0.251929 -0.391925 -0.00570185 0.674584 -0.619138 -0.402
0.162215 0.301117 -0.324399 0.0682826 0.594569 -0.80114
-0.0249586 -0.00497387 0.152345 -0.674584 0.619138 0.402
0.0196498 0.188226 -0.35012 -0.0682893 -0.594561 0.801145
0.0293253 -0.0165916 0.261331 -0.674584 0.619138 0.402
0.107122 0.296545 -0.262275 -0.0682825 -0.594569 0.80114
0.0492762 0.0270159 0.165459 0.674584 -0.619138 -0.402
0.165277 0.353024 -0.285614 0.0682826 0.594569 -0.80114
-0.273298 -0.167541 -0.19936 0.712537 0.403784 0.573802
0.179781 0.190878 0.194272 -0.674584 0.619138 0.402
-0.0498722 0.234134 -0.392187 0.0682823 0.594569 -0.80114
-0.0216437 -0.337383 0.296732 0.674584 -0.619138 -0.401999
0.0593295 0.0561429 0.134148 0.932091 -0.324347 -0.16126
-0.210737 -0.233126 0.191983 -0.674584 0.619138 0.402
0.0342371 0.330083 -0.264356 -0.674584 0.619138 0.402
0.326134 0.466294 0.015683 -0.674584 0.619139 0.402
-0.193674 -0.456727 0.19186 0.674584 -0.619138 -0.401999
0.273018 0.216586 0.311137 -0.674584 0.619138 0.402
-0.199498 -0.0766357 -0.0301749 -0.674584 0.619138 0.402
0.407809 0.214766 0.203163 0.735033 0.512987 0.443363
-0.00698325 0.192534 -0.419405 0.068338 0.594525 -0.801168
-0.243769 -0.393253 0.249069 -0.0682827 -0.594569 0.80114
0.389394 0.467311 -0.0585109 0.735033 0.512987 0.443363
-0.245743 0.0738501 -0.339547 -0.674584 0.619138 0.402
-0.429027 -0.388146 0.0326203 -0.735033 -0.512987 -0.443363
0.0410145 0.0658611 -0.0412418 0.0682825 0.594569 -0.80114
0.0573933 0.335654 -0.234078 -0.674584 0.619138 0.402
-0.346104 -0.202147 -0.165684 0.656347 -0.374113 -0.65517
-0.272185 -0.0132605 -0.311944 0.674584 -0.619138 -0.402
0.244657 0.123156 0.407441 -0.674584 0.619138 0.402
0.31367 0.261555 0.0231596 -0.735033 -0.512987 -0.443363
-0.201877 -0.0651285 -0.207363 0.674584 -0.619138 -0.402
0.0423715 0.33188 -0.253473 -0.674584 0.619138 0.402
0.104547 0.303386 -0.167442 0.674584 -0.619138 -0.402
-0.104029 0.111688 -0.160017 -0.674584 0.619138 0.402
-0.240241 -0.18583 -0.303504 0.674584 -0.619138 -0.402
-0.116356 0.203126 -0.420866 0.0682823 0.594569 -0.80114
0.136704 0.358983 -0.13692 -0.674584 0.619138 0.402
0.302865 0.0341648 0.304171 -0.735033 -0.512987 -0.443363
-0.30015 -0.285473 -0.0178998 0.735033 0.512987 0.443363
-0.244872 -0.199394 -0.290384 0.674584 -0.619138 -0.402
0.000515611 0.207798 -0.367493 0.382525 -0.757246 -0.52939
-0.325989 0.0030012 -0.582624 -0.485236 0.0384869 -0.873536
0.126044 0.248635 -0.357991 0.674584 -0.619138 -0.401999
0.135709 0.0441435 0.28412 0.674584 -0.619138 -0.402
0.141376 0.326187 -0.140758 0.674584 -0.619138 -0.402
-0.0589776 -0.279917 0.285486 0.710382 -0.5928 -0.379402
-0.329957 -0.486646 0.00924609 0.674584 -0.619138 -0.402
-0.323906 0.0883181 -0.523761 0.068297 0.594549 -0.801153
0.0719548 0.154338 -0.163663 0.637109 -0.643938 -0.423599
0.265098 -0.0550919 0.543408 -0.0682824 -0.594569 0.80114
-0.299285 -0.138826 -0.101843 -0.674584 0.619138 0.402
0.0559401 0.0185893 0.251809 -0.674584 0.619138 0.402
-0.291406 -0.482731 0.0679082 0.674584 -0.619138 -0.402
0.0933921 0.290671 -0.10439 -0.674584 0.619138 0.402
-0.0610432 -0.182924 0.303673 0.674584 -0.619138 -0.402
-0.29204 -0.406627 0.235029 -0.0682827 -0.594569 0.80114
0.0834044 -0.146865 0.459812 -0.0682825 -0.594569 0.80114
0.305907 0.467466 -0.0200647 -0.674582 0.61914 0.402
-0.262257 -0.100727 -0.165913 0.128289 -0.80158 -0.583961
-0.101775 -0.396445 0.258802 -0.0682821 -0.594569 0.80114
0.157938 0.115433 0.211627 0.674584 -0.619138 -0.402
0.202267 0.279088 -0.276984 0.674584 -0.619138 -0.402
0.0316954 -0.0191321 0.269221 -0.674584 0.619138 0.402
-0.03457 -0.217374 0.0902095 0.674584 -0.619138 -0.402
-0.124416 0.126654 -0.279467 0.674584 -0.619138 -0.402
0.03662 -0.0737351 -0.0115536 0.674584 -0.619138 -0.402
-0.367343 -0.131291 -0.227653 -0.674584 0.619138 0.402
-0.384392 -0.0470994 -0.435981 -0.735033 -0.512987 -0.443363
-0.132092 0.0854059 -0.509574 0.0682247 0.594616 -0.80111
-0.189948 0.132044 -0.401633 0.553291 -0.831766 0.0451049
0.104254 0.0356397 0.244434 0.674584 -0.619138 -0.402
-0.377454 -0.0713393 -0.336954 -0.674584 0.619138 0.402
-0.193524 -0.0860726 -0.161089 0.674584 -0.619138 -0.402
0.311224 -0.0378879 0.394042 0.674584 -0.619138 -0.402
0.062305 -0.0329506 0.0517026 -0.143318 0.800531 0.581902
-0.0159556 0.311498 -0.31996 -0.674584 0.619138 0.402
-0.148345 -0.386073 0.192318 0.0683024 0.594555 -0.801148
-0.0315891 0.232096 -0.223903 -0.674584 0.619138 0.402
-0.0177167 0.100298 -0.246434 0.97385 0.134687 0.182961
-0.347768 -0.288848 0.0478556 -0.674584 0.619138 0.402
-0.1942 0.0496079 -0.541435 0.0682824 0.594569 -0.80114
-0.0962824 0.258355 -0.372906 -0.674584 0.619138 0.402
-0.104231 -0.104155 0.104865 0.606986 -0.206447 -0.767429
0.376343 0.334957 -0.0709182 0.674584 -0.619138 -0.402
-0.0954469 0.137591 -0.282896 -0.735033 -0.512987 -0.443363
0.137985 -0.196787 0.427414 -0.0683021 -0.594547 0.801155
0.0709708 0.130241 -0.268063 0.674584 -0.619138 -0.402
0.394236 0.383112 -0.115061 0.674584 -0.619138 -0.402
-0.235519 -0.10667 -0.190963 -0.735033 -0.512987 -0.443363
-0.00630324 0.112823 -0.237803 0.0442809 -0.804029 -0.592939
-0.205263 -0.12718 0.0379977 -0.674584 0.619138 0.402
0.299005 0.474408 -0.184131 0.0682826 0.594569 -0.80114
-0.102279 -0.195725 0.233957 0.170595 -0.772782 0.611314
0.0163387 0.203379 -0.234618 0.0682825 0.594569 -0.80114
0.368158 0.279266 0.194269 0.735033 0.512987 0.443363
-0.274071 -0.273074 -0.187015 0.0682826 0.594569 -0.80114
-0.0425736 -0.115067 0.292346 -0.674584 0.619138 0.402
0.185069 0.133518 0.229299 0.674584 -0.619138 -0.402
-0.38383 -0.262477 -0.0532753 -0.674584 0.619138 0.402
0.0155435 0.124436 -0.0411879 0.674584 -0.619138 -0.402
-0.195875 -0.118537 0.0404385 -0.674584 0.619138 0.402
