ply
format ascii 1.0
comment Created by Open3D
element vertex 128
property double x
property double y
property double z
property double nx
property double ny
property double nz
end_header
-0.186069 -0.062712 -0.0555708 -0.778265 0.0638609 -0.624681
-0.450854 0.147279 -0.227099 -0.731083 0.0800371 -0.677578
-0.210234 0.180524 -0.230424 0.905978 0.204285 -0.37077
-0.357457 0.154381 -0.219993 -0.140503 0.945242 -0.294577
0.212778 -0.165099 0.289039 -0.656656 -0.353002 0.666478
-0.11527 -0.0460788 0.0240719 -0.651623 -0.368982 0.662752
0.123952 -0.176871 0.144899 0.545419 -0.689564 -0.476466
0.345826 0.039871 0.287524 0.357827 -0.786349 -0.503601
-0.0752065 -0.117774 -0.0572811 0.769512 -0.623122 -0.13989
-0.350493 0.071483 -0.160101 -0.713862 -0.26244 0.649251
0.159149 -0.0151986 0.208005 -0.110266 -0.701131 -0.704455
0.357491 -0.150348 0.301671 -0.717878 -0.298002 -0.629163
0.235489 0.0105644 0.320839 0.209426 -0.754903 -0.6215
-0.125811 0.0825686 0.0858383 -0.198415 0.480831 0.854068
-0.383948 -0.102921 -0.300404 -0.225191 0.852032 0.472578
0.18401 -0.00892571 0.0566369 0.99619 0.0309811 -0.0815206
-0.174223 -0.12478 -0.205551 0.174632 -0.62993 -0.756764
-0.206406 -0.0440363 -0.274258 -0.964245 0.263548 0.0278162
-0.0425572 -0.0202144 0.10846 -0.680362 -0.296443 0.670246
-0.178333 0.0898502 -0.0171018 0.706987 -0.152905 0.690499
-0.245639 0.0228959 -0.0660641 -0.985579 0.0425466 0.163781
-0.28344 0.159129 -0.24371 -0.0952232 0.914207 -0.393902
0.25106 -0.0483218 0.159759 -0.756913 0.425672 -0.495869
0.0659039 0.088973 0.192684 -0.304731 0.681311 0.665548
-0.29813 0.17313 -0.321554 0.0156029 0.998792 0.0465951
0.305629 -0.159627 0.373039 -0.169903 0.868028 0.466541
-0.335974 0.122305 -0.123091 0.185775 0.968195 0.167591
-0.11809 -0.0760319 0.00926479 -0.547956 -0.523351 0.652571
-0.335146 -0.108905 -0.381672 -0.195214 -0.948889 0.247993
-0.245532 -0.0387986 -0.191791 0.472939 0.193082 0.859679
-0.113939 0.153427 -0.202551 0.401251 -0.72613 -0.558331
-0.204012 0.0247417 -0.26572 0.59467 0.395825 -0.699778
0.00260358 0.0506534 -0.0733825 0.649257 0.377322 -0.660373
-0.0126047 -0.035239 0.120159 -0.774218 -0.281572 0.566837
0.303381 -0.140308 0.121633 0.649559 0.360394 -0.66947
0.338213 0.113419 0.376436 0.986398 -0.00506355 0.164297
-0.131373 0.0261478 -0.0793743 0.961089 -0.258798 0.0966022
-0.145267 0.0609432 -0.217479 0.214531 -0.510215 -0.832861
0.29166 -0.18047 0.284301 -0.316957 -0.946366 0.0626893
0.12374 0.129819 0.108028 -0.194052 0.937113 0.290109
-0.260482 -0.132627 -0.162131 -0.337438 -0.501413 0.796693
0.0499219 -0.0605404 0.00346608 -0.315473 -0.227698 -0.921211
0.208108 -0.125732 0.0344992 0.611618 0.411046 -0.675991
-0.34614 -0.154135 -0.268308 -0.959259 0.0379611 -0.279965
-0.184097 -0.0453769 -0.05621 -0.0718398 -0.69772 0.712759
-0.248801 0.111227 -0.0560553 0.346696 0.187431 0.91906
0.05389 0.0904457 -0.0150855 0.660943 0.342866 -0.667531
-0.413358 0.0398149 -0.218451 0.121953 -0.974161 -0.190098
0.0092478 -0.040016 -0.109422 0.889254 -0.154948 -0.430371
0.113057 -0.0450146 0.125882 0.784126 -0.32219 0.530416
-0.0379543 -0.0185341 -0.159814 0.862346 -0.424997 -0.275204
-0.178828 0.132461 -0.114244 -0.302951 0.811958 0.498945
-0.285611 -0.0542594 -0.405124 -0.241448 0.920927 0.305934
-0.264439 0.113772 -0.0624001 0.566639 0.447402 0.691919
-0.0518625 0.0679526 0.137931 0.859224 -0.218659 -0.462517
-0.306919 0.174034 -0.33385 0.581689 0.417389 -0.698158
0.0633615 -0.0621431 0.167397 -0.710575 -0.260886 0.653468
0.0704939 0.0930348 0.00530411 -0.129871 0.944872 -0.300583
-0.0782554 -0.125878 -0.0730995 0.863102 -0.235426 -0.446799
0.0992485 -0.00781415 -0.0386724 0.82694 0.147114 -0.542703
-0.232737 0.0630641 -0.231977 -0.132061 0.47765 -0.868568
-0.201696 -0.0903141 -0.364788 0.39325 -0.825156 -0.405552
-0.320751 0.0527229 -0.264888 -0.865427 0.0726769 -0.495736
-0.226169 0.158683 -0.269419 -0.0170745 0.972447 0.232497
-0.279318 0.0270745 -0.112715 -0.747998 -0.232604 0.621606
0.249499 0.0177053 0.137987 0.494404 0.521691 -0.695272
0.180626 -0.0492429 0.301574 0.875339 -0.0244617 0.48289
-0.000889856 0.125549 0.0494772 -0.207713 0.930362 -0.302129
0.120107 -0.153019 0.0612903 0.221306 -0.711587 -0.666834
-0.0786455 -0.13192 -0.160865 0.165045 -0.986254 -0.00795319
0.138426 -0.184601 0.169338 0.181474 -0.939647 -0.290051
-0.156086 -0.0825015 -0.150703 -0.461868 0.885857 -0.0439909
0.119315 0.0501015 0.0983646 -0.778126 0.229622 -0.584632
0.13935 0.0407799 0.335002 -0.951188 0.146015 0.271883
0.167352 0.140444 0.182449 -0.692759 0.696703 0.18625
-0.178574 -0.15418 -0.0970078 -0.831237 -0.306582 0.463737
0.246571 0.10611 0.285826 0.0117538 0.999926 -0.0030117
-0.379515 0.142375 -0.2967 0.413091 -0.556998 -0.720493
-0.281871 -0.114335 -0.327853 -0.0752184 -0.90951 0.40882
-0.138134 0.079935 -0.21817 0.594565 0.455305 -0.662714
0.402405 0.112413 0.291879 0.662451 0.106758 -0.741459
-0.14167 -0.154824 -0.10231 0.275801 -0.8526 -0.443855
0.337009 -0.114951 0.224174 0.0429409 0.995692 0.082182
-0.0873414 -0.0559367 -0.226217 0.98032 -0.191325 -0.0486531
0.174248 -0.0253302 0.0706721 0.74351 0.185021 -0.64262
0.160774 0.0642175 0.241127 -0.637942 0.738042 -0.219827
-0.10855 0.0121214 -0.147153 -0.412062 -0.707244 -0.574466
-0.0831726 0.140792 -0.115873 0.664634 0.0685878 0.744014
-0.0556015 0.0834972 0.130115 0.41853 -0.0804694 0.904631
0.343966 0.0358468 0.304465 0.315122 -0.895862 -0.313255
-0.0467815 0.113536 -0.0202314 -0.826175 0.035031 -0.562324
0.0887098 0.103516 0.271616 -0.411818 0.880654 0.234211
-0.146529 -0.0998839 -0.291754 0.835051 0.0331171 0.549175
-0.195737 0.0285028 -0.150214 0.417377 -0.908383 0.0252429
0.140579 0.144895 0.120851 0.208894 0.977328 0.0345487
0.07415 0.100878 0.287573 0.214121 -0.780556 -0.587268
-0.122685 -0.0760429 -0.145955 -0.908639 0.412898 -0.0623724
-0.237196 -0.117808 -0.128916 -0.81919 -0.167833 0.548416
0.231701 -0.152491 0.168889 0.40333 -0.694394 -0.595938
0.143058 0.0390079 0.0778518 -0.121346 0.614531 -0.779504
0.091744 -0.0284868 0.244985 -0.527229 -0.471762 0.706732
0.240858 -0.0192636 0.228583 0.87456 0.0590883 0.481304
0.316594 -0.0104506 0.387208 0.339759 -0.939211 -0.049457
0.0742271 -0.180641 0.10541 -0.539996 -0.834637 -0.108561
0.183662 -0.125408 0.121383 -0.13251 0.911208 0.390052
-0.0173397 0.0494919 -0.0756876 -0.308848 0.836967 0.451773
-0.0440974 -0.0095792 -0.0184942 0.687147 -0.223211 0.69138
0.133894 -0.0904529 -0.00399172 0.328437 0.668438 -0.667323
0.283739 0.0250711 0.216332 0.444611 -0.597251 -0.667542
-0.248305 0.136448 -0.146315 0.23514 -0.79 -0.566223
0.298275 0.105664 0.352303 -0.932629 -0.0881371 -0.349906
0.299277 0.135932 0.196164 -0.099767 0.776503 -0.622165
0.217564 0.0915014 0.359789 -0.129959 0.957897 0.256014
-0.0843555 0.0365986 -0.00325896 -0.58382 0.272334 -0.764845
0.0146833 0.0201973 0.0546192 0.41793 -0.064632 0.906177
-0.3568 0.082477 -0.352766 -0.721367 0.0536414 -0.690472
-0.316496 -0.0550514 -0.176691 -0.638419 0.168084 -0.751112
0.0479914 0.0348856 0.179013 -0.812405 -0.578802 -0.070605
0.00743169 -0.113926 0.0478782 -0.555467 -0.557865 -0.616638
-0.441175 0.114375 -0.203045 -0.744129 -0.140379 0.65312
0.221052 -0.145029 0.0519924 0.768924 0.121628 -0.627664
0.154486 -0.125113 0.242129 -0.437135 0.744935 -0.503969
0.316468 0.135461 0.280377 -0.300758 0.833824 0.462907
0.279956 0.0288016 0.454929 0.123001 -0.401857 0.907404
0.243062 -0.0149016 0.382994 -0.918474 0.194914 0.344114
0.407989 0.117711 0.29651 0.27468 0.564632 -0.778294
-0.00936042 -0.105951 -0.124049 0.626012 -0.776384 0.0730592
0.43339 -0.139884 0.269571 0.619439 0.415096 -0.666326
