ply
format ascii 1.0
comment Created by Open3D
element vertex 816
property double x
property double y
property double z
property double nx
property double ny
property double nz
end_header
0.167719 -0.148231 0.243737 -0.533654 -0.828058 0.171853
0.239601 -0.124807 0.40659 0.868203 -0.413823 -0.273813
-0.151487 0.045393 0.0577488 -0.720891 0.655037 0.226369
-0.0256992 0.0598901 0.409958 -0.622702 0.757803 0.194875
0.147805 0.0425753 0.226965 0.533654 0.828058 -0.171853
-0.0443842 0.0981562 0.0492498 -0.0902994 0.995592 0.0253505
0.131841 0.0675726 0.297838 0.533654 0.828058 -0.171853
-0.118722 0.0080468 0.107263 -0.533654 -0.828058 0.171853
-0.230784 0.0229181 -0.425632 -0.478081 0.396071 -0.783943
0.218584 -0.0365188 0.30264 0.942267 0.150498 -0.299137
0.134245 -0.0531674 0.0310873 0.951886 0.0547551 -0.301523
-0.10155 -0.0515217 -0.471931 0.112191 0.0494678 -0.992455
0.023923 0.0158263 -0.0368083 0.533654 0.828058 -0.171853
0.0759058 -0.0347045 -0.118864 0.533654 0.828058 -0.171853
0.0435203 -0.0899908 0.138689 -0.533654 -0.828058 0.171853
0.0299666 -0.0728453 0.179215 -0.533654 -0.828058 0.171853
-0.00566024 -0.0947109 -0.0367741 -0.533655 -0.828058 0.171853
0.17319 -0.108612 0.451628 -0.533654 -0.828058 0.171853
-0.0324612 0.0545929 -0.025104 0.533654 0.828058 -0.171853
-0.132031 0.0455189 -0.37539 0.521535 -0.162266 0.837658
-0.0616325 -0.0499199 -0.463273 0.304784 0.0717315 -0.949717
0.0749335 -0.151457 -0.0599337 -0.533654 -0.828058 0.171853
-0.209894 0.0871927 -0.130743 -0.367492 0.702374 0.609606
-0.0532477 -0.0132986 -0.158715 -0.341122 0.0248196 -0.939691
-0.185903 -0.0519281 -0.390336 -0.533654 -0.828058 0.171853
0.15148 -0.118609 0.118978 0.886141 -0.369532 -0.279643
-0.0518801 0.0913698 0.138955 -0.305919 0.947421 0.0938512
0.00189903 -0.0450863 -0.3987 0.533654 0.828058 -0.171853
-0.240617 0.0670214 -0.132429 -0.547296 0.610315 0.572698
-0.0990519 -0.0187608 0.0391757 -0.533654 -0.828058 0.171853
0.15422 0.0805397 0.429814 0.533654 0.828058 -0.171853
0.127648 0.0739827 0.315705 0.533654 0.828058 -0.171853
0.0732443 -0.139453 -0.0973816 0.847691 -0.458291 -0.267189
-0.0600063 -0.135082 -0.450056 0.319271 -0.330517 -0.888158
0.083104 0.0427387 0.0268363 0.533654 0.828058 -0.171853
-0.007528 -0.117815 -0.153898 -0.533654 -0.828058 0.171853
-0.0850428 0.127372 0.121652 -0.342516 0.93357 0.105496
0.0719268 -0.140754 -0.285672 0.922998 -0.358118 -0.140806
-0.0116264 -0.108283 -0.120695 -0.533654 -0.828058 0.171853
-0.0123059 -0.0477938 0.168655 -0.533654 -0.828058 0.171853
0.210966 -0.1086 0.458007 0.302129 0.00312725 0.953262
-0.0408218 -0.0735994 -0.161305 -0.585226 0.214888 -0.781879
-0.10318 0.0639563 -0.171105 0.276291 -0.362764 -0.889981
0.164723 -0.124581 0.34839 -0.533654 -0.828058 0.171853
0.172999 -0.123597 0.193761 0.886141 -0.369532 -0.279643
-0.139032 -0.0211866 -0.0966635 -0.533654 -0.828058 0.171853
-0.304776 0.0545643 -0.277393 -0.832922 0.544214 -0.100361
-0.0130337 -0.0385718 -0.359693 -0.499612 0.472643 0.725945
0.0438596 -0.0275617 0.440552 -0.533654 -0.828058 0.171853
0.0965345 -0.0898162 -0.0809818 0.937039 -0.184863 -0.296282
0.176567 0.0208262 0.238457 0.818989 0.510888 -0.261247
0.196489 -0.0144904 0.249686 0.911674 0.291217 -0.289903
0.108268 -0.137073 0.11289 -0.533654 -0.828058 0.171853
-0.152738 0.0412576 -0.361183 0.6431 -0.265375 0.71833
0.0941562 0.100124 0.435434 0.00982775 0.999931 -0.00639429
-0.0447636 0.00985007 0.345616 -0.533654 -0.828058 0.171853
-0.0565847 -0.073212 -0.0913192 -0.533654 -0.828058 0.171853
-0.045449 0.0499905 -0.0876111 0.533654 0.828058 -0.171853
0.128975 0.0947651 0.419965 0.533654 0.828058 -0.171853
0.172859 -0.134685 0.324971 -0.533655 -0.828058 0.171853
0.0197305 -0.0231554 -0.216904 -0.776414 0.399154 -0.487706
0.0502802 -0.129007 -0.0283153 -0.533654 -0.828058 0.171853
0.193324 0.0245832 0.298373 0.794565 0.551665 -0.25364
-0.154966 0.0985036 -0.193938 0.533654 0.828058 -0.171853
-0.00699362 -0.0355247 0.244269 -0.533654 -0.828058 0.171853
-0.0798912 0.0200666 -0.156037 -0.0558747 -0.168241 -0.984161
-0.0347909 -0.00172289 0.320821 -0.533654 -0.828058 0.171853
-0.042435 0.0755257 0.00781518 0.292485 0.700627 -0.650826
0.208468 0.0427941 0.416395 0.533654 0.828058 -0.171853
-0.251746 0.0236927 -0.230426 -0.533654 -0.828058 0.171854
0.10265 0.0478461 0.112143 0.533654 0.828058 -0.171853
-0.240125 0.0198268 -0.212965 -0.533655 -0.828058 0.171852
-0.129114 0.0618483 0.114888 -0.302128 -0.00312623 -0.953262
-0.0323549 -0.066136 0.0180168 -0.533654 -0.828058 0.171853
-0.0209537 -0.147229 -0.337319 -0.533654 -0.828058 0.171853
0.010509 0.0143658 0.521137 0.302127 0.00312407 0.953262
0.144503 -0.11714 0.321454 -0.533654 -0.828058 0.171853
0.00987049 0.102991 0.0897467 0.533654 0.828058 -0.171853
-0.276197 0.0898942 -0.246897 -0.690001 0.721695 0.0552797
-0.0897045 0.034446 -0.159177 0.0705207 -0.246071 -0.966683
-0.226504 0.0859604 -0.37658 -0.480678 0.701332 -0.526386
0.171347 -0.119041 0.0652874 0.302129 0.00312678 0.953262
0.240788 -0.0488774 0.367825 0.951785 0.0547541 -0.30184
0.0643329 -0.021599 0.504196 0.302129 0.00312725 0.953262
-0.116007 0.00870138 0.11885 -0.533654 -0.828058 0.171853
0.127845 -0.149501 0.1138 -0.533654 -0.828058 0.171853
0.0502931 -0.134832 -0.0563402 -0.533654 -0.828058 0.171853
-0.126956 0.00193602 -0.143024 0.154073 -0.295001 -0.942993
0.0998575 0.0689827 0.205315 0.533654 0.828058 -0.171853
-0.0123175 -0.0200056 0.302514 -0.533654 -0.828058 0.171853
-0.188154 0.118583 -0.200247 0.533654 0.828058 -0.171853
-0.11755 0.0277659 -0.418592 0.533654 0.828058 -0.171853
-0.00191404 0.0154803 -0.118707 0.533654 0.828058 -0.171853
0.173044 -0.148554 0.258714 -0.533654 -0.828058 0.171853
-0.00170733 0.0872324 0.34032 -0.349013 0.930924 0.107564
-0.155672 0.108189 -0.147948 0.441378 0.89604 -0.0479358
0.0242292 -0.0443568 -0.296046 -0.810263 0.558833 0.17658
0.0792787 -0.101089 0.196254 -0.533654 -0.828058 0.171853
0.0618633 -0.00486136 -0.0333463 0.397647 0.77675 -0.488402
0.179372 -0.0820836 0.177013 0.944361 -0.137353 -0.298857
-0.00415825 0.000112611 -0.182291 -0.554069 0.188811 -0.810776
-0.0991231 -0.00379528 -0.389833 0.139628 0.114149 0.983603
-0.0705157 -0.00697997 -0.439958 0.533654 0.828058 -0.171853
-0.0605483 -0.0755297 -0.378041 -0.315788 0.38362 0.867821
0.00252761 -0.0688073 0.113466 -0.533654 -0.828058 0.171853
0.0248912 -0.0780031 -0.410717 0.698739 -0.0754913 -0.711383
0.00231955 -0.0688557 -0.21216 -0.533654 -0.828058 0.171853
-0.0553452 -0.0839634 -0.371817 -0.392335 0.422423 0.817088
-0.0201026 0.0736331 0.36723 -0.512335 0.843823 0.159613
0.0403979 -0.0818613 0.168165 -0.533654 -0.828058 0.171853
-0.116189 0.0387712 -0.164954 0.236102 -0.341004 -0.90993
0.0400866 -0.100826 -0.389187 0.777162 -0.161028 -0.60835
-0.207521 0.0177788 -0.327604 0.776415 -0.399155 0.487704
-0.301691 0.0360096 -0.326173 -0.533654 -0.828058 0.171853
-0.0974331 -0.096693 -0.38029 -0.195328 0.318397 0.927615
-0.225564 0.113048 -0.187297 -0.472059 0.809587 0.348898
0.117212 -0.116572 0.00794321 0.902044 -0.324386 -0.284764
-0.0856107 0.0839832 0.0935695 -0.391262 0.912271 0.121142
0.146642 0.0706338 0.35855 0.533654 0.828058 -0.171853
0.020204 0.0224393 -0.0242837 0.437304 0.799065 -0.412626
0.0565276 -0.00909088 -0.0556223 0.533654 0.828058 -0.171853
0.0264857 -0.0586973 0.236576 -0.533654 -0.828058 0.171853
0.0777376 -0.137653 0.0152891 -0.533654 -0.828058 0.171853
0.150621 -0.140933 0.0719282 0.302128 0.00312558 0.953262
-0.00156022 -0.0282098 0.296387 -0.533654 -0.828058 0.171853
0.0957363 0.0956553 0.321037 0.533654 0.828058 -0.171853
0.0443221 -0.139196 -0.0959121 -0.533654 -0.828058 0.171853
0.0793762 0.0984294 0.469216 -0.127471 0.991146 0.0371501
0.0614211 0.0929309 0.492513 -0.305918 0.947421 0.0938509
-0.0151071 -0.0835323 -0.336992 -0.533654 -0.828058 0.171853
0.169366 -0.088346 0.471125 0.302129 0.00312725 0.953262
0.100954 -0.0598928 -0.0747577 0.953278 0.00664001 -0.30202
0.0543231 -0.0351428 -0.187997 0.533654 0.828058 -0.171853
0.221298 -0.0275788 0.316575 0.934226 0.197898 -0.296744
-0.0197725 -0.0111835 0.321872 -0.533654 -0.828058 0.171853
-0.0780956 0.102632 0.143619 0.302128 0.00312627 0.953262
-0.234452 0.0566202 -0.117664 -0.516461 0.54881 0.657325
0.0113953 -0.103352 -0.418629 0.633898 -0.188451 -0.750106
0.000651891 0.0992037 0.147841 0.00982775 0.999931 -0.00639429
0.039305 0.0953292 0.146879 0.192078 0.979285 -0.0640894
-0.0433014 0.0562447 -0.0508071 0.533654 0.828058 -0.171853
0.0843003 -0.0987149 -0.279225 0.980066 -0.166661 -0.108138
-0.210945 0.0152756 -0.144283 -0.533655 -0.828058 0.171853
-0.240884 0.0489707 -0.116483 -0.541616 0.513689 0.665414
0.0142332 -0.0226272 -0.208926 -0.739178 0.357974 -0.5705
-0.0579731 0.134574 0.13695 -0.254328 0.964012 0.0774457
0.095749 0.0299998 0.00835022 0.616027 0.622544 -0.482648
0.0734207 0.0899091 0.50095 0.302128 0.00312528 0.953262
-0.0386494 -0.0931102 -0.356541 -0.533001 0.487085 0.691851
-0.122824 0.0944208 -0.10592 0.257043 0.965537 0.0408397
0.229652 0.0332171 0.436032 0.533654 0.828058 -0.171853
-0.243248 0.0292168 -0.17742 -0.533654 -0.828058 0.171853
0.0241928 0.0188591 -0.0271075 0.448985 0.804616 -0.388594
0.177998 0.0452251 0.333491 0.533654 0.828058 -0.171853
0.0939666 -0.0570422 0.4541 -0.533654 -0.828058 0.171853
0.137991 0.0718348 0.337474 0.533654 0.828058 -0.171853
0.0326985 -0.0230164 -0.196717 0.533654 0.828058 -0.171853
-0.0587414 0.0434403 0.358823 -0.720105 0.656001 0.22608
-0.0957925 -0.0297959 -0.00387448 -0.533654 -0.828058 0.171853
0.0516688 -0.0576755 0.319701 -0.533654 -0.828058 0.171853
-0.147443 0.0763267 -0.0563054 -0.475169 0.8674 0.147756
-0.0609627 0.0775813 0.214396 -0.473055 0.868669 0.147082
-0.0111707 0.0643573 0.007538 0.163711 0.583312 -0.795579
-0.0272038 0.0800538 0.308371 -0.473055 0.868669 0.147082
0.0832606 0.096962 0.303565 0.192078 0.979285 -0.0640892
-0.156401 0.0667369 -0.351458 0.533654 0.828058 -0.171854
-0.165777 -0.063375 -0.382995 -0.533654 -0.828058 0.171853
0.202668 0.0394512 0.382276 0.533654 0.828058 -0.171853
-0.0826285 -0.0324629 0.0241531 -0.533654 -0.828058 0.171853
-0.0586829 0.0541427 -0.1087 0.533654 0.828058 -0.171853
-0.0130284 0.113237 0.0779273 -0.302129 -0.00312628 -0.953262
0.0824015 0.0998902 0.380837 0.00982775 0.999931 -0.00639429
0.0800288 0.0474458 0.0399681 0.533654 0.828058 -0.171853
0.0503893 0.0919395 0.466562 -0.305918 0.947421 0.0938509
-0.139732 -0.0045873 -0.0188548 -0.533654 -0.828058 0.171853
-0.0154747 -0.0365062 0.213203 -0.533654 -0.828058 0.171853
0.177352 -0.115467 0.19715 0.902024 -0.324387 -0.284825
0.0245081 0.0789683 0.481101 -0.473054 0.868669 0.147082
-0.207214 0.0158268 -0.196407 0.678541 -0.540526 -0.497407
-0.16477 0.0639346 -0.0509118 -0.588589 0.787223 0.183967
0.0716832 -0.118707 -0.1972 0.929144 -0.273885 0.248351
-0.0443333 -0.0934247 -0.150668 -0.533654 -0.828058 0.171853
-0.00186013 0.0444388 0.524959 0.302129 0.00312681 0.953262
-0.183632 0.0802393 -0.370959 0.533654 0.828058 -0.171853
0.150099 0.0324772 0.476836 0.302131 0.0031287 0.953261
-0.0312667 -0.00781275 -0.167621 -0.452652 0.108023 -0.88512
-0.0381973 0.0378425 -0.123627 0.533654 0.828058 -0.171853
-0.177112 0.0229805 -0.448973 -0.238265 0.405389 -0.882547
0.0589506 -0.0770295 -0.359548 0.806988 0.458388 -0.372359
-0.0601926 -0.0957068 -0.368074 -0.392332 0.422421 0.81709
-0.207903 0.00402211 -0.445888 -0.376943 0.300208 -0.876236
0.169685 -0.138819 0.295191 -0.533654 -0.828058 0.171853
0.0297363 0.089863 0.0881784 0.533654 0.828058 -0.171853
0.117695 0.0828021 0.327293 0.533654 0.828058 -0.171853
0.208413 -0.141744 0.336165 0.826339 -0.499426 -0.260263
0.168074 -0.0785747 0.066192 0.302128 0.00312587 0.953262
0.17869 -0.111066 0.0483262 0.928446 -0.227675 -0.293517
0.0560936 -0.0308025 -0.161585 0.533654 0.828058 -0.171853
-0.0708553 0.0901014 0.0899065 -0.305923 0.947421 0.093837
0.180978 -0.0698357 0.0361931 0.952723 -0.0347673 -0.301844
0.190778 -0.149784 0.307861 -0.533654 -0.828058 0.171853
-0.0204011 -0.0594617 -0.44569 0.490915 0.0103519 -0.871146
-0.2601 0.0276105 -0.237488 -0.533654 -0.828058 0.171853
-0.0319082 0.026638 0.466427 -0.533654 -0.828058 0.171853
0.155697 -0.146573 0.214395 -0.533654 -0.828058 0.171853
-0.100541 -0.0188277 -0.46747 0.116056 0.206087 -0.971627
0.00233636 0.0544914 0.519 -0.656718 0.725523 0.205762
0.118253 -0.130023 0.0297025 0.868217 -0.413822 -0.273771
-0.304785 0.0468106 -0.304965 -0.830318 0.521308 -0.197003
-0.26706 0.0158989 -0.315534 -0.533654 -0.828058 0.171854
-0.0459108 -0.0404235 0.099815 -0.533654 -0.828058 0.171853
-0.185619 0.103268 -0.266167 0.533654 0.828058 -0.171853
0.0789451 -0.109977 -0.120572 0.915343 -0.280207 -0.289191
0.0213331 -0.037948 0.320555 -0.533654 -0.828058 0.171853
-0.231044 0.069046 -0.3919 -0.473824 0.605035 -0.639862
0.0198036 -0.123046 -0.404305 0.681879 -0.285057 -0.673634
0.0557672 -0.173469 -0.232479 0.857457 -0.497573 0.131108
-0.00451559 0.0915571 0.0294145 0.173462 0.717442 -0.674676
-0.125134 -0.0726692 -0.388356 0.0558799 0.168237 0.984161
-0.0351165 -0.0550052 0.063074 -0.533654 -0.828058 0.171853
-0.0766278 -0.134264 -0.447731 -0.533654 -0.828058 0.171853
0.108471 -0.130548 0.144958 -0.533654 -0.828058 0.171853
0.159473 -0.00342252 0.145802 0.880675 0.381839 -0.280375
-0.1447 -0.00324905 -0.464367 -0.0728394 0.288201 -0.954796
-0.101977 -0.0320152 -0.47008 0.0945446 0.129034 -0.987123
0.04003 -0.0407722 0.365006 -0.533654 -0.828058 0.171853
-0.203597 0.0608575 -0.41628 -0.357915 0.567768 -0.741307
0.126819 -0.0299703 0.0174974 0.934444 0.197901 -0.296056
-0.075929 0.000250689 -0.421927 0.533654 0.828058 -0.171853
0.0372818 0.0972536 0.351682 -0.172786 0.98361 0.0515371
-0.0224151 -0.103537 -0.442474 0.46586 -0.197925 -0.862439
-0.222669 0.0140347 -0.186669 -0.533654 -0.828058 0.171853
0.0925549 -0.0819352 0.329771 -0.533654 -0.828058 0.171853
0.0845172 -0.0957733 -0.281793 0.980066 -0.166661 -0.108138
0.157043 -0.114882 0.132166 0.902024 -0.324387 -0.284825
0.064887 0.0565956 0.0370353 0.533654 0.828058 -0.171853
0.00505335 -0.0832539 -0.224735 -0.827451 0.469253 -0.308426
-0.0562205 0.0216482 0.366887 -0.533654 -0.828058 0.171853
-0.0497579 0.0718057 -0.00285776 0.446845 0.803725 -0.392882
-0.29915 0.0314993 -0.344125 -0.800628 0.46033 -0.383524
-0.146363 -0.00468468 -0.0399142 -0.533655 -0.828058 0.171853
0.231411 -0.0959588 0.349555 0.927489 -0.231944 -0.293199
0.110725 0.0481377 0.138621 0.533654 0.828058 -0.171853
0.094856 0.0743497 0.215644 0.533654 0.828058 -0.171853
-0.142074 0.0403632 -0.175797 0.429186 -0.440269 -0.788646
0.101302 -0.101019 -0.058038 0.927037 -0.233934 -0.293049
-0.130219 0.0031991 -0.381471 0.379278 -0.0527116 0.92378
0.101459 0.0419101 0.0798408 0.533654 0.828058 -0.171853
-0.24358 0.0251333 -0.198127 -0.533655 -0.828058 0.171852
-0.302304 0.03751 -0.320845 -0.533654 -0.828058 0.171853
0.0268454 0.0965844 0.329464 -0.172786 0.98361 0.0515371
0.0721269 0.0718556 0.133046 0.533654 0.828058 -0.171853
0.0892116 0.0970168 0.322236 0.192078 0.979285 -0.0640892
-0.107663 0.0874966 -0.00564191 -0.351959 0.929706 0.108501
0.163572 -0.126461 0.168018 0.868203 -0.413823 -0.273813
-0.0781762 -0.116857 -0.368668 -0.533654 -0.828058 0.171853
-0.207851 0.00769201 -0.188914 0.652538 -0.532436 -0.539172
0.180094 -0.0553751 0.175262 0.951785 0.0547559 -0.30184
-0.128946 0.0642169 0.062467 -0.587246 0.788325 0.183537
-0.0485721 -0.0288761 0.147191 -0.533654 -0.828058 0.171853
-0.187322 -0.0485286 -0.378361 -0.533655 -0.828057 0.171853
0.00758042 0.00205082 -0.153932 0.533654 0.828058 -0.171853
-0.135374 0.0742724 -0.00615635 -0.512335 0.843823 0.159613
-0.00402807 -0.140093 -0.250375 -0.533654 -0.828058 0.171854
-0.0478262 0.0634383 -0.0301966 0.533654 0.828058 -0.171853
-0.0657777 0.0111991 0.286861 -0.533654 -0.828058 0.171853
-0.0799548 -0.118475 -0.381984 -0.533654 -0.828058 0.171853
-0.173337 -0.0619949 -0.399819 -0.533654 -0.828058 0.171853
0.0735742 -0.0964422 -0.169436 0.983768 -0.179357 0.00561333
-0.229383 0.0379656 -0.0998891 -0.539783 0.511869 0.6683
-0.0186224 -0.116739 -0.309879 -0.746195 0.556672 0.365115
-0.0200473 0.0653336 0.406103 -0.587247 0.788324 0.183538
-0.187534 0.100548 -0.285219 0.533654 0.828058 -0.171854
0.136597 -0.129857 0.235631 -0.533654 -0.828058 0.171853
0.114349 0.0245978 0.0378468 -0.302129 -0.00312631 -0.953262
0.039247 0.0841365 0.495737 -0.432679 0.891503 0.13421
-0.0558721 0.00444961 0.285099 -0.533654 -0.828058 0.171853
0.0173575 0.0988847 0.159557 0.0556898 0.998229 -0.0209243
0.179602 0.0118502 0.467553 0.302128 0.00312571 0.953262
0.156616 -0.102641 0.118241 0.927489 -0.231945 -0.293199
-0.211998 0.00922183 -0.195755 0.678541 -0.540526 -0.497407
0.0449882 -0.0255724 0.453642 -0.533654 -0.828058 0.171853
-0.105087 -0.0413768 -0.0885389 -0.533654 -0.828058 0.171853
0.03131 -0.0322409 -0.245477 0.533654 0.828058 -0.171853
-0.00544644 -0.0716242 -0.195366 -0.739179 0.357975 -0.570498
0.0242365 0.0992997 0.241167 -0.0360578 0.999316 0.00815081
0.0170971 -0.0576276 -0.26276 -0.844985 0.530445 -0.068029
-0.22801 0.0162624 -0.269556 0.844986 -0.530444 0.06803
0.10761 -0.0123817 -0.0204424 0.659505 0.475255 -0.582397
-0.0210324 0.12548 0.102144 0.533654 0.828058 -0.171853
-0.0938389 -0.00897161 0.102532 -0.533654 -0.828058 0.171853
-0.209707 0.111427 -0.301653 0.533654 0.828058 -0.171853
-0.113497 0.0767603 0.0503155 -0.475169 0.8674 0.147756
0.0815743 -0.0181925 0.49872 0.302129 0.00312725 0.953262
-0.0181688 -0.0262927 -0.370462 0.533654 0.828058 -0.171853
0.12511 -0.141727 0.142765 -0.533654 -0.828058 0.171853
0.0635878 -0.0412371 -0.188592 0.533654 0.828058 -0.171853
0.00077615 0.0863974 0.0261561 0.163715 0.583315 -0.795576
-0.0483276 0.0534099 -0.0800744 0.533654 0.828058 -0.171853
-0.0586088 -0.0367437 0.0781148 -0.533654 -0.828058 0.171853
0.0293955 0.0794255 0.0368276 0.533654 0.828058 -0.171853
-0.0250024 -0.102462 -0.189378 -0.739179 0.357975 -0.570498
-0.116744 0.0200851 -0.153334 -0.533654 -0.828058 0.171853
-0.264005 0.0897355 -0.320198 -0.652768 0.69556 -0.300151
-0.162668 0.108608 -0.169169 0.533654 0.828058 -0.171854
-0.178377 0.0695589 -0.297685 0.840738 -0.497467 0.213743
-0.0644923 -0.0272779 -0.461376 0.351034 0.249326 -0.902558
0.249185 -0.121301 0.432146 0.88614 -0.369533 -0.279643
-0.0266131 0.0957126 0.166249 -0.217702 0.973794 0.0658052
-0.0724627 -0.0531748 -0.0440773 -0.533654 -0.828058 0.171853
-0.0959335 0.0590668 0.188734 -0.622703 0.757802 0.194875
-0.131949 -0.0729774 -0.473393 -0.0371773 -0.0490425 -0.998105
-0.0933426 0.0413551 0.254662 -0.720105 0.656001 0.22608
-0.124922 0.0364993 -0.399406 0.533654 0.828058 -0.171853
-0.164499 0.072772 -0.3287 0.792163 -0.418286 0.444425
0.0271589 -0.056247 -0.374038 0.533654 0.828058 -0.171854
-0.00440388 -0.0952265 -0.0353568 -0.533655 -0.828058 0.171853
0.0990215 0.0537624 0.129382 0.533654 0.828058 -0.171853
0.0513988 -0.0542031 0.335594 -0.533654 -0.828058 0.171853
-0.00104899 0.0102481 -0.141231 0.533654 0.828058 -0.171853
-0.0318839 0.03974 -0.0948792 0.533654 0.828058 -0.171853
0.0119305 0.0922463 0.338104 -0.305919 0.947421 0.0938512
-0.264465 0.0956267 -0.217363 -0.652859 0.730812 0.199219
-0.232383 -0.00859571 -0.325876 -0.533654 -0.828058 0.171853
0.0640916 -0.148793 -0.107967 0.802377 -0.540756 -0.252533
0.0659823 -0.100709 0.156796 -0.533654 -0.828058 0.171853
-0.0116191 -0.165457 -0.396162 -0.533654 -0.828058 0.171854
-0.159581 0.0123458 0.00110089 -0.533654 -0.828058 0.171853
0.0894012 -0.0920443 0.271268 -0.533654 -0.828058 0.171853
0.148023 -0.126341 0.118536 0.868203 -0.413823 -0.273813
0.126757 0.0228093 0.0861854 0.818989 0.510888 -0.261247
-0.169131 0.0478821 0.127617 -0.302129 -0.00312728 -0.953262
0.260785 -0.0354003 0.436131 0.942267 0.150498 -0.299137
0.000394963 0.0105496 -0.135295 0.533654 0.828058 -0.171853
0.174546 -0.0986934 0.171837 0.927489 -0.231945 -0.293199
0.0950679 -0.122065 -0.0552308 0.885691 -0.370721 -0.279497
0.0917795 -0.0828389 0.323009 -0.533654 -0.828058 0.171853
0.158764 -0.0643574 0.474407 0.302129 0.00312707 0.953262
-0.0845276 -0.126115 -0.432996 -0.533654 -0.828058 0.171853
0.124678 0.0516001 0.198635 0.533654 0.828058 -0.171853
-0.0512732 -0.0726071 -0.0719105 -0.533655 -0.828058 0.171853
0.164455 0.0328513 0.231812 0.533654 0.828058 -0.171853
-0.145373 -0.0810009 -0.404562 -0.533654 -0.828058 0.171853
0.0645939 0.0967027 0.453337 -0.217702 0.973794 0.0658052
-0.180288 0.0207398 -0.022757 -0.533654 -0.828058 0.171853
0.144855 -0.171143 0.0623377 -0.533654 -0.828058 0.171853
-0.145954 -0.0146063 -0.0864495 -0.533655 -0.828058 0.171853
0.0864635 -0.14505 0.00674298 -0.533654 -0.828058 0.171853
-0.0809605 0.00892807 -0.39375 0.0978756 0.141369 0.985107
-0.105862 0.11555 0.137516 -0.468446 0.87141 0.145612
0.06162 0.0993947 0.301691 0.0556898 0.998229 -0.0209243
0.0384526 0.0940846 0.403497 -0.262114 0.961722 0.0799207
-0.240592 0.023177 -0.4189 -0.531319 0.408382 -0.742243
-0.126291 0.0737048 -0.185905 0.464981 -0.457026 -0.758235
-0.130136 0.096916 -0.114889 0.268061 0.960068 0.0800775
0.0680385 -0.151623 -0.279766 0.912439 -0.400087 -0.0859387
-0.124029 0.0724166 -0.183871 0.429187 -0.440269 -0.788646
0.0139836 -0.0618931 -0.286192 -0.821331 0.555894 0.128049
-0.240926 0.103689 -0.187843 -0.529446 0.787382 0.315778
-0.035764 -0.067561 -0.356463 -0.499612 0.472643 0.725945
-0.202787 0.0993705 -0.338259 0.533654 0.828058 -0.171853
0.22726 -0.0370971 0.329677 0.942267 0.150498 -0.299137
-0.281603 0.0287529 -0.375324 -0.737671 0.430288 -0.520282
-0.045036 0.0448956 0.398254 -0.720105 0.656001 0.22608
-0.0838946 0.00309701 0.191564 -0.533654 -0.828058 0.171853
-0.00463054 -0.0361919 -0.37612 0.533654 0.828058 -0.171853
-0.171154 0.0615799 -0.0600157 -0.601793 0.754292 0.262468
0.143112 -0.115137 0.326788 -0.533654 -0.828058 0.171853
-0.0826512 0.073302 0.168208 -0.512335 0.843823 0.159613
-0.12821 -0.0201093 -0.382612 -0.533654 -0.828058 0.171853
-0.238804 0.101327 -0.33883 -0.518436 0.761994 -0.388058
-0.129337 0.00794951 -0.145334 0.195335 -0.318401 -0.927613
-0.204163 -0.0493677 -0.434701 -0.533654 -0.828058 0.171853
0.118492 0.0480779 0.162454 0.533654 0.828058 -0.171853
-0.246952 -0.0135479 -0.429513 -0.553804 0.223307 -0.802144
0.0441204 -0.0264607 -0.177845 0.533654 0.828058 -0.171853
-0.0931865 -0.117418 -0.417979 -0.533654 -0.828058 0.171853
-0.0388483 -0.130925 -0.324937 -0.67854 0.540526 0.497409
0.113121 0.0368703 0.091771 0.533654 0.828058 -0.171853
0.0396219 -0.127946 -0.0563013 -0.533654 -0.828058 0.171853
0.0993093 0.0500563 0.112418 0.533654 0.828058 -0.171853
-0.0810951 -0.00714346 -0.14112 -0.139625 -0.114151 -0.983603
0.0792715 -0.116564 -0.228987 0.959646 -0.240629 0.145525
-0.120224 0.0862635 -0.0358241 -0.351959 0.929706 0.108501
-0.00396885 0.0964758 0.228228 -0.172786 0.98361 0.0515371
-0.0767808 -0.127221 -0.41427 -0.533654 -0.828058 0.171853
0.0424999 -0.0811014 -0.390184 0.813788 0.0178974 -0.580886
0.0663184 0.00442774 -0.0206088 0.21218 0.630096 -0.746966
-0.0995999 0.0406087 0.236777 -0.749329 0.618921 0.235464
0.175057 -0.106872 0.465806 -0.533654 -0.828058 0.171853
-0.0651503 -0.131658 -0.399536 -0.533654 -0.828058 0.171853
-0.0153572 -0.115588 -0.167479 -0.533654 -0.828058 0.171853
-0.270623 0.095609 -0.263496 -0.664241 0.747506 -0.00425831
0.126889 -0.123103 0.0343567 -0.302129 -0.0031261 -0.953262
-0.139705 -0.0178922 -0.138904 0.154075 -0.295002 -0.942992
0.0146931 -0.0495455 -0.380458 0.533655 0.828058 -0.171852
-0.257944 0.101661 -0.298511 -0.611449 0.772519 -0.171302
0.00376999 -0.093717 -0.23964 -0.840738 0.497466 -0.213745
-0.181892 -0.0540837 -0.388265 -0.533654 -0.828058 0.171853
-0.176006 0.0427202 -0.186475 0.595731 -0.512307 -0.618583
0.0723742 -0.151147 -0.0663882 -0.533654 -0.828058 0.171853
-0.0608397 0.0419301 -0.160877 -0.0978757 -0.141369 -0.985107
0.118766 -0.023848 -0.00339571 0.924708 0.242768 -0.293222
0.0390369 0.00238241 -0.0546531 0.533654 0.828058 -0.171853
0.0065276 0.00531008 -0.141497 0.533654 0.828058 -0.171853
-0.283845 0.017725 -0.358858 -0.533654 -0.828058 0.171853
0.0176029 0.0101437 -0.0838146 0.533654 0.828058 -0.171853
0.170729 -0.0731947 0.146696 0.949523 -0.0895269 -0.30065
-0.0761792 0.101119 0.143017 0.302128 0.00312627 0.953262
0.134665 0.00551955 0.076505 0.302129 0.00312742 0.953262
0.00359259 -0.170592 -0.373667 -0.533654 -0.828058 0.171853
0.153522 -0.0912505 0.0708456 0.302128 0.00312601 0.953262
0.195581 -0.073844 0.225378 0.949523 -0.0895269 -0.30065
0.173318 -0.122599 0.0419066 0.916818 -0.274832 -0.289677
0.148044 -0.150056 0.173846 -0.533654 -0.828058 0.171853
-0.214843 -0.0386572 -0.416259 -0.533654 -0.828058 0.171853
0.247625 -0.0627754 0.387964 0.953239 0.00663763 -0.302143
-0.160419 0.0186176 0.0287176 -0.533654 -0.828058 0.171853
-0.091041 0.00730624 -0.434858 0.533655 0.828058 -0.171853
-0.0026684 -0.12742 -0.185091 -0.533654 -0.828058 0.171853
-0.013529 -0.0185956 0.305545 -0.533654 -0.828058 0.171853
0.13406 -0.078612 0.474668 -0.533654 -0.828058 0.171853
-0.106899 -0.0105148 0.0545403 -0.533654 -0.828058 0.171853
-0.279168 0.0206753 -0.330117 -0.533654 -0.828058 0.171853
0.122285 0.0847925 0.351136 0.533654 0.828058 -0.171853
0.0367684 -0.000959065 -0.077798 0.533654 0.828058 -0.171853
0.000726358 -0.0664323 -0.22364 -0.805936 0.43637 -0.400059
-0.0710985 -0.115199 -0.36323 -0.42919 0.44027 0.788643
-0.242523 0.0319011 -0.162233 -0.533655 -0.828058 0.171852
0.170001 -0.0215534 0.0203597 -0.302129 -0.00312634 -0.953262
-0.0265665 -0.0709348 0.0128688 -0.533654 -0.828058 0.171853
0.0649234 -0.0340524 0.474686 -0.533654 -0.828058 0.171853
0.00397123 -0.140642 -0.410918 0.617785 -0.359454 -0.699381
-0.271442 0.0769762 -0.332192 -0.682824 0.648977 -0.335528
-0.0868254 -0.0299708 -0.137906 -0.181029 -0.0866479 -0.979653
0.179364 -0.0306687 0.0385661 0.940919 0.159456 -0.29874
0.0368802 -0.0393126 -0.262254 0.533654 0.828058 -0.171853
-0.0537637 0.0736657 0.25901 -0.512335 0.843823 0.159613
-0.19163 0.0522666 -0.257305 0.830357 -0.551574 -0.0792039
-0.133481 0.00284999 -0.463172 -0.0254978 0.312192 -0.949677
0.0545278 -0.137253 -0.0548556 -0.533654 -0.828058 0.171853
-0.0916482 0.089586 0.0274352 -0.31094 0.945625 0.0954486
-0.172091 -0.0385288 -0.378037 0.416481 -0.0804658 0.905577
-0.123768 0.0845991 -0.0343389 -0.393964 0.91101 0.121876
0.07659 -0.0921193 -0.193061 0.967271 -0.164889 0.192871
-0.0693397 -0.123916 -0.375241 -0.533653 -0.828058 0.171854
0.0420432 0.0989787 0.324138 -0.0818578 0.996386 0.0226763
0.154986 0.0352747 0.214087 0.533654 0.828058 -0.171853
-0.0117333 -0.0354803 0.229764 -0.533654 -0.828058 0.171853
-0.207558 0.117196 -0.267181 0.533654 0.828058 -0.171853
0.0855106 -0.092022 -0.278085 0.985705 -0.130765 -0.106233
-0.248779 0.0272215 -0.204209 -0.533654 -0.828058 0.171853
-0.0283359 0.127477 0.0890874 0.533654 0.828058 -0.171853
-0.12567 0.0928235 0.113695 -0.302129 -0.00312682 -0.953262
-0.144674 -0.0191102 -0.104177 -0.533655 -0.828058 0.171853
0.125075 0.0702101 0.289538 0.533654 0.828058 -0.171853
-0.271203 0.0686122 -0.17149 -0.675659 0.609936 0.414082
-0.0350617 -0.0788876 -0.167436 -0.61493 0.240433 -0.751034
0.230495 -0.108137 0.357337 0.915818 -0.278489 -0.289348
0.0422643 0.0995382 0.264096 0.00982775 0.999931 -0.00639429
-0.144359 -0.00756259 -0.0475571 -0.533655 -0.828058 0.171853
-0.0334796 0.0405521 -0.0959212 0.533654 0.828058 -0.171853
-0.0520538 -0.129857 -0.350187 -0.533654 -0.828058 0.171854
-0.130478 -0.059209 -0.473629 -0.0342568 0.0180445 -0.99925
0.0162545 -0.164368 -0.30436 -0.533654 -0.828058 0.171853
0.048483 -0.0674605 -0.361852 0.533654 0.828058 -0.171853
-0.0703724 -0.131262 -0.413842 -0.533654 -0.828058 0.171853
-0.0536252 -0.0716462 -0.460834 0.354783 -0.046912 -0.933771
-0.126327 0.00325431 0.0605578 -0.533654 -0.828058 0.171853
-0.167966 0.0563669 0.12722 -0.302129 -0.00312687 -0.953262
0.0285785 0.0766618 0.507478 -0.512335 0.843823 0.159613
0.181025 -0.0207948 0.0496809 0.932353 0.207352 -0.296182
0.0260143 -0.0210907 0.416317 -0.533654 -0.828058 0.171853
0.0327911 0.098195 0.180356 0.101422 0.994213 -0.0354056
0.0340999 -0.071645 0.197834 -0.533654 -0.828058 0.171853
0.24238 -0.101657 0.388763 0.927489 -0.231945 -0.293199
-0.160573 0.0994564 -0.206759 0.533654 0.828058 -0.171853
0.0273092 0.0945484 0.361368 -0.262113 0.961722 0.0799206
-0.000195498 -0.0512605 -0.337064 -0.652539 0.532437 0.53917
0.11458 -0.0367454 0.48832 0.302129 0.00312725 0.953262
-0.174168 0.0503926 -0.332009 0.776414 -0.399154 0.487707
0.0766481 -0.0758004 -0.307562 0.75742 0.615012 -0.219263
-0.000684018 -0.046533 -0.413692 0.533654 0.828058 -0.171853
-0.0566965 0.0108762 0.313505 -0.533654 -0.828058 0.171853
-0.0523119 -0.0483879 0.0415619 -0.533654 -0.828058 0.171853
0.0739952 -0.117258 0.101939 -0.533654 -0.828058 0.171853
-0.227555 0.016679 -0.271966 0.844986 -0.530444 0.06803
-0.0223179 -0.0458389 -0.177762 -0.533654 -0.828058 0.171853
-0.0306441 -0.100467 -0.447561 0.431212 -0.15504 -0.88883
-0.104728 0.00913668 0.155971 -0.533654 -0.828058 0.171853
0.0370359 -0.135994 -0.103108 -0.533654 -0.828058 0.171853
0.0118668 -0.167199 -0.331625 -0.533654 -0.828058 0.171854
-0.101537 0.0863446 0.0240985 -0.351959 0.929706 0.108501
-0.0107326 0.116923 0.0928959 0.533654 0.828058 -0.171853
-0.0211421 -0.0648102 0.0592243 -0.533654 -0.828058 0.171853
0.15484 0.0537015 0.475263 0.30213 0.00312766 0.953261
-0.0795176 0.0895218 -0.00224912 0.410767 0.894584 -0.176039
-0.0584924 0.0778008 -0.000538891 0.453094 0.80665 -0.379503
0.0316789 0.098978 0.286754 -0.0818578 0.996386 0.0226763
0.155198 0.0404625 0.239742 0.533654 0.828058 -0.171853
-0.0484456 -0.024937 -0.158182 -0.533655 -0.828058 0.171853
-0.00165127 -0.0572559 -0.210774 -0.776414 0.399154 -0.487706
-0.0801672 -0.0977885 -0.375307 -0.276295 0.362766 0.889979
-0.149413 -0.00322136 -0.0423355 -0.533653 -0.828058 0.171853
0.153861 0.00412442 0.0604971 0.533654 0.828058 -0.171853
-0.276824 0.0821032 -0.307205 -0.68595 0.685769 -0.243298
-0.21243 0.0409888 -0.265287 0.837319 -0.545882 -0.0301616
0.0122584 -0.0966318 0.00961296 -0.533654 -0.828058 0.171853
0.0275023 -0.0564606 0.250511 -0.533654 -0.828058 0.171853
-0.117207 0.0191157 0.165302 -0.533654 -0.828058 0.171853
-0.0432772 -0.0274298 -0.154144 -0.533655 -0.828058 0.171853
0.157122 -0.0994934 0.445667 -0.533654 -0.828058 0.171853
-0.196935 0.00194193 -0.165024 -0.533655 -0.828058 0.171853
0.131306 -0.03092 0.0310274 0.934444 0.197901 -0.296056
-0.037866 0.0948782 0.0260301 0.0926763 0.838227 -0.537389
0.175095 -0.124142 0.382717 -0.533654 -0.828058 0.171853
0.0582544 0.0879984 0.505763 0.30213 0.00312805 0.953262
-0.0233772 -0.145512 -0.336571 -0.533654 -0.828058 0.171853
-0.161945 -0.0126122 -0.126498 -0.533655 -0.828057 0.171853
-0.262407 0.0300983 -0.232665 -0.533654 -0.828058 0.171852
-0.145825 0.0910675 0.125135 -0.620378 0.759897 0.194132
-0.16307 -0.000272644 -0.460955 -0.170073 0.290082 -0.941768
-0.070885 -0.00210467 -0.154269 -0.181029 -0.0866483 -0.979653
-0.0397612 -0.0206383 -0.164842 -0.452652 0.108023 -0.88512
0.158857 0.0757987 0.421368 0.533654 0.828058 -0.171853
-0.2068 0.0228602 -0.0948673 -0.533653 -0.828058 0.171854
0.0278628 -0.0198723 0.427928 -0.533654 -0.828058 0.171853
-0.194237 0.0153306 -0.0921343 -0.533654 -0.828058 0.171853
-0.03544 -0.0376848 0.145526 -0.533654 -0.828058 0.171853
-0.241335 0.117962 -0.257366 -0.540957 0.841016 0.00765057
0.00760356 -0.128834 -0.160003 -0.533654 -0.828058 0.171853
-0.0348527 0.132465 0.129816 0.302129 0.00312644 0.953262
0.0377147 -0.143702 -0.13814 -0.533654 -0.828058 0.171853
0.00441584 -0.000285997 -0.175019 0.533654 0.828058 -0.171853
0.0795031 0.0980671 0.313429 0.146921 0.987894 -0.0498054
0.0782237 -0.0432914 0.47147 -0.533654 -0.828058 0.171853
-0.103058 -0.0732857 -0.388002 -0.0705133 0.246067 0.966685
-0.235208 0.109087 -0.191765 -0.491369 0.816317 0.303615
-0.0729889 -0.0198008 0.115098 -0.533654 -0.828058 0.171853
0.163182 0.0280595 0.211508 0.794565 0.551665 -0.25364
0.0808722 -0.0679787 -0.138506 0.971229 -0.0470248 -0.23346
-0.0384838 0.0339393 -0.143324 0.533654 0.828058 -0.171853
-0.202407 0.0508418 -0.240278 0.79718 -0.560382 -0.224669
0.199857 -0.0480324 0.461329 0.302128 0.00312527 0.953262
-0.203069 -0.045314 -0.41177 -0.533654 -0.828058 0.171853
0.0216769 0.00191334 0.513691 -0.533654 -0.828058 0.171853
0.245231 -0.0397225 0.384964 0.942267 0.150496 -0.299137
-0.0129909 0.124336 0.121603 0.533654 0.828058 -0.171853
-0.088554 -0.00303091 -0.458479 0.401588 0.629308 -0.665356
-0.0955447 0.0794294 0.0922558 -0.473055 0.868669 0.147082
-0.0136592 -0.050385 -0.351675 -0.56507 0.500319 0.656031
0.161806 -0.143919 0.0320898 0.869008 -0.411958 -0.274074
-0.11323 -0.0244193 -0.135692 -0.0137466 -0.194687 -0.980769
-0.0643958 0.0689702 -0.0549949 0.533654 0.828058 -0.171853
-0.0581717 -0.0153623 -0.442016 0.533654 0.828058 -0.171853
0.169975 -0.126888 0.0361312 0.903011 -0.321342 -0.285148
-0.24701 -0.0203102 -0.427742 -0.533654 -0.828058 0.171853
-0.178215 0.109524 -0.213031 0.533654 0.828058 -0.171853
0.177893 -0.113942 0.0631958 0.302129 0.00312671 0.953262
-0.00484068 -0.108496 -0.240599 -0.844254 0.509735 -0.165544
0.0483476 -0.0690081 0.254783 -0.533654 -0.828058 0.171853
-0.282543 0.0828704 -0.277186 -0.711838 0.696567 -0.0898944
0.183225 0.0398896 0.324015 0.533654 0.828058 -0.171853
0.245943 -0.0812336 0.446832 0.30213 0.00312766 0.953261
0.257687 -0.0653498 0.419944 0.952485 -0.0414898 -0.301746
0.212884 -0.111953 0.305675 0.902024 -0.324389 -0.284825
0.227619 -0.0552824 0.325137 0.951785 0.0547559 -0.30184
-0.237756 0.040158 -0.107647 -0.533654 -0.828058 0.171853
0.212784 -0.0765144 0.457326 0.302129 0.00312681 0.953262
0.240629 0.0191743 0.436057 0.818989 0.510888 -0.261247
-0.156663 0.00264644 -0.0365753 -0.533654 -0.828058 0.171853
-0.0923489 -0.112468 -0.391527 -0.533653 -0.828058 0.171853
0.173317 -0.0548731 0.153984 0.951785 0.0547559 -0.30184
0.150791 -0.0873254 0.0891103 0.944361 -0.137353 -0.298857
0.229919 -0.14725 0.415618 0.802509 -0.540541 -0.252576
-0.0162888 -0.124959 -0.215524 -0.533654 -0.828058 0.171852
0.234206 -0.00710487 0.376275 0.897213 0.33692 -0.285469
0.0337958 0.097823 0.328996 -0.127471 0.991146 0.0371501
-0.18311 0.106252 -0.140158 -0.262287 0.774208 0.576027
-0.152782 0.0726051 0.164483 -0.71919 0.657105 0.225786
0.0877338 -0.0797965 0.325106 -0.533654 -0.828058 0.171853
-0.227357 0.0947811 -0.363599 -0.486785 0.728349 -0.482232
0.0459062 -0.182288 -0.305769 0.815634 -0.539138 -0.209931
0.12022 0.0484755 0.486253 0.302129 0.00312698 0.953262
0.0555776 -0.0463857 0.386238 -0.533654 -0.828058 0.171853
0.0585494 -0.0727262 -0.352724 0.677149 0.689521 -0.256962
0.113897 -0.0545184 -0.0333713 0.952066 0.0491954 -0.301911
0.0276213 -0.02887 0.383823 -0.533654 -0.828058 0.171853
-0.0397833 -0.144954 -0.38483 -0.533654 -0.828058 0.171853
0.125086 0.0418455 0.152898 0.533654 0.828058 -0.171853
-0.163407 0.109238 -0.139648 0.0837764 0.938889 0.33387
0.184224 -0.0832862 0.192897 0.944361 -0.137353 -0.298857
0.0113302 -0.0522062 -0.317668 -0.746195 0.556672 0.365116
0.0876005 -0.0219594 -0.0396495 0.382405 0.766948 -0.515322
0.177934 -0.0438532 0.171341 0.948125 0.102744 -0.300837
0.0890936 -0.0801722 0.327518 -0.533654 -0.828058 0.171853
0.00269888 0.0641209 0.0102188 0.163713 0.583314 -0.795577
0.0214134 -0.121155 -0.403476 0.681879 -0.285057 -0.673634
0.0749582 0.0991042 0.436052 -0.12747 0.991147 0.0371498
-0.143437 -0.0220309 -0.114408 -0.533654 -0.828058 0.171853
0.0581239 -0.160762 -0.308784 0.862755 -0.452727 -0.225149
0.10788 0.0452956 0.116094 0.533654 0.828058 -0.171853
-0.124419 0.0617909 0.0871177 -0.622703 0.757803 0.194875
-0.16235 0.0939293 -0.238908 0.533654 0.828058 -0.171853
-0.210979 0.0281873 -0.310197 0.817711 -0.453376 0.354682
0.139345 0.0890248 0.424507 0.533654 0.828058 -0.171853
-0.104898 0.0871451 -0.0931905 0.533654 0.828058 -0.171853
0.0482383 -0.0380133 0.403789 -0.533654 -0.828058 0.171853
-0.277483 0.0501611 -0.360997 -0.71856 0.529892 -0.450428
0.00151901 -0.148496 -0.273636 -0.533654 -0.828058 0.171853
0.0569349 0.0997005 0.336689 -0.0360578 0.999316 0.00815081
0.0217998 -0.047086 -0.346538 0.533654 0.828058 -0.171853
-0.101193 0.0914725 -0.049466 0.133224 0.990043 -0.0454495
0.141341 0.0936058 0.452778 0.533654 0.828058 -0.171853
-0.0782519 0.0576779 0.250556 -0.656717 0.725524 0.205762
-0.0636942 -0.13346 -0.403695 -0.533654 -0.828058 0.171853
0.181504 -0.018622 0.0527102 0.932353 0.207352 -0.296182
0.0555566 0.0930244 0.47235 -0.262114 0.961722 0.0799207
-0.136765 -0.0335387 -0.471423 -0.0684942 0.132787 -0.988775
0.0257188 0.0820473 0.0380434 0.533654 0.828058 -0.171853
0.0814644 -0.110231 -0.112352 0.915343 -0.280207 -0.289191
-0.0203488 -0.0484052 -0.358325 -0.499612 0.472643 0.725945
0.130198 0.022105 0.0736543 0.533654 0.828058 -0.171853
0.141701 0.0944267 0.479294 0.302128 0.00312605 0.953262
0.0213324 0.079129 0.469938 -0.473054 0.868669 0.147082
0.25239 -0.12256 0.443966 0.88614 -0.369533 -0.279643
-0.0873208 0.0874555 0.0606453 -0.348973 0.930925 0.107687
-0.0108579 0.0989044 0.134384 -0.0360569 0.999317 0.00815049
0.0688561 0.0560541 0.0467516 0.533654 0.828058 -0.171853
0.060271 -0.149855 -0.198063 0.865129 -0.424809 0.266627
0.0758484 -0.0419344 0.470633 -0.533654 -0.828058 0.171853
0.078245 0.0759988 0.172008 0.533654 0.828058 -0.171853
-0.269305 0.0967978 -0.260443 -0.664241 0.747507 -0.00425957
-0.0503583 0.0656305 -0.0274963 0.533654 0.828058 -0.171853
0.20406 0.0438523 0.407807 0.533654 0.828058 -0.171853
0.0493575 -0.100859 0.104447 -0.533654 -0.828058 0.171853
0.0332967 -0.0281054 0.405131 -0.533654 -0.828058 0.171853
0.042133 0.0717024 0.0391681 0.533654 0.828058 -0.171853
-0.229207 0.0943176 -0.36243 -0.488274 0.726522 -0.483481
0.0199822 0.0993586 0.201774 0.00982775 0.999931 -0.00639429
0.0763018 -0.0804734 -0.180301 0.991682 -0.086118 0.0956624
-0.300761 0.0551462 -0.299399 -0.804648 0.557146 -0.205257
-0.224752 0.119896 -0.294171 0.104296 0.977069 -0.185631
-0.134586 0.0810205 -0.0439014 -0.435065 0.890225 0.134971
-0.0890451 -0.119161 -0.413518 -0.533654 -0.828058 0.171853
0.121187 -0.00794437 0.486132 0.302125 0.00312042 0.953263
0.0760029 -0.122923 0.0808759 -0.533654 -0.828058 0.171853
0.258258 -0.0904521 0.430758 0.937011 -0.184865 -0.296371
0.119587 -0.0884809 0.382174 -0.533654 -0.828058 0.171853
0.060791 0.0946008 0.470548 -0.262114 0.961722 0.0799207
-0.165225 0.0642242 -0.390967 0.533654 0.828058 -0.171853
-0.086358 -0.0427836 -0.468989 0.201094 0.109825 -0.973396
-0.103383 -0.041388 -0.471351 0.100372 0.109517 -0.988904
0.0512061 0.00860267 0.508257 0.302128 0.00312508 0.953262
-0.112442 -0.0152285 -0.386371 0.181024 0.0866509 0.979654
-0.0189761 -0.0533988 0.120935 -0.533654 -0.828058 0.171853
0.0976211 0.0857728 0.279272 0.533654 0.828058 -0.171853
0.139755 0.0771065 0.368353 0.533654 0.828058 -0.171853
-0.00949518 -0.102569 -0.0865462 -0.533654 -0.828058 0.171853
0.0118688 0.0888202 0.370629 -0.349013 0.930924 0.107564
0.178442 -0.0126457 0.194786 0.911674 0.291215 -0.289903
-0.211575 -0.0485802 -0.453924 -0.533654 -0.828058 0.171853
-0.0249261 -0.151626 -0.426215 0.475162 -0.397367 -0.785061
0.0391412 -0.0159205 0.481992 -0.533654 -0.828058 0.171853
-0.138887 -0.0255238 -0.117109 -0.533654 -0.828058 0.171853
-0.0761513 0.0933373 0.036597 -0.24307 0.967013 0.0761713
-0.259316 0.104938 -0.249251 -0.618322 0.785259 0.0323527
-0.067277 0.0440882 0.329755 -0.720105 0.656001 0.22608
0.13706 -0.154429 0.0312358 -0.302129 -0.00312667 -0.953262
0.070811 0.0308759 -0.000140315 0.163711 0.583313 -0.795578
-0.14173 0.0661813 0.0131264 -0.587246 0.788325 0.183537
-0.0174264 -0.029711 0.239884 -0.533654 -0.828058 0.171853
0.248417 -0.0506278 0.391564 0.951785 0.0547541 -0.30184
0.0293929 0.0439144 0.000896467 0.163713 0.583314 -0.795577
-0.115089 -0.00783955 0.0420006 -0.533654 -0.828058 0.171853
-0.181323 -0.0645699 -0.466566 -0.278391 -0.00488212 -0.960455
0.0411639 -0.121219 -0.0190993 -0.533654 -0.828058 0.171853
-0.183037 -0.0594429 -0.417645 -0.533655 -0.828058 0.171853
-0.210047 0.0373625 -0.233765 0.79718 -0.560382 -0.224669
0.00431098 -0.0258428 0.326024 -0.533654 -0.828058 0.171853
-0.110019 0.0187114 -0.38834 0.302127 0.00312696 0.953262
-0.16708 0.0289344 0.0513567 -0.77682 0.580402 0.244303
0.0160011 0.0339137 -0.0107195 0.292485 0.700627 -0.650826
0.01072 -0.0493541 -0.323003 -0.725429 0.552659 0.410268
-0.00183921 -0.0400226 -0.349141 -0.595732 0.512307 0.618583
0.141181 0.0797548 0.38554 0.533654 0.828058 -0.171853
-0.0429215 -0.0215777 -0.163437 -0.416478 0.080464 -0.905578
-0.196365 -0.0558568 -0.441753 -0.533655 -0.828058 0.171853
0.008773 -0.089403 -0.283976 -0.821331 0.555894 0.12805
0.10885 -0.143379 0.0231857 0.826346 -0.499426 -0.260242
-0.197571 0.0521558 -0.0835868 -0.566901 0.65898 0.494336
0.00492091 -0.00137857 -0.178715 0.533654 0.828058 -0.171853
0.0537895 -0.0698606 0.267574 -0.533654 -0.828058 0.171853
-0.272008 0.0260448 -0.388955 -0.682759 0.407548 -0.60642
-0.0455021 0.0740094 0.283712 -0.512335 0.843823 0.159613
-0.170261 0.0889644 -0.287397 0.533654 0.828058 -0.171853
0.188294 -0.0966321 0.213694 0.927489 -0.231944 -0.293199
0.205745 0.034912 0.369961 0.533654 0.828058 -0.171853
-0.0393365 0.0266569 0.443451 -0.533654 -0.828058 0.171853
-0.0451339 -0.0806692 -0.160021 -0.585226 0.214888 -0.781879
-0.274303 0.00582905 -0.386548 -0.533654 -0.828058 0.171852
0.0445577 -0.0373092 -0.22876 0.533654 0.828058 -0.171853
-0.118946 0.00708089 0.101913 -0.533654 -0.828058 0.171853
-0.10011 -0.0215508 0.0224482 -0.533654 -0.828058 0.171853
-0.0347753 -0.0726172 -0.0207287 -0.533654 -0.828058 0.171853
-0.135121 -0.0887112 -0.471992 -0.0557896 -0.113284 -0.991995
0.10482 -0.0734414 0.408784 -0.533654 -0.828058 0.171853
-0.0377991 0.0223426 0.427437 -0.533654 -0.828058 0.171853
-0.0266573 -0.0294781 -0.41217 0.533654 0.828058 -0.171853
0.0644659 0.0994305 0.385229 -0.0818578 0.996386 0.0226763
0.0879684 0.095447 0.295912 0.533654 0.828058 -0.171853
0.118637 -0.126943 0.193897 -0.533654 -0.828058 0.171853
0.0237906 0.0967265 0.316511 -0.172786 0.98361 0.0515371
0.156822 0.0276033 0.474721 0.302131 0.0031287 0.953261
-0.100323 0.059499 -0.168606 0.236102 -0.341004 -0.90993
0.0835102 -0.105743 -0.244691 0.977685 -0.205543 0.0433975
-0.124199 0.0378705 -0.390553 0.533654 0.828058 -0.171853
0.0309403 0.0398723 -0.0017487 0.163718 0.583319 -0.795573
0.0729416 -0.142899 -0.0248841 -0.533654 -0.828058 0.171853
-0.00272664 -0.151576 -0.301664 -0.533654 -0.828058 0.171854
0.0354185 -0.0805343 0.159096 -0.533654 -0.828058 0.171853
0.0424178 0.0920978 0.138326 0.533654 0.828058 -0.171853
-0.015897 -0.10821 -0.133607 -0.533654 -0.828058 0.171853
-0.0745713 -0.0150277 0.133183 -0.533654 -0.828058 0.171853
0.20944 -0.0421466 0.458273 0.302127 0.00312446 0.953263
0.0585549 -0.1121 -0.356407 0.872848 -0.217236 -0.436973
0.0819455 -0.0875125 -0.21339 0.967697 -0.102471 0.230353
0.109197 0.0993223 0.430882 0.101422 0.994213 -0.0354056
0.179313 -0.0620785 0.0303681 0.953161 0.0139539 -0.302142
-0.0420805 -0.0628073 -0.363082 -0.429186 0.440269 0.788646
0.017767 0.0995374 0.0976248 0.533654 0.828058 -0.171853
0.173863 -0.0932843 0.165701 0.937011 -0.184865 -0.296371
-0.121114 -0.0370945 -0.117674 -0.533655 -0.828058 0.171853
-0.0257739 0.0594382 0.411477 -0.622702 0.757803 0.194875
0.0391459 -0.0385337 0.373047 -0.533654 -0.828058 0.171853
-0.163423 0.0183694 -0.359774 0.614935 -0.240438 0.751029
0.0680116 0.0996416 0.388754 -0.0818588 0.996386 0.0226767
0.16646 0.0159975 0.197629 0.841518 0.468923 -0.26825
0.126947 -0.0795198 0.448208 -0.533654 -0.828058 0.171853
-0.278025 0.0447712 -0.210466 -0.533654 -0.828058 0.171853
-0.0124375 -0.0973362 -0.204589 -0.792161 0.418284 -0.444431
0.0427408 0.0995261 0.262947 0.00982775 0.999931 -0.00639429
-0.141581 -0.0956384 -0.463317 -0.533654 -0.828058 0.171853
0.0466386 -0.0611947 0.287124 -0.533654 -0.828058 0.171853
0.177561 0.049284 0.35169 0.533654 0.828058 -0.171853
0.0876106 -0.0816523 -0.113195 0.944392 -0.137355 -0.298759
-0.0541283 -0.0213443 -0.450931 0.523675 0.687403 -0.503231
0.150935 -0.00603415 0.476697 0.302128 0.00312527 0.953262
-0.233871 0.0234278 -0.423437 -0.496765 0.384664 -0.777983
-0.0150209 -0.11397 -0.158641 -0.533654 -0.828058 0.171853
0.0788405 0.0981585 0.313287 0.146921 0.987894 -0.0498054
0.0300885 0.0990963 0.203534 0.0556898 0.998229 -0.0209243
-0.0765702 0.0652998 0.225397 -0.587247 0.788324 0.183538
0.0250148 -0.0419055 -0.311593 0.533654 0.828058 -0.171854
-0.252668 0.109196 -0.239303 -0.607142 0.790507 0.0804813
0.00602413 -0.0717253 -0.247596 -0.844254 0.509736 -0.165542
-0.0945353 0.0904826 0.00914786 -0.31094 0.945625 0.0954486
-0.202323 0.0597069 -0.0974801 -0.488036 0.667669 0.562174
-0.255774 0.0603376 -0.377623 -0.593148 0.57201 -0.566551
-0.0943935 -0.0354965 -0.0269979 -0.533654 -0.828058 0.171853
0.136888 0.0148964 0.0596958 0.533654 0.828058 -0.171853
-0.116026 -0.00218091 0.0663548 -0.533654 -0.828058 0.171853
0.179034 -0.0789376 0.174637 0.949523 -0.0895275 -0.30065
-0.0170509 0.0986723 0.0569022 0.0680195 0.99744 -0.0220756
-0.150277 -0.00441192 -0.375501 -0.533654 -0.828058 0.171853
-0.0861686 -0.0495015 -0.0689387 -0.533654 -0.828058 0.171853
-0.00744182 -0.0238891 0.298942 -0.533654 -0.828058 0.171853
0.170124 -0.0304145 0.153575 0.934226 0.197898 -0.296744
0.142972 0.0868779 0.425426 0.533654 0.828058 -0.171853
-0.191011 0.066726 -0.0963843 -0.457127 0.697152 0.552281
0.154222 0.0451488 0.259291 0.533654 0.828058 -0.171853
-0.0366358 0.105492 0.0854349 -0.302129 -0.00312644 -0.953262
-0.209825 0.0807219 -0.123549 -0.400137 0.674859 0.620045
-0.19649 -0.0528289 -0.427551 -0.533654 -0.828058 0.171853
0.0501095 -0.120632 0.011511 -0.533654 -0.828058 0.171853
0.106607 0.0738994 0.249964 0.533654 0.828058 -0.171853
-0.0957371 0.121777 0.130129 -0.427453 0.894268 0.132545
-0.0568193 -0.0660634 -0.462106 0.30927 -0.0151678 -0.950853
0.0382252 -0.108274 0.0341487 -0.533654 -0.828058 0.171853
-0.0095432 0.0481095 0.501882 -0.689209 0.691564 0.216171
0.080061 -0.0884635 0.259518 -0.533654 -0.828058 0.171853
-0.087434 -0.026446 0.0382227 -0.533654 -0.828058 0.171853
-0.020417 0.123393 0.0940003 0.533654 0.828058 -0.171853
0.152973 -0.13557 0.258953 -0.533654 -0.828058 0.171853
-0.116612 0.0323205 -0.385396 0.379281 -0.0527147 0.923779
0.152605 0.0737708 0.475906 0.302127 0.00312463 0.953263
-0.0676281 -0.0112535 -0.151817 -0.533654 -0.828058 0.171853
0.0672912 -0.0589374 -0.262379 0.533654 0.828058 -0.171852
-0.0901539 0.00826765 0.197041 -0.533654 -0.828058 0.171853
0.121845 0.0641497 0.250307 0.533654 0.828058 -0.171853
0.0479874 0.0972535 0.387576 -0.172786 0.98361 0.0515371
0.0231393 0.0990815 0.251381 -0.0818588 0.996386 0.0226767
0.0557775 -0.175359 -0.275575 0.846094 -0.529118 -0.0644873
-0.131382 -0.00877186 -0.0130874 -0.533655 -0.828058 0.171853
0.222393 -0.0473342 0.310271 0.948125 0.102744 -0.300837
0.0418101 -0.1733 -0.268039 -0.533654 -0.828058 0.171853
-0.0786959 -0.0515682 -0.380438 -0.533654 -0.828058 0.171853
0.113625 -0.116152 -0.00389996 0.902044 -0.324386 -0.284764
-0.239658 0.046435 -0.404731 -0.537051 0.493283 -0.684286
0.084062 0.048284 0.0565309 0.533654 0.828058 -0.171853
0.0679616 0.0953962 0.233787 0.192078 0.979285 -0.0640894
-0.0317719 0.0508676 -0.0409138 0.533654 0.828058 -0.171853
0.0829882 -0.0352001 -0.0992589 0.533654 0.828058 -0.171853
-0.0797016 0.0700039 0.194058 -0.550429 0.81702 0.171774
-0.0193731 -0.0728444 -0.179701 -0.694594 0.313234 -0.647629
-0.0509843 0.105766 0.135016 0.302129 0.00312653 0.953262
0.155815 0.0434227 0.474988 0.302128 0.00312581 0.953262
-0.1383 0.0445012 -0.40239 0.533654 0.828058 -0.171853
0.0419009 -0.070936 0.225474 -0.533654 -0.828058 0.171853
0.0388238 -0.0437105 -0.277409 0.533654 0.828058 -0.171853
0.103895 -0.126593 0.149806 -0.533654 -0.828058 0.171853
0.0281862 0.0944639 0.365262 -0.262113 0.961722 0.0799206
0.159846 0.00139927 0.153541 0.880675 0.381839 -0.280375
0.0843205 -0.101298 -0.243724 0.983601 -0.156295 0.0900071
-0.113065 0.0918047 -0.0868695 0.1938 0.980998 -0.00920547
-0.222686 0.0269233 -0.124618 -0.533655 -0.828058 0.171853
