ply
format ascii 1.0
comment Created by Open3D
element vertex 830
property double x
property double y
property double z
property double nx
property double ny
property double nz
end_header
0.376575 -0.043075 -0.270819 0.0952569 0.0194966 -0.995262
-0.108308 0.142021 0.323329 -0.833437 0.447008 0.324911
0.0010417 0.212593 -0.0304602 0.828052 -0.157401 0.538104
-0.0476363 -0.0685771 -0.179604 -0.511424 -0.161275 -0.84406
-0.077126 -0.157849 0.0236689 -0.478762 0.30093 0.82476
-0.156712 -0.183885 0.227684 -0.943094 -0.30592 0.130337
0.0647112 -0.123879 -0.0152103 0.306468 -0.925894 -0.220903
0.0243065 0.258281 -0.012109 0.483237 -0.787077 0.383394
0.31283 0.342908 -0.0559521 -0.0334917 0.827228 -0.560867
0.230383 -0.360801 -0.158887 -0.175354 -0.618965 -0.765594
-0.025491 -0.152633 0.566284 -0.559988 -0.185517 0.807463
0.310377 -0.139844 -0.222728 0.828052 -0.157401 0.538104
-0.146025 -0.177449 0.153873 0.940865 0.338675 0.0084756
0.197628 0.386003 0.172758 0.267533 -0.957858 0.104568
0.0942996 0.0896584 -0.0392015 0.522029 0.74148 -0.421536
0.306158 0.144246 -0.210478 -0.00191999 -0.436481 0.899712
-0.039084 0.169361 -0.107041 -0.523183 0.60274 -0.602482
-0.07188 0.148716 -0.106832 -0.478762 0.30093 0.82476
0.126194 0.14527 -0.207395 -0.242945 0.459564 -0.854271
0.315463 -0.455491 -0.0698875 0.14846 -0.863963 -0.481174
0.263421 -0.0980438 -0.138243 0.828051 -0.157401 0.538104
0.0216516 0.314407 0.0912165 -0.538756 0.827038 -0.160469
0.18326 0.368386 0.0313909 -0.25846 0.899654 -0.351882
0.400412 -0.339609 -0.140896 -0.327841 0.642649 0.692475
-0.118576 0.0717408 0.137712 0.291749 0.940567 -0.173828
0.0787867 0.0345899 0.01585 -0.811105 -0.584786 0.0115839
-0.233561 -0.15523 -0.0247155 -0.478762 0.30093 0.82476
-0.0652944 0.0671797 0.305371 -0.291749 -0.940567 0.173828
0.316636 0.373379 -0.00302851 -0.0467853 0.898111 -0.437273
0.0542955 -0.398869 0.357898 0.429036 0.795747 -0.427451
-0.108121 -0.130047 -0.103662 -0.727294 -0.375457 -0.574522
0.244502 0.399452 0.201113 0.192268 -0.979917 0.0528786
-0.159356 -0.0689448 -0.0781932 -0.478762 0.30093 0.82476
0.191121 0.292485 -0.0736992 0.18926 -0.798635 0.571281
-0.150909 0.209065 -0.174727 -0.478762 0.30093 0.82476
-0.0454462 -0.187646 0.468283 0.807293 0.254453 -0.532476
-0.0803858 -0.0359615 0.47621 -0.838351 0.0747755 0.539979
-0.00793834 0.246759 -0.036839 -0.502856 0.749776 -0.430084
-0.111064 -0.243151 0.0141522 -0.814023 -0.488912 -0.313579
0.013849 -0.214579 0.0754874 0.478762 -0.30093 -0.82476
0.374495 0.264418 -0.144141 0.103606 0.669466 -0.735582
0.142896 -0.447259 -0.0202601 -0.392487 -0.784622 -0.479919
-0.197668 -0.174278 -0.10538 0.478762 -0.30093 -0.82476
-0.0226348 -0.3027 -0.0210439 0.666438 0.597855 0.445455
0.182469 -0.400826 -0.105273 -0.2693 -0.712176 -0.648292
0.397434 -0.0186238 -0.248201 -0.14176 -0.102614 0.984568
0.24259 -0.0948154 -0.157335 0.291749 0.940567 -0.173828
-0.21295 0.254737 -0.162335 -0.478762 0.30093 0.82476
0.0768485 0.317086 0.00347642 -0.395784 0.83716 -0.377517
-0.0183133 0.24896 0.295091 0.690854 -0.68258 -0.238339
-0.17329 0.174316 -0.15335 0.478762 -0.30093 -0.82476
-0.125334 -0.219828 0.313407 -0.90029 -0.33856 0.273596
-0.0262565 0.0436213 0.140507 0.291749 0.940567 -0.173828
-0.174438 -0.14588 0.155584 -0.965222 -0.257069 0.0475696
0.192672 -0.0916388 -0.121016 -0.291749 -0.940567 0.173828
-0.149948 -0.180581 0.270595 -0.935549 -0.296751 0.191538
0.155858 -0.275496 -0.197431 -0.257239 -0.486651 -0.834865
-0.0789522 0.0802531 0.353188 -0.291749 -0.940567 0.173828
-0.0177998 -0.293104 -0.0401671 0.646796 0.596464 0.475274
-0.0696093 0.157952 -0.15823 0.56024 0.269097 -0.783402
-0.10809 0.198761 0.176585 -0.814367 0.577293 0.0594893
-0.0306222 0.155481 0.00155952 0.828051 -0.157401 0.538104
-0.268723 -0.0759968 -0.195396 -0.82805 0.157402 -0.538105
-0.149567 0.0817427 -0.0245942 -0.436521 -0.317621 -0.841764
0.0599763 0.282897 0.382534 0.555906 -0.750124 -0.358164
0.00728461 -0.0767483 0.553028 0.828052 -0.157401 0.538103
0.0219163 -0.321436 -0.0527382 0.579851 0.624993 0.522645
0.518791 0.0561167 -0.246243 0.55793 0.136892 -0.81852
-0.000576062 0.062412 0.0180936 0.0146736 -0.953369 -0.301451
0.125002 -0.470195 0.101726 0.458828 0.849866 0.259237
-0.0196527 -0.355245 0.0148138 -0.656341 -0.669807 -0.347239
-0.282662 -0.0370606 -0.139714 0.478762 -0.30093 -0.82476
-0.225493 -0.153731 -0.0948063 -0.877898 -0.173793 -0.446196
-0.0771189 -0.146718 0.0196116 -0.478762 0.30093 0.82476
0.384943 -0.278349 -0.220169 0.0999769 -0.44357 -0.890646
-0.0595279 -0.273138 0.0542593 0.478762 -0.30093 -0.82476
0.0159958 -0.326365 0.4065 -0.191049 0.567247 -0.801081
0.0978042 0.337655 0.295035 0.468207 -0.865655 -0.177268
0.388378 0.148344 -0.201036 -0.141511 -0.446164 0.883692
0.0617319 -0.367591 -0.033548 0.521684 0.693909 0.496322
-0.0414344 -0.113626 0.511333 -0.303033 -0.933158 0.193358
0.230621 0.0494698 -0.260878 -0.0818761 0.205292 -0.97527
0.143228 0.306355 -0.0177929 -0.478762 0.30093 0.82476
0.393248 0.383062 0.0232769 0.342348 0.902024 -0.262964
0.317749 0.395196 0.0502339 0.534269 0.512493 -0.672241
-0.270798 0.0892262 -0.0827669 0.411461 -0.481333 -0.773963
-0.138863 -0.122249 0.352061 -0.920733 -0.149993 0.360213
0.0621577 -0.470608 0.228711 0.828051 -0.157401 0.538104
0.0354143 -0.344044 -0.0382663 0.551375 0.66018 0.510047
-0.169653 -0.100414 0.258967 -0.968046 -0.106301 0.227126
0.0858091 -0.47835 0.194605 -0.560023 -0.186702 0.807166
0.395299 0.271971 -0.134149 0.150693 0.675194 -0.722084
-0.0647686 0.248153 0.203917 -0.721874 0.687332 0.080454
0.114276 -0.281882 -0.15451 0.35923 0.53051 0.767797
0.00261869 0.308987 0.207888 -0.608575 0.789546 0.079083
0.0102163 -0.0675476 -0.116172 0.353189 -0.598469 -0.719091
-0.0877256 0.196762 0.171088 0.796656 -0.602756 -0.0449894
0.156098 -0.484346 0.179181 0.204181 0.978534 -0.0279676
0.0714599 -0.290212 -0.149891 -0.434477 -0.540042 -0.720822
-0.00137677 0.307023 0.179255 -0.615383 0.788062 0.0161744
0.122446 -0.475488 0.259178 0.828051 -0.157402 0.538104
0.318784 0.272111 -0.116011 -0.0187799 -0.721347 0.692319
0.0345113 -0.211944 -0.155278 0.464399 0.43684 0.770392
-0.177139 0.0676917 0.111957 -0.961638 0.273117 0.0256771
0.261246 0.134012 -0.2344 -0.0356665 0.395381 -0.917824
0.0143495 -0.359554 0.380858 -0.210729 0.620771 -0.75514
0.435327 0.351533 0.0196188 0.828052 -0.157401 0.538104
0.14183 -0.394182 -0.0629142 0.386911 0.726688 0.567648
0.00319032 -0.154576 -0.186062 -0.489821 -0.306283 -0.816251
0.289642 0.234359 -0.174292 -0.0279919 0.61135 -0.790865
-0.0247522 0.0204694 0.54086 -0.76588 0.15854 0.623131
0.279678 -0.0208978 -0.256179 0.00301292 -0.0781532 0.996937
0.121762 -0.404257 -0.0678148 -0.379674 -0.732714 -0.564782
-0.0550051 0.252083 0.0741867 -0.679424 0.714061 -0.168823
0.320146 -0.166089 -0.244487 -0.0194765 0.2325 0.972401
0.324949 0.386171 0.134013 -0.711855 -0.611983 -0.344585
-0.0113612 0.0411008 0.254781 -0.291749 -0.940567 0.173828
0.0274835 0.124003 -0.0126194 0.244761 0.9649 -0.0951867
0.368127 0.256503 -0.152241 0.103606 0.669466 -0.735582
-0.17893 0.183673 -0.227574 0.56024 0.269097 -0.783402
0.0241072 -0.418049 0.241783 0.641363 0.765843 -0.046232
0.110752 -0.00287449 0.124526 0.828051 -0.157401 0.538104
0.034846 -0.392718 -0.00182132 -0.532321 -0.740509 -0.410222
0.034024 0.289022 0.0476757 0.508241 -0.816021 0.27532
0.13366 -0.0619684 -0.0239926 0.83801 -0.436659 -0.327212
-0.221036 0.0936701 0.0213635 -0.429931 0.437754 0.78964
-0.266858 0.184861 -0.0973425 -0.0980418 0.90434 0.415399
-0.0871801 0.158365 0.297286 0.839779 -0.473632 -0.265411
0.250385 0.139753 -0.211355 0.0447589 -0.431316 0.90109
-0.0316306 0.0299031 0.160172 -0.291749 -0.940567 0.173828
0.126656 0.283633 -0.0408119 0.478761 -0.300929 -0.82476
-0.0526813 -0.114403 0.0239534 -0.333729 -0.909602 0.247485
0.0851755 0.222369 -0.0208473 -0.478762 0.30093 0.82476
-0.0147555 -0.31704 -0.0116434 0.641892 0.634844 0.430056
0.0763229 0.0370064 0.00769939 -0.779774 -0.616514 0.108912
0.357587 -0.250975 -0.214946 -0.0602846 0.383394 0.921615
0.173341 -0.446494 -0.00649536 0.3316 0.829664 0.449109
-0.0203624 0.265834 0.212945 0.679333 -0.727926 -0.0928958
0.108635 0.353241 0.195559 0.436119 -0.899744 0.0161762
0.368886 0.239989 -0.166109 0.115235 0.635576 -0.76339
-0.035124 0.121312 0.0345883 -0.0779322 0.91815 0.388493
-0.0559993 0.0754359 -0.0286586 -0.0690224 -0.981101 -0.180768
0.0652802 0.278333 0.399321 0.578543 -0.719573 -0.384061
0.314387 -0.150783 -0.236754 -0.291749 -0.940567 0.173828
0.118962 0.136612 -0.209889 -0.237773 0.430391 -0.870762
0.0921102 -0.458446 0.128925 0.507731 0.842132 0.18172
0.0331128 0.329317 0.225818 -0.556439 0.826503 0.0852592
0.0569857 -0.0546244 -0.148468 -0.291749 -0.940567 0.173828
-0.00652931 -0.271649 0.491999 -0.539615 -0.473604 0.696071
0.313145 -0.470983 -0.032958 0.828052 -0.157401 0.538103
0.397426 0.376728 0.0830308 -0.0980472 0.904336 0.415406
-0.0506808 -0.265282 0.0565287 0.478762 -0.30093 -0.82476
-0.221695 -0.113745 -0.156461 0.237723 -0.770662 -0.591242
0.152996 -0.457561 0.0318763 0.383029 0.844501 0.374309
-0.239124 0.205317 -0.158657 -0.828052 0.157401 -0.538103
0.0774476 0.082241 -0.220318 -0.321175 0.29537 -0.89978
0.22762 0.220707 -0.157264 0.0910742 -0.629109 0.771963
0.424361 -0.134908 -0.240403 -0.191859 0.139568 0.971448
0.0250479 0.183053 -0.140713 -0.400292 0.606406 -0.68705
0.473679 -0.215122 -0.205152 0.828051 -0.157401 0.538104
-0.00254251 -0.0830132 -0.202927 -0.451267 -0.141766 -0.881057
-0.0190584 0.152686 -0.13751 -0.481327 0.55038 -0.682207
0.130057 -0.207802 -0.222507 -0.286497 -0.348412 -0.892485
-0.109084 0.112104 0.356003 -0.860747 0.373803 0.345524
0.0923854 -0.377534 -0.0802634 -0.415556 -0.70182 -0.578586
0.439214 0.271193 -0.0963018 -0.913017 -0.407163 0.0248817
0.0914644 -0.102516 -0.0363547 0.519402 -0.749525 -0.410408
0.114106 -0.0961139 -0.00405891 0.678337 -0.716369 -0.163322
0.133101 -0.0502662 -0.237659 0.259505 0.0256129 0.965402
0.18551 -0.0595759 -0.0624597 0.29175 0.940567 -0.173827
-0.119423 -0.199091 -0.0269733 -0.798643 -0.461378 -0.386393
0.168535 0.36355 0.331917 0.375246 -0.903656 -0.206387
0.353801 0.101537 -0.24537 0.0674552 0.322209 -0.944262
0.174576 0.153602 -0.214668 -0.195519 0.472024 -0.859631
0.377429 -0.0930689 -0.269953 0.126214 -0.077778 -0.988949
-0.161687 0.0151273 0.202208 0.970857 -0.155621 -0.182262
0.346597 -0.0796441 -0.27349 0.0873804 -0.0240712 -0.995884
-0.149137 -0.109757 0.26217 0.966578 0.141214 -0.213974
-0.0503687 -0.342657 0.217632 0.776268 0.62749 -0.0605252
0.3787 -0.0816091 -0.252328 -0.121345 0.0306597 0.992137
0.0430995 -0.0791962 -0.224814 -0.389231 -0.112225 -0.914278
-0.109016 0.0413389 0.092168 -0.291749 -0.940567 0.173828
-0.0396587 -0.336971 0.0890842 0.478761 -0.30093 -0.82476
0.04682 0.117613 0.0527611 0.175704 0.948843 0.262346
0.451592 -0.14844 -0.215715 -0.923796 0.29314 0.246314
0.416813 0.256529 -0.119447 -0.179278 -0.677885 0.712974
0.204561 0.389765 0.234953 0.307092 -0.95107 -0.0340609
-0.0995994 -0.0871057 0.406518 0.881935 0.0467967 -0.469042
0.120726 0.361863 0.07538 -0.384377 0.892557 -0.235789
0.165608 0.390584 0.28855 -0.34599 0.930911 0.117029
0.126678 0.331824 0.369871 0.451532 -0.838599 -0.304748
0.280095 0.294622 -0.11709 -0.0305796 0.740885 -0.670936
0.0707833 0.250198 -0.0610458 0.478762 -0.30093 -0.82476
0.0420802 0.149023 -0.0191019 -0.478762 0.30093 0.824759
0.157181 0.374072 0.218714 0.342875 -0.939362 -0.00596173
0.334934 -0.221428 -0.227648 -0.0335718 0.328058 0.944061
0.109439 -0.518353 0.233508 -0.0409747 -0.974205 -0.221914
0.0399161 -0.0691037 0.00592585 -0.231856 0.961213 0.149375
0.13455 -0.329804 -0.126834 0.329213 0.631052 0.702419
-0.188599 0.00892477 0.123435 -0.993792 0.107964 0.0268476
-0.137415 -0.078042 0.0975871 0.828051 -0.1574 0.538104
0.15127 -0.396593 -0.0655933 0.327499 0.740371 0.587022
0.159871 0.290618 -0.0950648 -0.228242 0.780709 -0.581721
-0.135522 -0.110898 0.0850634 0.828052 -0.157401 0.538104
-0.00280636 -0.0946334 -0.0934879 0.21156 -0.801105 -0.559887
-0.050728 -0.185356 0.494952 -0.79815 -0.258429 0.544215
0.385295 -0.0293965 -0.26903 0.150401 0.0559948 -0.987038
0.0322783 0.180233 -0.147081 -0.38974 0.588187 -0.708617
-0.0871654 -0.281154 0.0934017 0.810284 0.566284 0.150875
0.139789 -0.479362 0.156843 -0.411891 0.825592 -0.385673
0.218893 -0.420996 -0.0681527 0.228887 0.773678 0.59079
0.376431 0.272499 -0.111276 -0.12171 -0.706272 0.6974
0.00611634 0.127505 -0.0319894 0.247393 0.96387 -0.0987536
0.115486 -0.0914966 -0.0152419 0.693015 -0.676505 -0.24914
0.17871 0.335009 0.00280352 0.228152 -0.880269 0.41602
0.111112 0.0466191 0.0975093 0.670604 0.407982 0.619549
-0.128274 -0.257561 0.205661 -0.890658 -0.447891 0.0782465
-0.147977 0.231763 -0.224687 0.478762 -0.30093 -0.82476
0.0543668 -0.40902 0.383383 0.828052 -0.157401 0.538103
0.105092 0.242998 -0.0168131 -0.478762 0.30093 0.82476
0.479125 0.208566 -0.165041 0.233714 0.552839 -0.799842
0.179713 0.143908 -0.220526 -0.141923 0.451208 -0.881061
0.0972001 0.264642 -0.097884 -0.313612 0.735217 -0.600918
0.0663207 0.177918 -0.165919 -0.326757 0.570474 -0.753518
0.00773309 -0.0735553 0.553271 0.828052 -0.157402 0.538102
-0.170643 -0.0447497 0.162027 0.993976 0.0315409 -0.104957
0.0242418 -0.41166 0.29021 0.650519 0.744981 -0.147743
0.174313 -0.180552 -0.244358 -0.196228 -0.277415 -0.940498
-0.132775 -0.191109 0.322522 -0.906666 -0.302593 0.293929
0.388946 0.284008 -0.12329 0.13768 0.708273 -0.692383
0.189184 0.368013 0.322082 -0.510157 -0.571185 -0.64303
0.165261 0.309236 -0.0060537 -0.478762 0.30093 0.82476
-0.0437361 -0.14905 0.53559 -0.828052 0.1574 -0.538103
0.0727061 0.32747 0.11142 0.455139 -0.879589 0.13846
0.292646 0.340068 -0.0251724 0.0816562 -0.864544 0.495878
0.222848 0.265252 -0.114827 0.141954 -0.735426 0.662569
-0.0553952 -0.125398 0.49753 -0.420417 -0.809294 0.410236
0.188699 0.36395 0.0709744 0.248055 -0.921368 0.299249
0.166222 0.37605 0.249305 0.332884 -0.940321 -0.0706063
0.237902 -0.338414 -0.155368 0.163383 0.585278 0.794201
-0.134923 -0.00763507 0.318501 0.942619 -0.106748 -0.316346
-0.0353906 -0.210302 0.0453438 0.478762 -0.30093 -0.82476
-0.207382 -0.10287 -0.191314 0.0425915 -0.939348 -0.34031
-0.0525797 -0.324872 0.292614 0.798025 0.573224 -0.185932
0.0133798 0.178763 0.49727 -0.65912 0.506348 0.556032
-0.271642 -0.0394698 -0.180125 0.124337 0.987438 0.0975015
0.0171512 -0.123755 -0.0348138 -0.0391833 -0.913501 -0.404946
0.330255 -0.149972 -0.266023 0.0444735 -0.194876 -0.979819
0.158743 0.391595 0.164079 -0.319398 0.943632 -0.0868582
-0.179145 0.0951046 -0.283194 -0.828052 0.1574 -0.538104
-0.0551707 0.0268866 0.499785 -0.786625 0.204459 0.582596
-0.181348 0.160171 -0.152867 0.478762 -0.30093 -0.82476
0.0934121 0.230302 0.475959 0.350105 -0.604473 -0.715569
0.08813 0.279704 0.456199 0.560021 0.186701 -0.807167
0.391953 0.238681 -0.163696 0.125723 0.600266 -0.789857
-0.12369 -0.147131 0.378737 -0.898591 -0.204355 0.388295
-0.0259634 0.200944 -0.083761 -0.525628 0.664914 -0.530665
0.0361875 0.0612501 0.0118984 -0.179851 -0.982722 0.0437119
0.00282131 -0.287408 -0.0708311 0.587037 0.581794 0.562942
0.0747812 0.0657018 0.11242 0.372821 0.547856 0.748905
0.183247 0.340755 0.362819 0.828052 -0.157401 0.538103
-0.0309231 -0.00753312 -0.199272 0.505432 -0.205784 -0.837969
0.371033 -0.161677 -0.242799 -0.0776915 0.204436 0.975792
0.145103 -0.0569715 -0.0132728 -0.29175 -0.940567 0.173827
-0.0234412 -0.375709 0.336697 -0.721219 -0.653011 0.231128
-0.0923918 -0.0260886 -0.229014 0.447334 -0.393084 -0.803354
0.346097 -0.234253 -0.241612 0.0303041 -0.372454 -0.927556
0.068422 -0.0840682 -0.0766834 0.326528 -0.631017 -0.703702
0.0799201 -0.466696 0.202522 0.828053 -0.157411 0.538099
0.265979 -0.210707 -0.248498 -0.060859 -0.336849 -0.93959
-0.0133261 0.156629 0.448143 0.743323 -0.462971 -0.482834
-0.0412322 0.193445 -0.148742 0.478762 -0.30093 -0.82476
-0.195186 0.0718562 0.0458714 -0.478762 0.30093 0.82476
0.0676023 0.0765571 -0.172678 0.828052 -0.157401 0.538104
0.0440728 0.274046 -0.0462836 -0.43361 0.768514 -0.470497
-0.0145711 0.132138 -0.0119339 0.141247 0.987433 0.0708913
-0.158857 -0.117204 -0.0274034 -0.349016 -0.895849 0.275033
-0.00766742 0.170463 0.442949 0.726634 -0.502345 -0.468671
0.467856 0.00922613 -0.230019 -0.237964 -0.136559 0.961626
0.275752 -0.187611 -0.237716 0.054066 0.295662 0.953761
0.116579 0.213676 -0.021136 0.478762 -0.30093 -0.82476
-0.127926 -0.227019 0.293864 -0.892797 -0.373473 0.251854
0.199902 -0.397598 -0.0885575 0.241544 0.730742 0.638493
-0.0637744 0.0624451 0.282304 -0.291749 -0.940567 0.173828
0.183559 -0.376542 -0.104602 0.278941 0.705473 0.651536
-0.100436 0.106152 -0.226021 0.543143 0.4632 -0.700315
0.0535754 0.0944857 -0.20707 -0.324581 0.351502 -0.878119
-0.288259 0.172363 -0.0926865 -0.82805 0.157402 -0.538105
0.11177 -0.324968 -0.144533 -0.361326 -0.605182 -0.709365
-0.116704 -0.241048 0.20341 0.891637 0.446306 -0.0761199
0.453575 -0.0753136 -0.257898 0.23791 -0.0112753 -0.971222
-0.157783 0.0393558 0.198907 0.965623 -0.221869 -0.135451
0.209322 -0.0916127 -0.195843 0.291749 0.940567 -0.173828
0.265904 0.251437 -0.158917 -0.0504559 0.672442 -0.738428
0.389793 -0.272606 -0.222477 0.105088 -0.439478 -0.892085
-0.178046 -0.0576395 -0.115471 0.124337 0.987438 0.0975015
-0.067555 -0.243215 0.431448 -0.811007 -0.372072 0.451476
0.292336 0.387366 0.0853845 0.107181 -0.956299 0.272039
-0.0525334 -0.0507805 0.517664 -0.79036 0.0147338 0.612465
-0.00337946 -0.370643 0.0725586 0.648323 0.723115 0.238289
0.230417 -0.146283 -0.262598 -0.109154 -0.189439 -0.975806
-0.159257 0.00974843 -0.280922 0.505431 -0.205788 -0.837969
-0.0932997 0.178121 -0.108305 0.478762 -0.30093 -0.82476
0.488682 -0.160723 -0.212327 0.828051 -0.157401 0.538104
-0.0769367 -0.0741481 0.4488 0.855866 0.0120958 -0.517056
0.0225776 -0.380584 -0.00606133 -0.563308 -0.70662 -0.42822
0.00395227 0.264679 0.312234 0.643834 -0.722601 -0.251646
0.0783156 -0.0428249 0.00430037 -0.804882 0.561267 0.192729
0.0995653 -0.395052 -0.0637634 -0.438964 -0.713576 -0.546004
0.028608 0.00285473 0.14521 0.0220078 0.0574049 0.998108
0.144491 -0.0812293 -0.145558 -0.291749 -0.940567 0.173828
0.0769147 -0.500446 0.253649 -0.526714 -0.54726 0.650446
-0.0766244 0.0474927 -0.231065 0.554493 0.0880506 -0.827517
-0.00867191 -0.201319 0.0575763 0.478762 -0.30093 -0.82476
-0.254548 -0.128833 -0.15498 0.478762 -0.300929 -0.82476
-0.174824 -0.0797971 -0.224852 0.231223 -0.778481 -0.583527
-0.119973 -0.0532481 0.364042 0.9191 -0.0133056 -0.393799
-0.0882938 0.0883078 -0.106962 -0.897586 -0.410949 -0.159563
0.107469 -0.453181 0.0778986 0.491465 0.824232 0.281252
-0.0824232 0.207615 0.279362 -0.790781 0.570274 0.222378
-0.113957 -0.246496 0.203635 0.891637 0.446306 -0.0761198
0.0391228 -0.28369 -0.107428 0.4963 0.586603 0.639986
0.364625 0.362257 0.0812707 -0.769462 -0.588135 -0.249049
0.311103 -0.401703 -0.111592 0.0900184 0.705302 0.703168
0.0881842 0.362171 0.166681 -0.440131 0.894903 -0.0737102
0.0384191 0.289264 0.0402788 0.508241 -0.816021 0.275321
0.0875372 0.205371 -0.0349643 0.478761 -0.300929 -0.82476
0.164852 -0.0716245 -0.0594123 -0.291749 -0.940567 0.173828
-0.197796 -0.0169808 0.0478877 -0.560652 -0.233664 0.7944
-0.0136729 -0.28129 0.0838523 0.478763 -0.30093 -0.824759
0.219962 -0.117258 -0.213839 -0.291749 -0.940567 0.173828
-0.160924 -0.0571344 0.229088 0.97883 0.0231925 -0.203359
-0.204415 0.163724 -0.167553 0.478768 -0.30094 -0.824753
-0.0414509 -0.319941 0.0435062 0.721153 0.622308 0.304421
0.38575 0.423656 0.0905741 0.0130292 0.964925 0.262201
0.525843 0.0407068 -0.212408 -0.37148 0.56483 0.736865
0.32717 -0.2855 -0.199114 -0.00367427 0.49701 0.867737
-0.0632499 0.0636838 -0.095378 -0.478036 -0.699697 0.530948
0.382086 0.403343 0.0419021 -0.828051 0.1574 -0.538104
0.326319 -0.326528 -0.174274 0.0381575 0.565977 0.823537
0.184082 -0.479166 0.0512957 0.347975 0.86816 0.353853
0.296426 0.277085 -0.110659 0.039834 -0.738397 0.673189
0.0792739 0.018766 -0.0992393 0.426221 0.194733 -0.883411
0.0819189 -0.445442 0.260996 -0.321885 0.779252 -0.537733
0.119065 0.375459 0.253088 -0.443215 0.892028 0.0885819
0.170354 -0.0878745 -0.241018 0.291749 0.940567 -0.173828
0.147464 0.149566 -0.210718 -0.195519 0.472023 -0.859632
-0.19192 -0.157139 -0.00487188 0.828052 -0.157401 0.538103
0.373067 0.331917 -0.0687356 0.0921584 0.797505 -0.596232
-0.0447155 0.0961477 0.0721548 -0.262002 0.739896 0.619604
0.421553 -0.236216 -0.198467 -0.877681 0.428359 0.214906
0.0492275 0.065201 0.122249 0.190911 0.558283 0.807387
-0.037874 -0.369303 0.0933002 -0.711682 -0.676051 -0.190954
0.239381 0.196562 -0.176844 0.0714398 -0.567679 0.820145
0.405569 -0.369987 -0.148406 0.317157 -0.664674 -0.676476
-0.0613327 -0.311793 0.294525 0.811434 0.54334 -0.215307
-0.265194 0.0761942 0.00349888 -0.492709 0.253671 0.832399
0.100911 0.35478 0.318472 -0.48271 0.847987 0.218881
0.127191 0.204909 -0.0117775 0.478762 -0.30093 -0.82476
-0.0214082 0.146194 0.445707 0.743323 -0.462971 -0.482834
-0.093011 -0.174673 0.429719 -0.851367 -0.233011 0.469979
0.273909 0.390489 0.249344 -0.0690221 -0.981101 -0.180767
-0.10226 0.207276 0.108459 -0.766281 0.639987 -0.0568313
-0.122356 -0.131007 0.340633 0.921856 0.186928 -0.339471
-0.131069 0.156309 0.209144 -0.873667 0.471542 0.119808
-0.0337315 0.0698447 0.368133 0.828052 -0.157401 0.538104
0.205326 0.157491 -0.217696 -0.141924 0.451208 -0.881061
0.391042 0.201881 -0.190484 0.143171 0.525752 -0.838503
0.0711338 0.273682 -0.0694787 -0.400671 0.749709 -0.526686
0.203448 0.217815 0.0277799 0.478762 -0.30093 -0.82476
-0.129838 -0.180262 0.275744 0.920872 0.315848 -0.228548
0.310133 0.144565 -0.23006 0.00937773 0.437218 -0.899307
0.311767 -0.426241 -0.0593064 0.828052 -0.157401 0.538103
0.2188 -0.256692 -0.223281 -0.15772 -0.421044 -0.893222
-0.190566 -0.010815 0.054718 -0.559989 -0.185546 0.807456
-0.152361 -0.156461 0.00433987 -0.892629 -0.363425 -0.266711
-0.214401 0.237371 -0.156841 -0.478762 0.30093 0.82476
0.0643573 0.333708 0.315578 -0.539849 0.813985 0.214457
-0.136252 -0.202394 0.153025 0.920098 0.391653 -0.00520209
-0.0497507 -0.329152 0.0240538 -0.70162 -0.628558 -0.335625
-0.0449569 0.0390642 0.509302 -0.786625 0.204459 0.582596
-0.0872121 -0.0301155 0.429369 0.869187 -0.0831698 -0.48744
-0.0186646 0.187879 -0.105449 -0.486515 0.635602 -0.599427
0.0458616 0.199673 -0.0570776 0.478762 -0.30093 -0.82476
0.307955 -0.408611 -0.10426 0.0900184 0.705302 0.703168
-0.0763749 0.123575 0.0626323 0.828051 -0.157401 0.538104
0.0375913 0.222793 0.482119 -0.621822 0.585218 0.52044
-0.0733897 0.171658 -0.0679822 -0.612688 0.648822 -0.451269
0.400845 -0.285287 -0.172513 -0.834759 0.521678 0.176151
0.325972 0.32597 -0.0803138 -0.0161362 0.804037 -0.594361
-0.0485582 -0.118778 -0.0510636 0.828052 -0.157401 0.538103
-0.0806313 -0.0900198 0.0486971 -0.467243 -0.724194 0.507175
-0.0302552 -0.133804 -0.172541 -0.538796 -0.291854 -0.790266
-0.0970584 0.0504052 0.384195 0.887732 -0.21808 -0.405429
0.335777 0.104486 -0.24564 0.0656196 0.362692 -0.929596
-0.0056277 0.186665 -0.116933 -0.474414 0.623282 -0.621652
0.203858 -0.515707 0.104149 -0.0944345 -0.985226 -0.142869
0.0913546 0.28293 -0.0698687 -0.344903 0.764852 -0.544099
0.0591261 -0.468932 0.229925 -0.575136 -0.818009 0.0089576
0.422383 0.34175 0.025704 -0.370454 -0.874021 0.314405
-0.0397095 0.240109 0.250342 0.738105 -0.654951 -0.161989
-0.026577 -0.0303211 -0.0781769 -0.350105 0.604474 0.715568
0.231369 -0.349368 -0.168356 -0.175354 -0.618965 -0.765594
-0.224561 0.174758 -0.0656838 -0.125435 0.883441 0.45144
0.0193181 -0.410188 0.0610066 -0.600427 -0.739215 -0.305039
-0.0476398 0.13896 0.0229142 0.828051 -0.157401 0.538104
-0.0473512 0.0720702 -0.0615299 -0.326711 -0.915449 0.234976
0.162822 -0.0627806 -0.0149659 -0.29175 -0.940567 0.173827
0.140357 0.330405 0.0204762 0.302717 -0.876695 0.373856
0.13587 0.292318 -0.0493297 0.304426 -0.789673 0.532673
0.140502 -0.0487009 -0.0791574 0.291749 0.940567 -0.173828
-0.0862293 -0.205266 0.380837 0.874402 0.29579 -0.384615
0.42829 0.27766 -0.0953647 -0.166116 -0.711346 0.682929
0.285716 0.109438 -0.245397 0.0164195 0.360823 -0.93249
-0.190877 -0.0455161 0.0994432 -0.998377 -0.0552378 -0.0138343
0.205273 -0.0990208 -0.242722 0.291749 0.940567 -0.173828
0.402781 0.0479675 -0.25468 0.165413 0.234166 -0.958021
-0.302496 -0.0271302 -0.129133 -0.828051 0.157401 -0.538104
-0.183891 0.18289 -0.184322 -0.478762 0.30093 0.82476
0.110814 -0.107785 0.0937437 0.828052 -0.157401 0.538103
-0.156564 -0.143962 0.153973 0.964472 0.259195 -0.0510993
-0.205044 0.0244621 -0.025697 0.549689 0.0390421 -0.834456
0.0120335 -0.054476 -0.0332923 -0.17922 0.83511 0.520068
0.333192 0.297316 -0.0876552 -0.0327637 -0.786422 0.61682
-0.0459701 0.0825677 0.390688 0.828051 -0.157401 0.538104
0.15519 0.348748 0.404959 -0.17461 0.839647 0.514301
-0.235733 -0.179017 -0.0823668 -0.478762 0.300929 0.82476
0.251156 -0.124573 -0.201062 -0.291749 -0.940567 0.173828
0.346256 -0.375111 -0.0974229 0.828052 -0.157401 0.538103
-0.0302715 0.232036 -0.0327546 -0.568255 0.721966 -0.394782
0.0664081 -0.178618 -0.209539 -0.384183 -0.321608 -0.865432
0.19072 0.294194 -0.101346 -0.212226 0.761973 -0.611848
-0.167299 -0.0509518 0.281189 -0.96656 0.00172074 0.256436
0.12209 0.166054 -0.172503 0.259917 -0.543138 0.798401
0.102825 -0.495824 0.197604 -0.501446 -0.861931 -0.0750077
0.181137 0.247132 0.00413167 0.478762 -0.30093 -0.824759
-0.0525957 0.113991 0.423148 0.798722 -0.380636 -0.466003
-0.121869 -0.0557524 0.3597 0.9191 -0.0133056 -0.393799
0.339303 0.236403 -0.171635 0.0676196 0.629024 -0.77444
-0.147802 -0.00632553 -0.191329 -0.411432 0.481399 0.773937
-0.154664 -0.12096 -0.129449 -0.0412033 -0.974271 -0.22158
-0.102051 0.212943 -0.176869 -0.874438 -0.0795729 -0.478566
0.102675 0.0406703 -0.0770273 0.587937 0.355821 -0.726444
0.382823 0.208772 -0.165167 -0.120915 -0.562344 0.818015
-0.00394362 -0.0377961 0.520247 -0.162653 0.0992219 -0.981682
-0.199563 0.0719134 -0.233303 -0.559911 -0.281417 0.779297
0.230088 -0.125788 -0.242997 -0.291749 -0.940567 0.173828
-0.251428 -0.0400197 -0.184662 0.013505 0.965103 0.261521
0.101433 -0.471 0.168024 0.49921 0.858372 0.118267
-0.187687 -0.143357 -0.110869 0.478762 -0.300929 -0.82476
0.162454 -0.0556108 -0.0797017 0.291749 0.940567 -0.173828
0.0560708 0.291481 0.0191445 0.46918 -0.817042 0.335131
0.087794 -0.463233 0.241285 -0.828051 0.157401 -0.538104
-0.152308 0.127708 -0.250963 0.526602 0.547738 -0.650133
-0.168351 -0.0857583 0.151155 0.989851 0.122519 -0.0719972
0.0949521 0.20245 -0.00790445 -0.478762 0.30093 0.82476
0.287249 0.424189 0.18795 -0.15289 0.984749 -0.0830336
0.340448 -0.134402 -0.268253 0.0568587 -0.152909 -0.986603
-0.108489 -0.20024 -0.0467409 -0.767177 -0.469395 -0.437159
-0.165227 -0.145165 -0.0971706 0.478762 -0.300929 -0.82476
-0.0479648 -0.125501 0.487023 0.817882 0.122861 -0.562116
0.485236 0.181937 -0.18009 0.542248 0.468734 -0.69732
0.267387 0.397667 0.14295 0.179864 -0.971273 0.155815
-0.0553955 0.0555124 0.488756 -0.803735 0.252574 0.538718
-0.175656 -0.135988 0.177165 -0.971299 -0.228752 0.065204
-0.137193 -0.19193 0.00726118 -0.857131 -0.427988 -0.286622
0.0842053 -0.448582 0.108155 0.515609 0.821551 0.243315
0.107216 0.159842 0.0147611 -0.478762 0.300929 0.82476
-0.0928354 -0.247203 -0.0204 -0.765447 -0.508689 -0.394114
-0.155992 -0.0903415 -0.0467432 0.478762 -0.30093 -0.82476
-0.11163 0.0615225 0.196992 -0.291749 -0.940567 0.173828
-0.24716 -0.122448 -0.0445704 -0.478762 0.30093 0.82476
-0.0834819 -0.242661 0.349366 0.854288 0.409254 -0.320474
0.201742 0.307015 -0.00575692 0.478761 -0.300929 -0.82476
-0.187499 -0.0607939 0.165875 -0.9942 -0.0602785 0.089063
0.0508467 0.320723 0.163361 0.522805 -0.851388 0.0425815
-0.0352256 -0.357948 0.244496 0.751853 0.652942 -0.0915621
-0.0481889 0.0379065 0.505345 -0.786625 0.204458 0.582596
-0.109899 0.176616 -0.0588127 -0.237723 0.770662 0.591242
0.181093 0.11221 -0.215474 0.180295 -0.377844 0.908145
-0.0277631 0.221551 0.387431 -0.710601 0.573933 0.406998
0.104797 -0.495883 0.185682 -0.501681 -0.861177 -0.0817934
0.163736 -0.0609745 -0.00366052 -0.291749 -0.940567 0.173828
-0.0728895 -0.308958 0.0374032 -0.739798 -0.614996 -0.272909
0.0327964 0.276503 -0.0307832 -0.468275 0.780828 -0.413553
0.37934 -0.0611666 -0.252712 -0.12936 -0.0136692 0.991503
-0.126535 -0.263552 0.178348 -0.866032 -0.499347 0.025301
-0.188079 -0.0691169 0.0737073 -0.990106 -0.131532 -0.0488797
0.524685 0.0835253 -0.201162 0.561874 0.300318 -0.770783
0.211614 -0.376236 -0.115429 0.231481 0.662826 0.712094
-0.051579 -0.119751 -0.0284485 -0.141771 -0.987333 -0.0712319
0.219016 -0.222995 -0.238342 -0.139783 -0.387777 -0.911092
-0.100954 -0.240783 0.296683 0.887281 0.403837 -0.222818
-0.118814 -0.26565 0.250053 -0.883782 -0.446105 0.141139
0.31743 0.420451 0.137835 -0.0792773 0.977828 -0.193821
-0.179999 -0.00876358 0.216803 -0.980911 0.0889443 0.172925
0.282817 -0.135406 -0.206541 -0.291749 -0.940567 0.173828
-0.162142 0.187251 -0.151598 0.478762 -0.30093 -0.82476
-0.324191 0.0600649 -0.0702409 -0.828052 0.157397 -0.538104
0.0491722 -0.377295 0.354225 -0.233899 0.669186 -0.705324
-0.251227 -0.0359409 -0.000279891 -0.543143 -0.4632 0.700315
-0.123307 -0.162941 0.0510446 0.828052 -0.157401 0.538104
-0.0168144 -0.134143 0.539547 0.205489 -0.807786 -0.5525
-0.0255171 -0.112473 0.544495 -0.124806 0.883948 0.450621
0.315161 -0.217558 -0.248133 0.00110836 -0.316383 -0.948631
0.0595095 -0.253104 0.130185 0.828052 -0.157401 0.538104
-0.0621414 -0.155991 0.455334 0.835951 0.198743 -0.511553
-0.103769 0.230964 -0.133663 0.478761 -0.300921 -0.824763
0.120383 0.274194 -0.0673352 0.287729 -0.775001 0.562659
0.136378 -0.476546 0.166514 -0.411891 0.825592 -0.385673
-0.0691599 -0.268073 0.404751 -0.822991 -0.432859 0.367856
-0.156627 -0.0632081 0.131491 0.828052 -0.157401 0.538104
-0.15537 -0.00837245 0.24777 0.971437 -0.0818924 -0.22272
0.219553 -0.108769 -0.168591 -0.291749 -0.940567 0.173828
-0.1661 0.0983736 0.0728354 -0.920963 0.38592 -0.0537869
0.180908 0.163489 0.0345174 0.478762 -0.30093 -0.82476
0.0552819 -0.100541 0.0974581 0.252865 -0.736591 0.627291
0.082983 -0.0420478 -0.139697 0.291749 0.940567 -0.173828
0.513923 0.0369165 -0.203517 0.30361 0.932762 -0.194361
-0.0183866 0.180633 -0.113244 -0.474414 0.623282 -0.621652
0.32426 0.150036 -0.206851 -0.0485927 -0.440685 0.896346
0.223854 0.174111 -0.189692 0.109096 -0.525357 0.843859
0.0118837 0.0173243 0.165142 -0.291749 -0.940567 0.173828
0.13235 0.203519 -0.00827548 0.478762 -0.30093 -0.82476
0.216243 0.312881 -0.0525523 0.165266 -0.83421 0.5261
-0.0241156 0.0247558 0.144933 -0.291749 -0.940567 0.173828
-0.138611 -0.155135 0.335259 -0.916009 -0.227853 0.330168
0.152749 -0.0032692 0.0342506 0.989205 -0.00258361 0.146517
0.142055 -0.0645487 -0.162301 0.291749 0.940567 -0.173828
-0.0274845 -0.342898 0.334212 0.746381 0.616113 -0.251634
0.129174 0.249117 -0.0267562 0.478762 -0.30093 -0.82476
0.145409 0.372645 0.0817314 -0.324512 0.913263 -0.246259
-0.043562 0.267042 0.224078 -0.697971 0.70612 0.119295
0.0563624 -0.383434 0.385609 0.462839 0.733564 -0.497658
-0.340625 -0.128457 -0.0966332 -0.478762 0.30093 0.82476
0.118625 0.355629 0.153738 0.388104 -0.917705 0.0848096
-0.106556 -0.20673 0.0244203 -0.478762 0.30093 0.82476
0.0527472 -0.400749 0.388295 0.828052 -0.157401 0.538103
-0.201409 -0.0523408 -0.138062 0.0967941 0.985505 0.139321
-0.0371988 -0.32529 -0.00651169 -0.661924 -0.634836 -0.398548
-0.230719 -0.00209953 -0.0516364 0.549382 0.419274 -0.722765
-0.110507 0.181132 -0.119392 0.478762 -0.30093 -0.82476
-0.00980031 0.189861 -0.110542 -0.486515 0.635602 -0.599428
0.481157 -0.154282 -0.205287 -0.492709 0.253672 0.832399
0.00891086 -0.00280739 0.144577 -0.138689 0.000753117 0.990336
0.182709 -0.2632 -0.212107 -0.23792 -0.458372 -0.856323
-0.18868 0.0748442 -0.0301991 0.391927 -0.523794 -0.756328
-0.0876948 0.130569 0.384701 -0.826335 0.415362 0.380323
0.0823467 0.112644 -0.209874 -0.280869 0.390073 -0.876901
-0.0844285 -0.184005 -0.0961771 -0.706779 -0.420013 -0.569256
-0.190333 0.261529 -0.195065 0.478762 -0.30093 -0.82476
0.168136 0.377845 0.233309 0.368134 -0.928835 -0.0417498
0.151968 -0.483 0.211551 0.828052 -0.157401 0.538104
-0.064643 0.0405822 -0.115044 -0.557796 -0.328039 0.7624
-0.237968 -0.0499294 0.000287265 -0.535538 -0.506099 0.676064
0.0818609 0.0133594 0.130676 0.446837 0.135745 0.884257
0.133376 -0.468424 0.202868 0.828052 -0.157401 0.538104
-0.0737863 0.0164979 -0.125266 -0.535948 0.0595334 0.842149
0.305716 0.291573 -0.121624 -0.0305796 0.740884 -0.670936
0.025922 -0.131926 -0.00875458 -0.00157611 -0.977831 -0.209388
0.385532 -0.211633 -0.227638 -0.0933834 0.301972 0.948732
0.204642 0.278166 0.0281423 -0.478763 0.30093 0.824759
0.123965 0.11228 0.0201474 0.478762 -0.30093 -0.82476
-0.0909169 -0.274073 0.0880188 0.827638 0.532223 0.178197
0.305313 -0.450694 -0.0230479 -0.0980423 0.904341 0.415398
-0.0444704 -0.347994 0.237942 0.776268 0.62749 -0.0605252
0.033148 0.300595 0.0204089 -0.489857 0.816344 -0.305978
-0.13677 -0.0227577 0.317066 0.947438 -0.0683996 -0.312543
-0.0580225 0.248686 0.242473 -0.717623 0.681719 0.142398
-0.159528 0.113054 0.0701213 -0.90006 0.429578 -0.0731832
0.298971 -0.463555 -0.00897462 0.828052 -0.1574 0.538103
0.363398 0.340263 -0.0249977 -0.0413779 -0.844969 0.533212
-0.15092 -0.13897 0.225937 0.955608 0.2424 -0.167496
-0.00383624 0.0280562 0.196828 -0.29175 -0.940567 0.173828
-0.0797164 0.251592 -0.113958 0.291749 0.940567 -0.173827
0.0982974 -0.455917 0.235216 -0.344496 0.791311 -0.505123
-0.137874 0.156361 0.0996075 -0.843865 0.53597 -0.0250696
-0.0891253 -0.171727 0.438219 -0.851367 -0.233011 0.469979
0.0120267 -0.278682 0.0978188 0.478762 -0.30093 -0.82476
0.0979555 -0.228724 -0.179774 0.357065 0.455022 0.815757
0.0409336 -0.376801 -0.0347269 -0.540898 -0.703061 -0.461665
-0.0613542 0.019085 0.0358327 0.505432 -0.205784 -0.837969
0.260048 -0.0263481 -0.255816 0.0556182 -0.0447672 0.997448
-0.0851396 -0.167009 0.447778 -0.851367 -0.233011 0.469979
-0.170519 -0.0765107 0.264912 -0.968594 -0.0706987 0.238384
0.0922992 0.268923 -0.0896587 -0.328948 0.750832 -0.572752
0.0454709 0.194815 -0.0338417 -0.478762 0.30093 0.82476
0.381246 0.424172 0.0888525 -0.0149529 0.95324 0.301843
-0.0502019 -0.14498 -0.0561988 0.828052 -0.157401 0.538103
-0.094491 -0.276147 0.0282557 -0.778715 -0.568004 -0.26641
-0.0599224 0.203487 0.34963 -0.762749 0.559335 0.324588
0.0525198 0.263669 0.406806 0.600534 -0.687385 -0.408486
-0.152532 -0.1411 -0.060793 0.828051 -0.157401 0.538104
0.344671 0.415627 0.124565 0.224921 0.972423 -0.0616714
0.261727 0.295311 -0.114487 -0.0915396 0.752976 -0.651651
-0.012131 0.243757 0.325194 0.685397 -0.664169 -0.298513
0.0325809 0.222411 -0.0761218 0.828052 -0.157401 0.538103
-0.00185703 -0.127571 0.056314 -0.478762 0.30093 0.824759
0.0753206 0.275627 -0.0697068 -0.361439 0.777244 -0.515027
0.0595839 0.211142 -0.0532966 0.478762 -0.30093 -0.82476
0.243431 -0.505232 0.0643015 0.828051 -0.157401 0.538104
0.336187 0.299996 -0.111702 0.0158163 0.752263 -0.658673
0.382054 0.0321408 -0.242895 -0.149224 -0.191209 0.97014
0.0213432 0.287649 0.0706196 0.547991 -0.80798 0.216503
0.0368065 0.0255002 0.148299 0.291749 0.940567 -0.173828
0.169972 0.302455 -0.000845244 -0.478762 0.30093 0.82476
0.0523357 -0.411651 0.385739 0.828052 -0.157401 0.538103
-0.256484 0.136946 -0.0277126 -0.327842 0.642649 0.692476
0.208278 -0.421521 -0.0923175 -0.229873 -0.738226 -0.634178
0.306439 0.0573623 -0.26134 0.0182587 0.241351 -0.970266
-0.19893 -0.0161688 -0.285297 -0.828052 0.157401 -0.538103
0.0205087 -0.346653 0.149233 -0.478762 0.30093 0.82476
-0.0994217 -0.258435 0.0103565 -0.780633 -0.537704 -0.31857
-0.0603385 0.235865 -0.0923962 0.828052 -0.157401 0.538104
-0.231208 -0.117578 -0.102157 -0.478762 0.30093 0.82476
0.108929 -0.426397 -0.0261689 -0.427965 -0.754902 -0.49696
0.0821233 0.0968167 -0.0405651 0.425645 0.790478 -0.440422
0.228389 -0.449483 -0.0327273 0.21695 0.813552 0.539505
-0.0929923 -0.27743 0.112548 0.826331 0.549945 0.121401
0.20971 -0.0832255 -0.14981 0.291749 0.940567 -0.173828
0.360054 -0.375956 -0.150953 -0.516359 -0.58801 0.62259
0.410818 -0.305693 -0.201762 0.374641 -0.558696 -0.739934
-0.128194 0.105644 0.243912 0.905746 -0.370468 -0.205856
0.380164 0.00241931 -0.266454 0.111726 0.150557 -0.982268
0.0710204 -0.473611 0.270465 -0.333441 -0.908051 0.253497
-0.0363866 -0.372173 0.0979177 -0.711682 -0.676051 -0.190954
-0.197783 -0.0355017 -0.0548009 0.462772 0.733706 -0.497511
0.423497 0.157566 -0.210366 0.203975 0.447642 -0.870638
0.11558 -0.0129633 0.114146 0.828052 -0.157401 0.538104
0.176637 0.332751 -0.000826233 0.25004 -0.869712 0.425535
0.18101 0.191885 -0.170587 0.171086 -0.573612 0.801061
-0.322439 0.0198121 -0.0847128 -0.828052 0.157402 -0.538103
-0.0465527 0.178663 0.365864 0.760331 -0.530538 -0.374735
0.0318241 0.0784508 -0.204361 -0.368666 0.315093 -0.874529
-0.269533 0.188636 -0.106209 -0.0704046 0.922991 0.378326
0.218427 -0.489942 0.0048518 -0.25517 -0.851455 -0.458163
0.113237 0.343893 0.0957989 0.410348 -0.88865 0.204735
0.0212893 -0.143047 0.0537067 0.478763 -0.300929 -0.824759
0.19075 0.386163 0.0796347 -0.262726 0.929598 -0.258501
-0.17001 -0.0307333 0.168381 0.992216 -0.0311222 -0.120578
0.247369 -0.465915 -0.0487359 -0.190608 -0.815127 -0.547026
-0.252756 -0.181579 -0.0652256 -0.291749 -0.940567 0.173828
-0.0822254 0.197974 0.212113 0.795925 -0.596539 -0.103176
0.12114 0.285881 -0.0833772 -0.287313 0.775233 -0.562552
0.0105435 -0.151927 0.050709 0.478761 -0.30093 -0.82476
-0.0561097 0.253219 0.230413 -0.717623 0.681719 0.142398
-0.153872 -0.121935 0.110074 0.828052 -0.157401 0.538103
-0.312058 -0.137453 -0.141838 -0.478762 0.30093 0.82476
0.0663185 -0.31701 -0.0969749 0.464441 0.620237 0.63214
0.126767 0.269809 -0.0357035 0.478762 -0.30093 -0.824759
0.0117355 0.310089 0.102886 -0.559692 0.818312 -0.130805
0.304682 -0.148593 -0.241196 -0.291749 -0.940567 0.173828
-0.0192626 -0.0765884 0.551581 -0.55031 -0.0703363 0.831993
-0.0524163 0.085552 0.323484 0.291749 0.940567 -0.173828
0.116491 0.32404 0.375393 0.476207 -0.812934 -0.335211
-0.101103 -0.0466717 0.0725571 -0.550691 -0.408457 0.727944
-0.158329 0.112289 0.16233 -0.910613 0.402035 0.095668
0.30458 -0.129771 -0.242433 0.29175 0.940567 -0.173827
-0.0620565 -0.063723 0.0922576 -0.659425 -0.465205 0.590545
-0.250937 -0.137518 -0.106335 -0.478765 0.300928 0.824758
0.0440724 0.164953 -0.110612 0.828051 -0.157401 0.538104
0.15949 0.361778 0.0961209 0.293603 -0.928571 0.227053
0.396033 0.255463 -0.124535 -0.134633 -0.67342 0.726897
-0.152644 -0.0681272 0.328634 -0.937191 -0.0188382 0.348307
-0.0939871 0.0822646 -0.145232 -0.504782 -0.626974 0.593379
-0.124482 0.190867 -0.0832527 -0.237723 0.770662 0.591242
-0.0056686 -0.347598 0.3803 0.73234 0.603714 -0.314972
-0.0657836 0.249152 0.125516 -0.710836 0.700458 -0.0638008
0.480496 -0.07154 -0.215198 0.828052 -0.157401 0.538103
-0.275891 -0.141965 -0.097507 0.478762 -0.30093 -0.82476
-0.151439 0.0660782 0.281271 -0.927238 0.25842 0.271014
-0.2321 0.083129 -0.0584368 0.391927 -0.523794 -0.756328
0.394379 0.0191579 -0.243558 -0.149224 -0.191209 0.97014
-0.075423 0.153359 0.385276 -0.788077 0.45752 0.411838
0.0869403 0.220833 0.517497 0.828052 -0.157401 0.538103
-0.00382978 0.207757 -0.0243783 0.828052 -0.157401 0.538104
0.19501 -0.0674167 -0.024012 0.828051 -0.157401 0.538104
-0.0188182 0.292558 0.14615 -0.62213 0.781593 -0.0454629
-0.291312 0.13027 -0.0392105 -0.371497 0.564798 0.736881
0.15462 -0.047308 -0.0479246 0.291749 0.940567 -0.173828
-0.17603 -0.145656 -0.0259652 0.828051 -0.157401 0.538104
0.0461357 -0.0523536 -0.154391 -0.291749 -0.940567 0.173828
0.0819494 -0.458888 0.166934 0.554762 0.825426 0.104459
-0.177979 0.0662517 0.0958145 -0.961638 0.273117 0.0256771
-0.0721301 0.0564117 -0.110823 -0.526602 -0.547737 0.650134
0.003017 0.0536436 0.520944 -0.190606 -0.044356 -0.980664
-0.220193 0.0637884 -0.0416376 0.463619 -0.347455 -0.815066
0.00612842 -0.257997 -0.102045 0.575663 0.526699 0.625459
0.0897654 0.333815 0.365294 -0.497312 0.808701 0.31414
0.0505653 0.299353 0.0484921 0.476637 -0.842108 0.25233
0.0271634 0.183409 0.476951 0.669777 -0.506141 -0.543342
-0.0336285 -0.0574608 0.11907 -0.431842 -0.425604 0.795219
-0.112823 0.0820088 0.202926 0.291749 0.940567 -0.173828
0.311783 0.335034 -0.0675032 -0.0334921 0.827226 -0.56087
-0.0227339 0.266192 0.144737 0.66741 -0.742888 0.051777
-0.167385 0.173731 -0.0511865 -0.0425919 0.939348 0.340311
0.1198 -0.441524 0.0325262 0.417238 0.818978 0.393939
0.492478 0.15202 -0.15591 -0.543143 -0.4632 0.700315
0.4174 -0.168275 -0.235271 -0.166797 0.228978 0.959035
0.287577 0.0815162 -0.25501 0.018814 0.281696 -0.959319
0.0020051 0.0734061 0.519763 -0.199951 -0.0795309 -0.976573
0.264195 0.195831 -0.200876 -0.0581068 0.536158 -0.842115
0.00411324 -0.216292 0.51709 0.828051 -0.157401 0.538104
0.262501 0.0713429 -0.238608 0.0356708 -0.28153 0.958889
-0.101534 -0.198224 -0.0605328 -0.751023 -0.471189 -0.462541
-0.25033 -0.0831702 -0.2258 -0.828051 0.157402 -0.538104
0.0179546 -0.336208 0.45851 -0.514596 -0.591819 0.620436
-0.130856 -0.124211 0.073989 0.828052 -0.157401 0.538103
-0.0752793 0.0499482 0.0924615 0.291749 0.940568 -0.173826
-0.131106 0.0937647 0.138135 0.828052 -0.157401 0.538104
-0.138066 -0.0176119 0.116266 0.828052 -0.157401 0.538104
-0.167855 -0.0705767 0.277149 -0.968098 -0.0346631 0.248161
0.0221006 0.28651 0.293122 0.622203 -0.74946 -0.226216
0.313811 -0.307798 -0.206684 -0.0255064 -0.484467 -0.874438
-0.0549372 0.211246 0.0552879 0.828052 -0.157401 0.538103
0.500616 -0.0735887 -0.207093 -0.535949 0.059532 0.842149
0.237794 0.397553 0.0818754 -0.158244 0.955496 -0.24897
0.117718 0.0534108 0.0847142 0.733833 0.427493 0.527958
0.224912 0.408388 0.146439 -0.231109 0.96359 -0.134477
0.00964406 -0.421768 0.128088 -0.637018 -0.750931 -0.174102
0.311454 -0.442632 -0.0932542 0.17461 -0.839646 -0.514301
-0.00648381 -0.3794 0.110719 0.66935 0.714554 0.203428
0.23131 0.382199 0.0387327 -0.154102 0.925271 -0.346592
0.0692347 0.240144 -0.0808925 0.366349 -0.726898 0.580868
0.210636 -0.473689 0.0605794 -0.531607 0.822461 -0.202366
0.206211 0.396566 0.323545 -0.0653696 0.925179 0.373859
0.236232 -0.168028 -0.258367 -0.122358 -0.226438 -0.96631
0.316688 -0.405016 -0.108984 0.0900184 0.705302 0.703168
0.0156573 0.316585 0.127276 -0.550707 0.831709 -0.0705848
0.0351544 -0.00860001 -0.0539852 -0.527078 0.108593 0.84285
0.121414 -0.478014 0.260027 0.828051 -0.157406 0.538103
-0.260324 -0.0780603 -0.208925 -0.828051 0.157401 -0.538104
-0.164605 -0.0311898 0.289698 -0.963982 0.0383571 0.263186
0.436442 0.179725 -0.195091 0.198166 0.488565 -0.849726
-0.0493443 -0.250752 0.0520031 0.478762 -0.30093 -0.82476
-0.123997 -0.245405 0.0607955 -0.84446 -0.49379 -0.207506
-0.0946893 0.180642 -0.175102 0.478762 -0.30093 -0.82476
0.353094 -0.359319 -0.154998 -0.303033 -0.933158 0.193359
-0.0511799 -0.0226805 0.119669 -0.564544 -0.122448 0.81627
0.0739778 0.168396 -0.00765441 -0.478762 0.30093 0.82476
0.189383 -0.0715466 -0.0178186 -0.291747 -0.940567 0.173829
-0.109321 0.188491 0.221057 -0.829062 0.542397 0.135871
-0.104357 0.118797 0.104295 0.828051 -0.157401 0.538104
-0.179482 0.0358143 -0.223995 -0.535949 0.0595325 0.842148
-0.0465742 -0.151963 0.0392559 -0.478762 0.300929 0.82476
-0.28337 -0.0672423 -0.170297 -0.828052 0.157401 -0.538103
-0.119092 0.179262 -0.123694 0.478762 -0.30093 -0.82476
-0.181504 -0.0507607 0.216205 -0.987926 -0.0107717 0.154552
-0.318689 -0.0537083 -0.0702973 -0.492043 -0.664091 0.562918
0.165083 -0.483012 0.14981 0.828052 -0.157401 0.538104
0.11055 -0.331632 -0.138226 -0.361326 -0.605182 -0.709365
0.00764343 0.0418296 0.290622 -0.291749 -0.940567 0.173828
0.372559 -0.0159493 -0.251412 -0.095401 -0.108396 0.98952
0.00533501 -0.194313 0.521639 0.828051 -0.157401 0.538104
-0.146601 -0.222666 0.140536 -0.909708 -0.414767 -0.0200102
-0.00623658 -0.408446 0.130797 -0.658251 -0.739999 -0.138229
0.011886 0.20792 0.429292 0.662104 -0.581808 -0.472353
0.0200223 0.218733 -0.102135 -0.448663 0.666916 -0.594915
0.00682701 -0.0329622 0.524984 0.828052 -0.1574 0.538103
-0.076272 0.223619 -0.180092 0.478762 -0.30093 -0.82476
0.221409 0.394558 0.223597 0.244392 -0.969373 -0.0242491
0.200958 -0.500824 0.0395916 -0.306198 -0.870545 -0.385219
0.0732821 0.10111 0.0726995 0.377576 0.817544 0.434809
0.420775 0.285363 -0.115575 0.13768 0.708273 -0.692382
-0.191845 0.108082 -0.259855 -0.828051 0.157401 -0.538104
0.15676 -0.314321 -0.149192 0.285027 0.587212 0.757589
0.138936 0.320016 -0.0412846 -0.280439 0.826576 -0.487982
-0.0255476 -0.0673421 0.5481 -0.551397 -0.0549553 0.832431
-0.0970592 0.156321 0.33251 -0.833437 0.447008 0.324912
0.0828284 0.179534 -0.0282706 0.478762 -0.30093 -0.82476
0.12537 -0.464571 0.216316 0.828051 -0.157401 0.538104
0.0587463 0.0305801 -0.029711 -0.511065 -0.51049 0.691529
0.48481 -0.0108775 -0.246889 0.255644 0.125137 -0.958638
0.472395 -0.183413 -0.233551 0.475727 -0.300352 -0.826724
-0.0943607 -0.271049 0.0949821 0.827638 0.532223 0.178197
-0.144157 -0.108257 0.28323 0.955419 0.120328 -0.269621
0.150099 -0.450966 0.0206456 0.392103 0.812807 0.430813
0.0655958 0.0592738 -0.0920666 0.54485 0.452289 -0.706097
-0.16055 -0.0758045 0.30229 -0.954638 -0.0464954 0.294115
-0.256428 -0.13527 -0.0814205 0.288207 -0.833489 0.471415
0.0706514 -0.410504 0.0293029 0.530132 0.768007 0.35934
0.119501 0.214059 0.00210985 -0.478762 0.300929 0.82476
0.122849 -0.503226 0.164569 -0.469375 -0.87264 -0.134858
0.0601937 0.130367 0.532193 0.828051 -0.157401 0.538104
-0.140022 -0.151241 0.334032 -0.916009 -0.227853 0.330168
0.0527174 -0.38264 0.352082 0.828052 -0.157401 0.538103
-0.089499 -0.2426 0.386564 -0.856278 -0.377077 0.352989
0.265137 0.402255 0.184564 0.166512 -0.98174 0.0919811
-0.0631158 0.12049 0.0413263 0.828052 -0.157401 0.538104
0.099691 -0.0430013 -0.116813 0.291749 0.940567 -0.173828
0.230357 0.331533 -0.0610841 -0.140659 0.818606 -0.556866
-0.00212493 0.165621 0.45559 0.698976 -0.5048 -0.506566
-0.0259409 0.285531 0.206515 -0.657372 0.750331 0.0697522
-0.0395522 -0.239145 0.445388 0.793523 0.38147 -0.474132
-0.0259969 -0.123814 -0.0872551 0.828051 -0.157401 0.538104
0.162889 -0.078948 -0.205248 0.29175 0.940567 -0.173827
-0.19955 0.110727 -0.0729159 0.179078 -0.835251 -0.519891
-0.0275117 -0.0990744 -0.185526 -0.498466 -0.232823 -0.83506
0.00592352 0.283343 0.334135 -0.638088 0.724998 0.259271
0.191822 -0.0785304 -0.154427 0.291747 0.940567 -0.17383
0.00662863 -0.373272 0.0559428 0.62682 0.729662 0.273295
-0.0498755 0.232645 0.2342 0.738105 -0.654951 -0.161989
-0.0179098 0.039614 0.235745 -0.291749 -0.940567 0.173828
0.424061 -0.12744 -0.241535 -0.191859 0.139568 0.971448
0.518911 0.0395001 -0.214365 -0.256398 0.747222 0.613123
-0.257442 -0.0684018 -0.0340963 -0.492043 -0.66409 0.562919
0.132596 -0.31567 -0.13768 0.343687 0.581533 0.73736
-0.0164917 0.159759 -0.0189335 0.828052 -0.157401 0.538104
0.236691 -0.0799343 -0.272189 -0.0752654 -0.0746179 -0.994368
0.205254 0.219158 0.044051 0.828052 -0.157401 0.538103
0.174468 -0.480133 0.109701 -0.47073 0.832128 -0.293218
-0.139417 0.102788 0.153563 0.828052 -0.157401 0.538104
0.170536 0.248835 -0.118804 0.227824 -0.700063 0.676762
0.243015 -0.153857 -0.244116 0.0832358 0.241198 0.9669
0.160191 0.0402879 -0.234455 0.17768 -0.207935 0.961869
-0.124571 -0.228549 0.160921 0.895493 0.444796 -0.0157843
0.109538 0.327706 0.408914 -0.481618 0.793766 0.371456
-0.272986 -0.148551 -0.0576858 0.694325 0.704713 0.145918
0.262746 -0.0973469 -0.137205 0.291749 0.940567 -0.173828
0.401759 0.362517 0.0682486 -0.326711 -0.915449 0.234975
-0.183013 -0.0942182 0.180825 -0.984047 -0.138963 0.111086
-0.0158047 -0.127868 0.0140945 -0.311402 -0.950273 0.00319885
0.0962341 -0.435829 0.269558 0.828052 -0.157401 0.538104
-0.0293374 -0.350697 0.375732 -0.750522 -0.59178 0.294131
-0.314452 -0.133575 -0.122953 0.478762 -0.30093 -0.82476
0.313834 -0.466939 -0.0328358 0.828052 -0.157401 0.538103
0.390002 -0.408972 -0.152562 0.350162 -0.604372 -0.715626
-0.175623 -0.020019 -0.194986 -0.327774 0.642761 0.692403
-0.103067 -0.172613 0.410749 -0.876044 -0.21895 0.42966
0.00965841 -0.0154779 0.567297 0.828051 -0.157401 0.538104
