ply
format ascii 1.0
comment Created by Open3D
element vertex 833
property double x
property double y
property double z
property double nx
property double ny
property double nz
end_header
-0.180683 0.415498 -0.134683 0.695318 -0.537318 -0.477307
-0.388455 -0.220283 0.276224 -0.32388 -0.846587 -0.422366
0.265049 -0.259523 -0.293361 -0.660678 -0.363367 -0.656863
-0.30286 -0.621741 0.11109 -0.529364 -0.356575 -0.769823
-0.185371 -0.167505 0.580143 0.206569 -0.0948757 0.973821
0.195035 0.24558 -0.32462 0.771018 -0.134376 -0.622474
-0.333581 -0.333145 0.405727 -0.28857 -0.952421 0.0980865
-0.276077 0.214535 -0.0468433 -0.832758 0.0412277 0.552101
-0.119027 -0.288205 0.374717 0.877453 -0.133746 -0.460638
0.321846 0.120674 0.385087 0.646655 0.365583 0.669468
0.538823 -0.405411 0.17809 0.150605 -0.767057 0.623652
-0.20207 0.129701 0.359544 0.52255 0.608778 0.596934
-0.00452574 0.16587 -0.478636 0.213904 -0.673501 -0.707561
-0.356939 -0.579616 0.158667 -0.797544 0.425532 0.427606
0.408334 -0.220481 0.34464 0.943496 0.311369 0.113424
0.234484 -0.10975 -0.261544 -0.39407 0.59176 -0.703227
0.245151 0.15791 -0.122079 0.931779 0.361306 0.0352959
-0.0660128 -0.368633 -0.265351 0.802572 -0.187897 -0.566191
0.0728071 0.255699 0.308251 -0.907912 0.379644 0.177669
-0.0113555 -0.596838 0.013726 0.552447 -0.796373 0.246155
-0.22237 0.0448486 0.477762 0.614019 0.512732 0.600072
0.125385 0.21953 0.469738 0.517345 0.640698 0.567328
-0.0180863 0.350452 -0.146325 -0.0230289 0.685265 -0.727929
-0.325001 0.218681 -0.105394 -0.835566 0.190531 0.515293
0.075033 -0.163975 0.0536665 -0.635842 0.197664 0.746079
-0.340478 -0.144572 0.0365486 -0.985542 -0.154167 -0.0702867
0.215434 0.256165 -0.129956 0.945359 0.324612 -0.0303946
0.367629 0.187398 0.273808 0.534877 0.432901 0.725606
-0.188131 0.199728 0.208279 -0.0626449 0.658552 -0.749923
0.316375 0.183446 0.315385 0.51713 0.669868 0.532779
0.0220252 0.241498 0.207708 0.0561576 0.725841 -0.685567
0.395745 -0.15932 0.242025 0.954233 0.297171 0.0335892
0.12252 0.00759437 -0.314608 0.184661 -0.498552 -0.846963
-0.0692036 -0.671203 -0.0565552 -0.752083 -0.430387 -0.499138
0.356361 0.0651764 -0.0344332 0.964189 0.17955 -0.195195
0.225681 0.213956 -0.0356456 0.906581 0.387232 -0.167815
-0.328224 -0.221548 -0.0680484 -0.792435 0.100755 0.601577
0.0924263 -0.151108 0.211821 -0.60449 -0.604653 -0.51864
0.0311011 0.516562 -0.104785 0.574117 0.7265 0.377608
0.370994 0.250129 0.216321 0.292226 0.759289 0.58145
0.399266 -0.444477 0.160737 0.225257 -0.772258 0.594034
0.497202 -0.390555 0.162554 0.467679 -0.248611 0.848215
-0.0344775 -0.572818 -0.111555 0.8232 -0.298747 -0.482795
-0.0614746 -0.483842 -0.257996 -0.561821 -0.588332 -0.581568
-0.308341 0.208802 -0.155692 -0.947717 -0.317376 0.0332481
0.0795444 -0.481326 -0.0607527 0.122764 -0.627046 -0.769248
-0.04752 -0.0189232 -0.34079 0.41398 -0.789311 -0.45344
-0.0978739 -0.169282 -0.247353 -0.174145 0.758449 -0.628036
-0.437949 -0.243773 0.361911 -0.829983 0.396665 0.392155
-0.0742347 -0.00436924 -0.367481 0.130693 -0.548806 -0.82567
-0.226904 0.188323 0.291872 0.331837 0.924219 0.188955
0.44346 -0.0515215 0.387788 0.825786 -0.310799 -0.470618
0.125204 0.0568193 0.539218 -0.831785 0.186321 0.522894
0.483546 -0.0677432 -0.0996004 0.83229 -0.413459 -0.369248
-0.283712 -0.455913 -0.0791572 -0.746769 -0.361345 -0.55836
-0.295764 -0.341239 0.429666 0.134907 -0.952004 0.274751
0.424895 -0.469347 -0.00784136 0.815627 -0.252156 -0.52074
-0.181005 -0.20317 0.562484 0.371402 -0.335225 0.865844
0.118177 0.275579 0.0638176 0.534786 0.654422 0.534542
0.352605 0.0144736 0.186898 0.90539 0.358299 0.227797
-0.330332 0.259534 -0.168685 -0.979456 -0.170634 -0.10747
0.0258652 -0.371673 0.131057 0.15319 -0.763023 0.627956
0.138281 -0.469563 0.138478 -0.326995 0.557579 0.763007
-0.139919 -0.0700829 -0.239988 -0.439039 -0.801204 -0.406592
0.25742 -0.292469 0.229366 -0.932657 -0.208564 0.294365
-0.331185 -0.042519 0.41627 -0.831725 0.484195 0.271642
-0.00607121 -0.359408 0.14494 0.092229 -0.714504 0.693526
-0.501725 -0.0150162 0.110725 -0.610424 -0.538517 -0.580846
0.0456612 -0.20157 0.434898 0.0801744 -0.671314 -0.736824
-0.32511 -0.544564 0.054201 -0.688183 -0.573306 -0.444662
-0.245328 0.249395 -0.259248 0.970923 0.226481 0.0775601
-0.428326 -0.138034 0.306262 -0.83035 0.301997 0.468312
-0.0482326 -0.253676 0.429699 0.590888 -0.427468 -0.684195
0.31186 0.191019 0.13578 0.48117 0.348868 -0.804218
0.553812 -0.370898 0.156033 0.832875 -0.438188 -0.338098
0.137913 0.187482 -0.400304 0.814385 -0.151758 -0.560131
0.0557011 -0.236216 -0.272317 0.125835 -0.58858 -0.798586
0.330456 -0.0533471 -0.202314 0.12099 0.724836 -0.678214
-0.0373513 -0.524888 -0.213085 0.67475 -0.0442126 -0.736721
-0.0488402 -0.0629706 0.120305 0.701643 -0.187442 -0.687432
-0.185207 0.00543315 -0.280694 -0.543551 -0.614449 -0.571843
0.291788 -0.355843 -0.212871 -0.592357 -0.637532 -0.492612
-0.231736 0.263739 -0.395448 0.781441 0.453828 0.428241
0.250699 0.120923 -0.150351 0.995201 0.0490967 0.0846466
0.255279 -0.399473 -0.146315 -0.629713 -0.270139 -0.728345
0.50872 -0.187505 -0.0143143 0.856625 -0.365695 -0.363952
-0.325887 0.234653 -0.198809 -0.995739 0.0552365 -0.0738366
-0.31126 0.323786 -0.170039 -0.829609 0.132009 0.542515
-0.322992 -0.0247443 -0.0229192 -0.232787 0.762185 -0.604056
0.00142961 -0.300781 0.155743 0.580238 0.589156 0.562334
-0.303236 -0.304144 0.265068 -0.877404 -0.31306 0.363531
0.172239 -0.286961 0.208695 0.229436 -0.7612 0.606575
-0.344675 -0.438504 0.019616 -0.833194 0.14444 0.533783
-0.0132752 -0.618839 -0.0090543 0.762565 -0.645517 -0.0424564
-0.0812261 -0.0886825 0.513805 -0.466354 0.595057 0.654539
-0.341999 -0.147853 0.100115 -0.968064 -0.23111 0.0971653
0.0948531 0.4641 -0.242264 -0.792619 -0.449733 -0.411698
-0.0644525 -0.373679 0.146482 0.302361 -0.801387 0.516098
-0.344614 -0.0557106 -0.0495623 -0.451643 0.799786 -0.395425
-0.0226457 -0.204764 0.340989 0.230253 -0.895595 0.380648
0.0530051 -0.450767 -0.100094 -0.230315 -0.541076 -0.808821
-0.311822 -0.517087 0.0210808 -0.746067 -0.597517 -0.293867
-0.0941944 0.452256 -0.0463633 -0.12909 0.767142 0.628354
0.445635 -0.134137 0.0282969 0.54872 0.579418 0.602645
-0.0388437 -0.24239 0.297774 0.225954 -0.776052 0.588802
0.439786 0.0241698 0.378404 0.460706 0.557776 0.690388
-0.29245 -0.263497 -0.26437 -0.573279 -0.598252 -0.559861
0.0239723 0.355774 -0.169803 -0.288506 0.750916 -0.594045
-0.301624 -0.490102 0.129604 -0.75016 0.0508221 0.659301
-0.352115 -0.0674872 0.0775172 -0.988366 -0.0991113 0.11537
0.474284 -0.118125 -0.112054 0.806518 -0.180702 -0.562916
0.106902 0.147662 0.473302 -0.827175 0.363984 0.428132
0.399394 -0.178308 0.161415 0.996357 0.0793497 -0.0312397
-0.226122 -0.596179 0.130689 -0.134479 -0.614732 0.777187
-0.319725 -0.266374 0.253769 -0.550193 -0.604431 -0.576152
-0.0268172 -0.110072 0.174804 0.690026 -0.34662 -0.635389
0.245906 -0.296271 0.176719 -0.885968 -0.0815508 0.456519
0.328013 0.149572 0.342511 0.687179 0.132331 0.714334
0.312366 -0.484862 0.132513 0.0782578 -0.622515 0.778685
-0.215155 0.388725 -0.164897 0.761518 -0.425261 -0.489126
-0.220183 -0.127833 0.638417 -0.853303 0.304825 0.423032
0.410634 0.264423 0.146387 -0.411793 0.825161 -0.386699
0.217802 -0.499713 -0.00117858 0.391577 -0.239122 -0.888531
0.163238 0.276459 -0.41112 0.694211 -0.0467724 -0.71825
-0.356648 -0.431575 -0.0421289 -0.541711 -0.606727 -0.581748
0.119521 0.203853 -0.428051 0.826518 -0.293542 -0.480313
0.388127 -0.57817 0.00752347 -0.140716 -0.755318 0.640073
-0.367106 0.0183469 0.330353 -0.79194 0.141928 0.593875
0.461797 -0.036782 -0.0978721 0.457264 0.832302 0.313342
0.183942 0.377802 -0.167853 0.972387 0.218929 0.0808305
0.382611 -0.424779 -0.098261 0.877143 -0.276555 -0.392604
0.373253 -0.334726 -0.166238 0.75465 -0.190556 -0.627847
-0.0747371 0.297672 -0.147326 0.353811 -0.347534 -0.868353
0.067445 0.0953586 -0.0876416 -0.99474 0.0717158 0.0731341
-0.134684 0.0690679 0.37111 -0.427494 0.485335 0.762692
-0.324959 -0.24601 0.146112 -0.959487 -0.281051 -0.0198631
0.378896 -0.366542 -0.118811 0.820481 -0.262347 -0.507923
0.233879 0.195944 -0.0803145 0.911784 0.0700974 0.404644
-0.11274 0.207758 -0.31584 -0.0525082 0.743701 -0.666447
-0.04347 0.143359 -0.224144 -0.181355 0.596587 0.781789
0.262625 0.189532 0.364865 0.549765 0.601781 0.579325
0.249198 -0.248416 0.281962 -0.987876 -0.0506083 -0.146764
0.131681 0.347766 0.309139 -0.240362 0.839259 -0.487719
0.0455378 -0.128698 0.00648322 -0.366604 0.527035 0.766704
0.22333 -0.19953 0.503693 -0.124917 -0.582738 0.803002
-0.0028043 -0.0684864 -0.28836 0.347113 -0.809367 -0.473748
-0.467014 0.0655291 0.107702 0.739782 -0.128314 -0.660499
0.403845 -0.0247561 -0.0467038 0.487531 0.776542 0.399119
0.0925934 -0.189688 0.541761 -0.174986 -0.595897 0.783764
0.294794 -0.48434 -0.165088 -0.88089 0.35577 0.312188
0.257141 -0.514164 -0.0136912 -0.375866 -0.87087 -0.316717
-0.344153 -0.228202 0.244981 -0.549084 -0.598771 -0.583078
-0.130574 0.521927 -0.134636 -0.234724 0.805923 -0.543501
-0.282766 -0.378701 0.27726 -0.944182 -0.319637 0.0797023
-0.283274 0.0482889 0.016261 -0.97916 -0.195449 -0.055179
0.295908 -0.379563 -0.255648 -0.171446 -0.616696 -0.768305
-0.0326752 0.0397457 -0.376477 0.192884 -0.61189 -0.767063
-0.000531385 -0.0232035 -0.094867 -0.177756 0.673099 0.717872
0.352131 0.19676 0.156782 0.621133 0.197233 -0.758481
0.136064 0.266394 0.212598 -0.198322 0.774102 -0.601195
0.0942742 -0.302507 0.170293 -0.611159 0.677602 0.409072
0.417988 -0.210043 -0.150747 0.846504 -0.297646 -0.441405
0.12833 -0.240769 0.203596 -0.999258 0.0311776 0.022624
0.110336 0.154463 -0.425144 0.707533 -0.593563 -0.38351
-0.00268964 0.344394 0.0688653 -0.20994 0.657763 0.723376
-0.110424 -0.421223 -0.277187 -0.59104 -0.671674 -0.446684
0.289049 0.118909 0.406791 0.402631 0.662263 0.631899
-0.310104 0.296613 -0.357891 0.000239086 0.683283 -0.730154
0.0482914 -0.233115 0.461109 0.0670244 -0.394688 -0.916367
-0.0416891 0.210833 -0.28097 -0.195464 0.531869 0.82396
0.219903 0.219748 -0.281403 0.820851 -0.00500425 -0.571121
0.379622 -0.262629 0.387293 0.156305 -0.767266 0.62199
-0.0293804 -0.187112 0.205543 0.941959 -0.1997 -0.269877
0.19534 0.351886 -0.230883 0.961669 0.0787384 0.262665
0.201422 0.224908 0.392057 0.558195 0.5143 0.651087
0.514836 -0.200808 0.0165755 0.64058 -0.00692794 -0.76786
-0.194205 0.296241 0.0504798 -0.760329 0.457493 0.461085
0.0534913 0.0496953 -0.0922644 -0.827995 0.415075 0.377011
0.0815556 0.294484 -0.427708 -0.738734 0.385294 0.55301
-0.187522 -0.618669 0.0906922 0.211982 -0.793219 0.570848
-0.333567 0.28466 -0.292992 -0.982304 -0.0790613 -0.169787
-0.305112 -0.339798 0.2517 -0.888425 -0.386963 0.246901
-0.233284 -0.523543 0.168816 -0.203214 -0.641433 0.739776
0.130592 -0.55285 -0.00377142 0.173803 -0.546511 -0.819218
-0.0816357 -0.475371 -0.228929 -0.750212 -0.420953 -0.509883
-0.127832 0.324733 0.0597095 -0.152028 0.660226 0.735519
-0.250297 0.319479 -0.209409 0.942658 -0.22129 -0.249855
0.210171 0.00505599 0.607125 0.752764 0.325937 0.571936
0.260001 0.0100691 0.543994 0.419974 0.651195 0.632114
-0.194727 -0.232362 0.561155 0.562539 -0.563255 0.605222
-0.00299768 0.533254 -0.160306 -0.3497 0.796475 -0.493293
0.347372 -0.321105 0.315395 -0.0760764 -0.708699 0.701397
0.0633255 0.216968 0.1716 0.564056 0.583685 0.584083
-0.316617 -0.240076 0.223793 -0.999367 0.0354789 0.00257543
-0.0436777 -0.17387 -0.261587 -0.11008 0.723407 -0.68159
-0.285323 0.110434 -0.230097 -0.88261 -0.409299 0.231245
-0.197895 0.368064 -0.0018733 -0.135986 0.472928 0.870544
-0.320467 0.19424 0.229383 -0.223276 0.887347 -0.403438
0.407368 -0.420051 0.198686 0.0162011 -0.69567 0.718178
0.146035 0.413186 -0.337252 -0.033313 0.707505 -0.705923
0.0747107 -0.23129 0.493422 0.1756 -0.786171 0.592537
0.0694734 0.247468 0.129196 0.378941 0.659405 0.649298
0.0468227 0.0341784 0.443552 0.217696 0.552117 0.804845
-0.0139553 0.243575 0.150198 -0.217658 0.759087 0.613524
0.0742906 0.473521 -0.102916 0.544305 0.689743 0.47748
-0.274777 0.0724933 -0.246325 -0.969854 -0.239885 -0.0428745
-0.0598243 -0.44437 -0.231155 0.826476 -0.272203 -0.492791
-0.329718 -0.239307 -0.241417 -0.55514 -0.656126 -0.511193
-0.117928 0.0514947 -0.392987 -0.556644 -0.444496 -0.701834
-0.0562969 0.350237 0.0452463 -0.222049 0.720323 0.657137
0.021487 0.286767 -0.162048 -0.686445 -0.554467 -0.470489
-0.363556 -0.186423 0.434146 -0.796856 0.230936 0.558291
-0.335632 -0.195775 0.0825137 -0.976036 -0.188158 -0.109315
-0.0168805 -0.130639 0.0148677 0.53215 0.70809 0.464139
-0.20156 -0.333291 0.440232 -0.133179 -0.623237 0.770609
-0.0752176 0.186152 -0.347423 -0.206868 0.771426 -0.601754
-0.0962442 0.432834 -0.095396 0.231189 -0.563933 -0.792799
-0.254883 0.137684 0.448976 -0.814789 0.1261 0.565878
0.159779 -0.204521 -0.254432 0.444311 -0.465953 -0.765163
0.444663 -0.182279 0.0811479 0.548877 0.599131 0.582904
-0.133179 -0.296322 0.330994 0.908914 -0.304318 -0.285073
-0.415487 -0.15773 0.244836 -0.205039 -0.765909 -0.609378
0.0923956 -0.212872 0.270667 -0.376194 -0.396759 -0.837293
-0.00780424 0.164966 -0.0291977 -0.146305 -0.734882 -0.662226
0.223662 0.301582 0.223675 -0.15026 0.756041 -0.637044
0.0816905 -0.131329 0.0317987 -0.526864 0.76381 0.372839
-0.130994 -0.221161 -0.289474 0.062271 0.657798 -0.750616
-0.409052 -0.376649 0.428449 0.807238 -0.530921 -0.257855
-0.337324 -0.202913 0.212544 -0.425304 -0.641349 -0.638583
-0.0585293 0.221359 0.280431 -0.190656 0.683657 0.70446
0.13836 0.0257589 0.653915 -0.755238 0.0754869 0.651089
-0.187836 0.168161 0.132725 -0.822922 0.301119 0.481796
-0.299217 0.402072 -0.236188 -0.319906 0.735183 -0.597633
0.412816 -0.257589 0.285391 0.971498 0.233549 -0.0405847
-0.264537 0.301239 -0.317348 0.921802 0.385709 -0.0388629
0.38281 -0.284043 0.348513 -0.0715788 -0.690291 0.719982
-0.461643 0.0142387 0.183581 -0.852732 0.351378 0.386498
-0.0703491 -0.0153537 0.057425 0.945975 -0.265433 -0.186218
0.154104 0.283709 0.0229978 0.533304 0.58984 0.606362
0.461937 0.0710812 0.291529 0.74967 0.0661454 -0.658498
-0.0784474 -0.00839343 -0.0514857 0.935251 0.27822 0.21886
0.285581 -0.495344 0.133726 0.376375 -0.781497 0.497598
-0.0609353 0.0614449 -0.404984 0.178496 -0.595528 -0.783254
0.413387 -0.216363 0.267147 0.973892 0.212858 0.0789074
-0.176605 -0.631652 -0.00308013 -0.703918 -0.194339 -0.683178
-0.216974 -0.044796 0.618353 -0.818659 0.351839 0.45388
-0.133 -0.557144 0.157008 0.374823 -0.788799 0.487138
0.0172415 0.225761 -0.107506 -0.634148 -0.583168 -0.507712
-0.461684 -0.131924 0.208036 0.833811 -0.348237 -0.428358
-0.0812403 -0.295022 0.240118 0.311457 -0.857077 0.410383
-0.233597 -0.56391 0.146394 -0.429594 -0.380941 0.818739
-0.026155 -0.288901 0.199439 0.884179 0.443294 0.147374
0.425686 -0.0358132 0.433585 0.709365 0.381544 0.592642
0.160229 0.509835 -0.224095 0.955384 0.202443 0.215076
0.371374 0.0252619 -0.00804622 0.912801 0.377175 -0.156632
-0.08573 0.352086 -0.135093 -0.244343 0.759811 -0.602482
0.230107 0.193534 -0.148849 0.895637 0.442874 -0.0411972
0.223355 0.238925 0.159759 -0.192895 0.768264 -0.610379
0.330495 0.161592 0.0406542 0.912871 0.363481 0.185871
-0.260328 0.202275 0.37305 0.807677 -0.169214 -0.564823
-0.0103723 -0.524987 0.162719 0.377654 -0.805484 0.456698
-0.0846175 -0.642109 0.0374564 0.349824 -0.796699 0.492843
-0.335373 -0.193219 -0.102999 -0.825673 0.505764 0.249933
0.0770476 0.0327577 0.00965323 -0.837498 -0.229518 -0.495901
0.0584742 -0.116104 0.194687 -0.27282 -0.688453 -0.672013
-0.197195 -0.394278 0.363898 0.344618 -0.797552 0.495126
-0.143478 -0.314806 0.277606 0.998531 0.00837345 -0.0535325
-0.0321785 0.267276 0.123991 -0.193178 0.706742 0.680587
0.404789 -0.28761 -0.121968 0.763293 -0.532107 -0.366396
0.00822879 -0.589548 -0.0160653 0.79789 -0.586261 -0.140249
0.315194 -0.281017 0.378945 0.156145 -0.757016 0.634465
0.11517 0.466695 -0.142184 0.459117 0.803425 0.379104
0.134667 -0.209614 0.425482 -0.350993 -0.567867 -0.744534
0.0812066 0.413536 -0.060051 0.576688 0.573194 0.582134
-0.031782 -0.0872624 0.148891 0.707893 -0.556161 -0.435399
0.292735 -0.0163767 0.56191 0.537229 0.621958 0.569696
0.402753 -0.0712842 0.334708 0.786626 -0.219946 -0.576925
0.0601251 0.00702574 0.074481 -0.62635 -0.524925 -0.576315
0.431628 -0.347557 0.210745 0.515021 -0.21925 0.828663
0.249099 0.140602 0.0539616 -0.207873 0.778174 -0.59265
-0.269005 0.192945 0.410326 -0.777882 0.226951 0.585998
-0.0101771 -0.235271 0.513318 0.0383002 -0.75799 0.651141
-0.327369 -0.322826 0.458414 -0.196386 -0.932919 0.30182
-0.0335093 0.257768 0.257499 -0.0032696 0.733867 0.679285
-0.11397 0.214176 -0.228761 0.478389 0.683635 0.551169
-0.384779 0.13377 0.239933 -0.802979 0.353654 0.479743
0.147569 0.246181 0.0575814 0.557494 0.454049 0.695011
0.344932 0.105128 0.0350237 0.957456 0.261146 0.122802
0.35128 -0.00866799 -0.152048 -0.108007 0.992976 -0.0482944
0.0344067 0.234177 -0.222262 -0.991514 0.112598 -0.0649767
-0.0662195 -0.497459 0.219661 -0.0362614 -0.75748 0.651851
0.070223 -0.214831 0.0805517 -0.339987 0.490996 0.802079
0.161345 0.216193 0.150578 0.0349767 0.671102 -0.740539
-0.419816 -0.194276 0.3591 -0.817391 0.256431 0.515864
-0.389299 0.163788 0.211345 -0.346512 0.768446 -0.537977
0.273131 0.173307 0.085935 -0.130528 0.757935 -0.639138
0.411258 -0.0684577 -0.240334 0.819215 -0.104907 -0.563809
0.0657929 -0.0195912 0.485606 0.0837116 0.443535 0.892339
0.409733 -0.0345725 -0.211289 -0.408781 0.760915 -0.503891
0.25475 -0.211234 0.468252 0.0670962 -0.751246 0.656602
0.254366 -0.0804716 -0.239221 -0.0798041 0.674767 -0.733704
-0.304134 0.199016 -0.265881 -0.967266 -0.253233 0.0164026
-0.24392 0.103809 -0.336654 -0.597207 -0.628391 -0.498467
0.0242125 -0.204188 0.323322 0.0892832 -0.756888 0.647417
0.410609 -0.0196963 -0.175065 -0.0875339 0.953585 -0.28812
-0.372799 0.100711 0.281714 -0.598375 0.0872992 0.796446
-0.0166207 -0.469364 0.15775 0.472527 0.728734 0.495647
-0.107624 -0.371194 0.159138 0.143934 -0.755827 0.638756
0.365777 -0.399229 0.221318 0.246912 -0.861391 0.443892
-0.39831 -0.10789 0.33093 -0.768602 0.153997 0.620915
-0.0787552 0.140806 -0.0483757 0.766183 -0.314628 -0.560332
0.299905 -0.206418 0.471485 -0.0183448 -0.694574 0.719187
0.373189 -0.0352704 0.154184 0.833788 0.550813 0.0374484
0.193915 -0.0534434 0.667245 0.547743 -0.776234 0.312151
0.0347814 0.51065 -0.179619 -0.0164432 0.649888 -0.759852
-0.324366 -0.501917 0.0964454 -0.82906 0.157384 0.536554
0.373593 -0.0292153 0.206661 0.903247 0.419036 0.0924837
0.0344949 0.482351 -0.175679 -0.48805 -0.610918 -0.623367
0.00230116 0.208531 -0.264033 -0.56731 0.416677 0.71031
0.193857 -0.11137 0.584659 -0.363802 -0.373004 0.853532
0.458452 -0.0643466 0.450285 0.668826 0.523865 0.527481
-0.052686 0.140898 -0.0173984 0.234665 -0.731853 -0.639783
0.259617 0.300074 0.249709 0.501376 0.834616 0.228117
-0.275546 -0.378433 0.398528 0.331294 -0.8015 0.497837
-0.355004 -0.319374 0.362276 -0.287774 -0.883476 -0.36967
0.0113095 0.23631 -0.436559 -0.413889 0.555057 0.721532
0.24597 -0.546534 0.0521716 0.521001 -0.562345 -0.642126
-0.223159 0.203779 -0.336122 0.844636 0.34208 0.41179
0.19071 -0.0878787 -0.230017 -0.145096 0.754428 -0.640145
-0.249675 0.236087 -0.309041 0.913374 0.364332 0.181684
0.353572 -0.551067 0.0201954 -0.199792 -0.950973 0.236079
-0.207962 0.290867 -0.199367 -0.0635082 0.699123 -0.712175
-0.156596 -0.0679768 0.527597 0.521082 0.579349 0.62676
-0.110492 0.169292 -0.40396 0.0709504 0.577475 0.81332
0.123638 0.340734 -0.340888 -0.95382 0.274357 0.122294
-0.0199881 -0.606581 0.0577901 0.256294 -0.784856 0.564194
0.316689 -0.122426 -0.29245 0.121822 0.429297 -0.89491
0.222734 -0.0186928 -0.154524 0.841629 -0.363605 -0.399315
-0.112898 0.220674 0.259121 -0.295285 0.570867 0.766106
0.227928 0.241437 -0.241884 0.83419 0.549851 0.0423267
0.159633 -0.352459 0.114707 0.2306 -0.773485 0.590377
0.403249 -0.117406 -0.225101 0.845938 -0.291791 -0.446371
0.201567 0.338323 -0.321394 0.870008 0.41922 -0.259503
-0.125466 0.227775 -0.490553 -0.173818 0.754543 -0.632812
0.329953 -0.547765 -0.0683023 -0.769162 0.0550347 0.63668
-0.0425736 -0.113746 0.145364 0.948833 -0.268101 -0.166847
0.447117 -0.438826 0.022417 0.902732 -0.335695 -0.269041
-0.243739 0.064621 0.500235 -0.708667 0.109793 0.696948
0.233399 -0.188238 -0.281252 -0.56033 0.0438537 -0.827108
-0.200786 0.0617652 -0.320481 -0.500572 -0.639388 -0.583618
0.23759 -0.446961 -0.0781664 -0.496816 -0.572344 -0.652377
0.415894 -0.160803 -0.175748 0.855179 -0.406513 -0.321582
-0.23894 -0.623234 0.0884485 0.036023 -0.763443 0.64487
0.441689 0.175275 0.195995 0.769817 -0.165552 -0.616421
0.00907144 0.540786 -0.127699 0.542956 0.586581 0.600933
0.202129 -0.19736 -0.263821 -0.267002 -0.253841 -0.929664
-0.0343706 0.0625169 0.421683 -0.103999 0.844901 0.524716
0.230784 -0.0865629 0.616179 0.0363471 -0.806316 0.590367
-0.0684202 -0.286561 0.459505 0.132257 -0.750769 0.64719
-0.202782 -0.130142 0.591755 0.361053 0.168049 0.917279
0.0937987 -0.558034 -0.0116867 -0.0852068 -0.611192 -0.786883
-0.243184 -0.00643791 -0.219012 -0.440797 -0.700804 -0.560867
0.0813465 0.277579 -0.271871 -0.225619 0.77322 -0.592645
0.451877 -0.0545888 -0.16708 0.742016 -0.535798 -0.402905
0.189863 0.137649 -0.281133 0.832719 -0.3665 -0.415037
0.215978 -0.346564 0.129605 -0.781854 0.410214 0.469498
0.512507 -0.349606 0.0692977 0.853327 -0.465229 -0.235361
0.338032 -0.493439 -0.131242 0.789076 -0.508551 -0.344579
0.0445987 -0.563328 -0.00383866 -0.0348089 -0.602892 -0.797063
0.103063 -0.164753 -0.294704 -0.0874521 0.685602 -0.722705
-0.477912 -0.0349379 0.186324 -0.78104 0.0330612 0.623605
0.225669 0.226454 0.356532 0.741419 0.336064 0.580827
0.224818 -0.0290622 0.640585 0.382457 0.498176 0.778169
0.0377891 -0.0728537 -0.282077 0.0746111 -0.439774 -0.895004
0.289029 0.239169 0.29043 0.573052 0.658216 0.488225
0.207487 -0.346953 -0.14999 -0.717002 -0.557601 -0.418317
-0.123346 0.246488 -0.179106 0.974298 -0.137881 -0.178132
-0.386758 -0.30718 -0.134269 -0.787299 -0.573888 -0.225416
-0.137925 -0.364458 0.383989 0.0916511 -0.757722 0.64611
-0.225721 -0.313712 0.466407 0.106366 -0.736235 0.668315
-0.0829036 0.321066 0.0639478 -0.137068 0.41532 0.899289
-0.333253 -0.22026 0.487606 -0.784376 0.0345042 0.619325
-0.122435 0.21129 -0.14994 0.960831 -0.043039 -0.273774
-0.151812 -0.651284 0.0396856 0.181725 -0.767194 0.615134
0.294493 -0.438168 -0.210482 -0.605809 -0.297896 -0.737736
0.318832 0.157522 0.0753468 0.83569 0.507083 0.210925
-0.272146 -0.280389 0.513013 -0.0627134 -0.600804 0.796933
-0.0548765 -0.487551 -0.205633 0.835153 -0.295993 -0.463581
0.195151 -0.251282 0.417252 -0.65522 -0.482412 -0.581348
-0.118369 -0.256789 0.357451 0.884045 -0.324836 -0.336075
0.486498 -0.129421 -0.0686865 0.796139 -0.390207 -0.462493
-0.184362 -0.0932748 0.576659 0.51383 0.148519 0.844938
-0.0182718 0.0738449 -0.400922 0.151864 -0.699167 -0.698644
0.362671 0.0445403 0.200646 0.806565 -0.181006 -0.562752
-0.0689219 -0.24495 0.316307 0.338785 -0.8225 0.456857
-0.194087 -0.137925 -0.180466 -0.357127 0.810511 -0.464255
-0.00365159 0.0600158 0.053367 0.174908 -0.726715 -0.664299
0.150224 -0.131086 -0.266301 0.106358 0.729597 -0.675556
0.0752091 0.0302689 -0.34363 0.100668 -0.887104 -0.450457
-0.226824 -0.0534232 -0.186706 -0.506229 -0.638699 -0.579479
0.504487 -0.210148 0.0552653 0.585998 0.677672 0.44426
0.130191 0.234781 0.0950659 0.525443 0.541954 0.655894
-0.00247406 -0.203151 0.429316 0.391996 -0.409019 -0.82404
-0.109682 0.294433 0.07843 -0.153991 0.514022 0.843841
0.274898 0.205408 0.104502 0.73769 0.406024 0.539405
0.325436 -0.597633 -0.0676862 -0.854304 0.296088 0.427196
0.309326 -0.309627 0.342091 0.0474383 -0.746573 0.66361
0.241403 -0.216512 0.314185 -0.657007 -0.727255 -0.198602
0.0242616 0.256593 0.143425 -0.184164 0.559449 0.808147
-0.29184 -0.325668 0.0620733 -0.848693 0.289361 0.442708
-0.256122 0.191021 -0.40735 -0.237946 -0.694077 -0.67944
-0.103086 -0.52512 -0.18416 -0.622877 -0.508251 -0.594731
0.00228682 0.256481 -0.486333 -0.270504 0.816766 -0.509628
0.151601 -0.0497825 -0.255248 0.838831 -0.30673 -0.449754
0.40098 -0.034391 0.314973 0.774107 -0.229233 -0.590094
-0.0632586 -0.143841 0.566982 -0.34937 0.777442 0.522995
0.368218 -0.063843 0.246593 0.91273 0.307566 0.268936
0.0924511 -0.521065 -0.0426281 0.154888 -0.579777 -0.799918
-0.218111 0.149546 -0.399825 -0.458906 -0.507054 -0.729591
0.448496 -0.499466 0.0906345 0.128324 -0.733947 0.666974
-0.124023 -0.250282 0.319551 -0.0726137 -0.578297 0.812588
-0.0102464 0.535434 -0.0906584 0.573109 0.577481 0.58143
-0.227094 -0.142832 0.614599 0.538176 -0.111165 0.835469
-0.0530804 0.539535 -0.0942059 -0.108251 0.654682 0.748114
-0.424634 -0.310565 0.409178 -0.780807 0.207147 0.589432
-0.236303 0.165828 0.368466 0.60227 0.669588 0.434654
-0.187737 0.47671 -0.167418 -0.272279 0.767207 -0.580739
-0.319478 -0.157874 0.502918 -0.747372 0.179976 0.639566
-0.306995 0.173967 -0.159136 -0.979175 -0.0678172 -0.191357
0.210697 0.143038 0.469191 0.724481 0.456031 0.516878
0.303052 -0.503179 -0.0787926 -0.281784 -0.680727 -0.676172
0.0306008 -0.263575 0.113958 0.11966 0.625668 0.770857
-0.297379 -0.347809 0.148753 -0.927391 -0.341981 -0.151637
0.0728975 0.368 -0.162767 -0.040167 0.633735 -0.772507
0.328768 -0.1915 -0.312864 0.823557 -0.254621 -0.506875
-0.431716 -0.0851678 0.278015 -0.824895 0.167241 0.53998
0.271353 -0.0218568 -0.164104 -0.284068 0.76505 -0.57793
-0.199099 0.13658 0.129504 -0.791631 0.189117 0.580996
-0.251815 0.00324737 -0.161177 -0.936866 -0.280736 0.208494
-0.300474 -0.416223 0.0760867 -0.801126 0.212269 0.559589
-0.0366918 -0.70077 -0.0523962 -0.597689 -0.59754 -0.534522
0.268546 -0.274347 -0.347876 -0.44024 -0.77714 -0.449713
-0.31741 -0.323967 0.33113 -0.475765 -0.798924 -0.367925
0.462593 -0.457106 0.13316 0.142712 -0.740354 0.656893
-0.0475274 -0.0698707 -0.0161628 0.702628 0.448625 0.552314
-0.280831 -0.120661 0.551065 -0.865271 0.403241 0.29783
-0.156917 0.176039 -0.39288 0.516847 0.571271 0.637588
0.177101 0.268237 -0.36528 0.81432 -0.314027 -0.488129
-0.404072 -0.230549 0.313916 -0.586954 -0.563375 -0.581458
0.19483 -0.160951 -0.273144 0.490156 -0.397722 -0.775606
0.0191242 -0.513788 -0.0642967 0.825953 -0.27026 -0.494733
-0.0772708 -0.0438086 0.00962667 0.995491 0.0390545 0.0864394
-0.0533135 0.237915 -0.468998 -0.0645457 0.590836 0.804206
0.280266 0.0588831 0.486476 0.597948 0.77416 0.207689
0.128139 -0.0728502 0.568965 -0.541643 -0.468254 0.698113
0.313944 -0.342689 -0.242111 0.891237 -0.307268 -0.333591
0.257427 -0.430373 0.21672 0.136482 -0.744775 0.65321
0.052798 0.249009 0.210411 0.109052 0.696761 -0.708966
-0.166883 -0.461858 0.264555 0.479858 -0.785951 0.389894
-0.353639 -0.287859 -0.0647909 -0.818723 0.281714 0.50033
0.348774 -0.306404 0.345279 0.0987577 -0.630678 0.769735
-0.292625 -0.0543866 0.486787 -0.814185 0.310453 0.490634
0.183965 0.416619 -0.207191 0.965452 0.255026 0.0535227
0.386868 -0.105391 0.316958 0.788123 -0.212194 -0.577785
0.270958 -0.0845901 0.621241 0.164954 -0.769196 0.617356
0.120938 -0.266931 0.178325 -0.883353 0.145626 0.445513
0.322851 0.0284517 -0.103008 -0.197392 0.764375 -0.613813
-0.247522 -0.190895 0.612252 0.736733 -0.535592 -0.412753
0.193199 -0.376331 0.106892 -0.622015 0.141688 0.770079
-0.289908 -0.365922 0.116041 -0.904349 -0.352877 -0.240066
-0.125085 -0.326596 0.37857 0.8844 -0.425327 -0.19218
0.027696 -0.0491902 -0.0643726 -0.399886 0.578565 0.710882
0.36966 -0.471239 -0.0845175 0.714571 -0.602995 -0.354662
0.174855 -0.0222153 -0.222394 0.81232 -0.0238506 -0.582724
0.358341 -0.189215 -0.236613 0.813127 -0.224171 -0.537189
-0.348518 -0.102778 -0.0490848 -0.846451 -0.235204 -0.477702
-0.0118842 0.236827 0.279578 0.0541857 0.678137 0.732935
0.0204029 0.199082 -0.235232 -0.737311 0.139259 0.661044
-0.0269157 0.211641 -0.325925 -0.33834 0.737389 -0.584622
0.0960697 0.327005 0.346752 -0.438288 -0.68795 -0.578471
-0.00653425 -0.148218 0.59221 -0.0381346 0.557114 0.82956
0.146255 -0.378912 -0.131006 0.205149 -0.452855 -0.867662
-0.0147042 -0.0718179 0.523558 -0.204498 0.682741 0.701459
0.256648 0.281705 0.277554 0.588318 0.806556 0.057881
0.0769501 -0.141739 -0.251548 0.00168044 0.611655 -0.791123
0.340263 -0.318621 -0.203315 0.810775 -0.186827 -0.554743
-0.290178 0.165742 0.371662 -0.823065 0.196372 0.532919
-0.310503 -0.271502 0.0652653 -0.937863 -0.295069 -0.182614
0.301989 -0.468812 0.146771 0.227087 -0.87418 0.429232
0.390477 -0.11836 0.18314 0.956588 0.143592 0.253613
0.245286 -0.267095 0.196977 0.141253 -0.755241 0.640046
-0.0882004 0.00279695 0.00109637 0.974722 0.0719977 -0.211504
-0.125775 -0.102135 -0.222848 -0.547846 -0.599806 -0.583179
-0.344326 -0.495879 0.0220395 -0.545055 -0.638024 -0.543912
-0.0468421 0.186917 -0.507854 0.352896 -0.764061 -0.540069
0.147519 0.0462405 0.572954 -0.690307 -7.51815e-05 0.723517
0.288982 0.265404 0.270928 0.764097 0.317402 0.561615
0.115375 0.119313 0.565511 0.597698 0.668365 0.442771
0.409312 -0.220296 0.179402 0.999622 -0.0241352 0.0131664
0.168817 -0.319885 -0.164619 0.436342 -0.457393 -0.774853
-0.172011 0.136257 0.333568 0.568911 0.71881 0.399565
-0.209054 0.434218 -0.0571581 -0.391256 0.737427 0.550564
-0.261413 -0.0741127 -0.0951814 -0.368972 0.784392 -0.498586
0.387656 -0.034414 0.480708 0.540976 0.612642 0.576207
-0.310268 -0.2861 0.225967 -0.990111 -0.0996023 0.0987949
0.551442 -0.209806 0.0612985 0.821377 -0.253288 -0.511062
0.118892 -0.156739 0.567985 0.479266 -0.717345 0.505687
-0.309082 0.378266 -0.19011 -0.81458 0.0388479 0.578748
-0.35318 -0.406637 -0.0637999 -0.764279 -0.252363 -0.593456
-0.199556 -0.48828 0.256661 0.158504 -0.756173 0.634885
-0.238371 0.131175 0.0566744 -0.792036 0.18668 0.581232
-0.175963 0.260009 -0.222528 -0.098704 0.717122 -0.689923
-0.315658 -0.188444 -0.0383734 -0.890199 -0.399343 -0.219251
-0.197791 0.213201 -0.362124 0.60102 0.679661 0.420518
0.460707 -0.466053 0.0415339 0.858872 -0.484999 -0.164665
0.162181 0.154458 0.499302 0.423522 0.510932 0.748049
-0.189391 -0.452562 -0.157504 -0.524839 -0.556617 -0.643989
-0.2553 -0.0230646 -0.087874 -0.995444 0.0677601 -0.0670767
0.282998 -0.326595 -0.24674 -0.540724 -0.556209 -0.63107
-0.276482 0.448142 -0.158472 -0.654683 0.21041 0.726029
-0.262371 -0.579302 0.115648 -0.385706 -0.43332 0.814533
0.372716 0.093104 0.193294 0.76167 -0.150052 -0.630351
-0.448124 -0.124476 0.252381 -0.939611 0.327262 0.100156
0.263573 -0.303859 0.329578 -0.751331 -0.601516 0.271441
-0.2139 0.218613 -0.262299 -0.181539 0.783633 -0.594106
-0.040103 -0.153499 0.577881 -0.335509 0.487151 0.806298
-0.304213 0.188957 0.344051 -0.856744 0.453185 0.246198
-0.311643 -0.251952 0.554915 -0.2254 -0.723675 0.652295
-0.311634 -0.338018 0.0297543 -0.766524 0.0310287 0.641465
0.0100523 0.0475752 0.438413 -0.0797576 0.651773 0.754209
-0.0646537 -0.0602949 0.0304212 0.97425 0.205327 0.0931591
-0.21576 0.00688718 0.505402 0.650184 0.519838 0.554103
-0.0859164 0.38885 -0.0920741 0.00977722 0.696607 -0.717386
-0.264336 -0.15627 -0.188512 -0.0631497 0.710579 -0.700778
-0.0498847 -0.343801 0.183029 0.152346 -0.757781 0.634475
0.438612 -0.0646562 -0.192251 0.815457 -0.134672 -0.562933
0.284992 -0.300018 -0.314594 0.826671 -0.29242 -0.480734
0.0267099 -0.216983 -0.296096 -0.075491 -0.551239 -0.830925
0.110229 0.22674 0.420197 -0.787204 0.457826 0.413166
-0.283656 -0.184807 0.56324 -0.79967 0.16053 0.578583
0.0602891 -0.509491 0.162206 -0.105779 0.546764 0.830578
0.231456 0.119602 0.478075 0.522034 0.628832 0.576239
-0.0933336 0.193595 0.172885 -0.0954024 0.789352 0.606483
0.0968874 0.384422 -0.170823 -0.607876 -0.687487 -0.397301
-0.284783 -0.38502 -0.139953 -0.504936 -0.461104 -0.729673
-0.0173204 -0.303485 -0.230782 0.796675 -0.159787 -0.582904
-0.350983 -0.298016 0.320025 -0.429163 -0.716528 -0.549915
-0.294314 -0.449452 0.120803 -0.818157 0.357916 0.450017
-0.0405033 0.330079 0.0723257 -0.102964 0.805865 0.583078
-0.29923 -0.0729714 -0.087543 0.0336828 0.663665 -0.747272
-0.163879 0.221251 -0.281173 0.0680925 0.680529 -0.729551
0.408828 -0.168488 0.093608 0.466646 0.524393 0.712217
-0.106323 0.151427 0.319344 -0.38633 0.783951 0.485973
0.429104 -0.420258 -0.0174788 0.851797 -0.440404 -0.283702
0.370064 -0.334185 0.298892 0.0509975 -0.720898 0.691162
-0.35176 0.161488 0.279713 -0.838805 0.343262 0.422585
-0.0428009 -0.0214924 -0.082018 0.336699 0.547276 0.766239
-0.00885582 -0.437634 0.123498 0.33906 0.621581 0.706169
-0.0517771 -0.626598 0.0551159 0.473074 -0.776432 0.416357
0.398558 -0.0142387 0.443215 0.663133 0.413239 0.62409
0.162889 0.366112 -0.386225 -0.335923 0.797786 -0.500692
-0.176639 -0.50193 0.226807 0.158476 -0.756981 0.633929
-0.365468 -0.108227 0.406863 -0.816652 0.256863 0.516818
-0.290419 -0.546266 0.116113 -0.666389 0.0162338 0.745427
0.36084 -0.431129 0.18812 0.162627 -0.760919 0.628135
-0.108209 0.0229703 -0.368693 -0.597953 -0.538943 -0.59329
0.155499 0.311474 -0.0115072 0.668887 0.590305 0.451808
0.00505343 -0.229507 0.0976159 0.265697 0.690628 0.672635
-0.343383 -0.291003 -0.184834 -0.59524 -0.557987 -0.578222
-0.131997 -0.337274 0.337439 0.926783 0.0913674 -0.364316
0.101822 -0.123464 0.12802 -0.970623 -0.231224 -0.0665363
0.0881718 -0.185021 0.239906 -0.540293 -0.730245 -0.418121
0.374063 -0.0168966 0.128472 0.959227 0.227475 0.167743
0.277961 0.00669752 -0.130314 -0.0428568 0.70585 -0.707064
-0.0212339 0.107647 -0.209096 -0.157156 0.827373 0.539218
0.373961 -0.0206637 0.00237429 0.990396 0.0751262 -0.116064
-0.122182 0.213946 0.143273 -0.0999303 0.766718 0.634159
-0.321502 -0.119684 -0.135955 -0.899326 -0.435203 -0.0425631
-0.258757 -0.348192 -0.204243 -0.533985 -0.623243 -0.571339
0.212149 -0.537074 0.0946288 0.140974 -0.753758 0.641853
0.0601773 0.38542 0.000224744 0.496809 0.667097 0.555123
0.125494 -0.50649 -0.0476674 0.219528 -0.765553 -0.604761
0.121865 0.373369 -0.194202 -0.946699 -0.271107 -0.173959
-0.124453 0.392844 -0.0861064 0.102098 0.604979 -0.789669
0.22178 0.166989 -0.23789 0.817459 -0.185933 -0.545151
-0.145447 -0.226572 0.542282 0.354731 -0.800282 0.48344
0.530732 -0.359857 0.12007 0.860135 -0.420083 -0.289306
-0.0487864 -0.644822 -0.111654 -0.425501 -0.751287 -0.504496
0.140345 -0.203172 0.50074 0.230002 -0.762181 0.605128
0.233221 -0.278076 0.399712 -0.77896 -0.486716 -0.395385
0.307886 0.166055 0.106413 0.822771 0.378574 0.423946
-0.427213 -0.248326 -0.129348 -0.816335 0.492996 0.300918
0.0187685 0.496803 -0.0689175 0.615139 0.617396 0.490333
-0.376671 -0.249272 -0.192617 -0.552019 -0.587716 -0.591495
-0.491821 -0.0523514 0.142837 -0.880715 -0.365981 -0.300666
-0.293358 0.118662 -0.194146 -0.959489 -0.281043 0.019877
0.545939 -0.250686 0.0818823 0.793933 -0.459708 -0.397917
-0.131132 -0.0221145 -0.310794 -0.578209 -0.625332 -0.524056
-0.146573 0.298206 -0.199569 -0.151049 0.758088 -0.634418
0.32635 0.214075 0.27433 0.556083 0.670134 0.491621
0.345648 0.0721315 0.159796 0.737261 0.17165 -0.653439
-0.0214749 0.00863903 0.0960292 0.369971 -0.67226 -0.64124
0.0342974 -0.229077 0.509794 0.162739 -0.75908 0.630329
-0.292111 0.144042 -0.204281 -0.994857 -0.0918703 0.0426516
-0.267669 0.275789 0.346385 0.641559 0.301085 0.705514
0.387847 -0.0938832 0.12621 0.977085 0.156962 0.143766
-0.191433 0.167207 0.317776 0.482517 0.777678 0.402982
-0.0256916 -0.542331 -0.132508 0.812805 -0.376004 -0.444937
-0.162398 0.087004 0.381619 0.567429 0.592472 0.57184
-0.351721 -0.00598095 0.0688293 -0.892265 0.355148 -0.278807
-0.293738 -0.376351 0.326173 -0.991921 0.126755 0.00515546
0.463756 -0.109493 0.490384 0.455034 0.546259 0.703239
0.0291353 0.303959 0.110444 -0.181546 0.635515 0.750441
-0.230661 -0.217095 0.570562 0.176831 -0.680536 0.711057
-0.264194 0.135458 -0.335899 -0.635301 -0.661755 -0.398086
-0.0066309 -0.164237 0.0474195 0.593798 0.559269 0.578466
-0.333996 -0.139836 0.146061 -0.968553 -0.14349 0.203261
0.417848 0.0184767 0.307135 0.876856 -0.321546 -0.357397
-0.440994 -0.242144 0.302868 0.832198 -0.216282 -0.510558
0.107626 -0.140304 0.0928065 -0.945644 -0.000218428 0.325205
-0.0884051 0.506222 -0.166712 -0.122597 0.746049 -0.654508
-0.340211 0.345682 -0.228172 -0.996926 -0.063533 -0.0458455
0.0717555 -0.565219 0.101031 0.0816851 -0.765705 0.637984
-0.0250957 0.211062 0.169609 -0.19682 0.682614 0.703776
-0.0951993 -0.639272 -0.0753512 -0.620294 -0.526342 -0.581549
0.496926 -0.284893 0.132164 0.524149 0.789581 0.319108
0.119202 0.398204 -0.269071 -0.961363 -0.15724 -0.225956
-0.346664 -0.360471 -0.0089579 -0.783304 0.23528 0.575394
0.345227 0.0480382 0.446717 0.541437 0.394982 0.742183
0.396918 -0.112359 0.552489 0.493284 0.735725 0.464091
0.307087 -0.171968 -0.34157 0.823481 -0.291477 -0.486744
-0.125868 -0.392821 0.261525 0.851333 0.512921 -0.110197
0.250797 -0.323676 -0.216054 -0.549521 -0.596811 -0.584674
0.425935 -0.0588923 -0.029318 0.424771 0.624844 0.655088
0.145133 -0.380922 0.0957014 0.305608 -0.816327 0.490116
-0.196901 0.431752 -0.159917 0.604451 -0.545378 -0.580691
0.400102 -0.184944 0.320766 0.912071 0.365137 0.186552
-0.398185 -0.251697 0.430638 -0.765248 0.248751 0.593732
-0.168219 -0.281309 0.479706 0.24692 -0.774485 0.582412
0.220602 -0.234967 0.243651 0.12837 -0.754203 0.643971
-0.299862 -0.47357 -0.0415876 -0.556281 -0.622452 -0.550549
-0.318747 -0.337842 0.393069 -0.216 -0.967197 -0.133694
-0.0149624 0.0771378 -0.174316 0.0892674 0.545725 0.833196
0.187581 0.272057 0.217737 -0.0997316 0.73564 -0.66999
-0.274969 0.0263153 -0.0522338 -0.934896 -0.204338 -0.290199
0.0949729 0.329159 0.391159 0.46799 0.569982 0.675356
0.414107 -0.129988 0.0700241 0.514567 0.576285 0.634915
-0.0846782 0.173801 -0.242287 0.250149 0.54821 0.798054
0.447744 -0.259219 -0.0660139 0.83459 -0.1377 -0.533384
0.424891 0.129735 0.253104 0.803066 -0.379381 -0.459515
-0.328646 -0.18606 0.0364599 -0.931526 -0.193901 -0.307672
-0.0592525 -0.0194274 0.469943 -0.260707 0.603875 0.753237
0.0620554 0.42898 -0.0355277 0.519433 0.544282 0.658747
0.185183 0.0746226 0.555763 0.54666 0.676871 0.492959
-0.037978 -0.211668 0.404833 0.534263 -0.655814 -0.533358
-0.387777 -0.222923 -0.223934 -0.507148 -0.57411 -0.642805
-0.150318 0.199382 0.202296 -0.0958608 0.734328 -0.671992
-0.0107537 -0.24298 -0.278662 -0.0565499 -0.695214 -0.716575
0.534794 -0.316552 0.0976994 0.676731 0.0870486 -0.731066
-0.203093 -0.0998853 -0.158456 -0.62365 -0.608932 -0.490166
0.346403 -0.549941 -0.0258123 -0.432731 -0.898092 0.0785757
-0.351336 -0.524777 0.0588518 -0.537102 -0.59027 -0.60258
-0.266388 0.228596 0.379716 0.526023 0.616479 0.585878
0.0271547 -0.269052 -0.249529 -0.159765 -0.763122 -0.626195
-0.094098 0.127898 -0.16777 0.867426 0.388532 0.310828
-0.408293 -0.345689 -0.0524686 -0.704323 0.218825 0.675311
0.171938 0.336379 -0.426506 0.801426 0.114797 -0.586974
0.0769373 0.131492 0.414754 -0.843354 0.374486 0.385376
0.386333 -0.0850548 0.169916 0.936006 0.0531917 0.347941
-0.466628 0.0240683 0.135865 0.82538 -0.208742 -0.524571
0.413327 -0.325531 0.300091 0.0173641 -0.649208 0.760412
-0.391182 0.125755 0.169136 -0.00542564 0.63682 -0.770994
0.187885 0.306309 0.305208 0.633241 0.49547 0.594572
-0.0264973 -0.142168 -0.233616 0.199065 -0.522449 -0.829108
0.48512 0.0351997 -0.146249 -0.279691 0.759373 -0.587474
0.118413 -0.0881651 -0.253463 0.0566914 -0.56992 -0.819742
0.453731 -0.0223633 -0.133635 0.463346 0.885941 0.0204801
-0.263754 0.358729 -0.243202 0.983668 -0.170316 -0.0582225
0.328768 0.1217 0.11204 0.860082 0.380765 0.339524
0.291406 -0.133049 0.554664 -0.221573 -0.674627 0.704119
-0.116646 0.203398 -0.193097 0.979675 0.181518 -0.0853757
-0.104278 0.375095 0.0133035 -0.00481515 0.454324 0.890824
-0.226086 -0.0867763 0.620831 -0.824942 0.28338 0.489047
0.192611 0.246492 0.186186 -0.10976 0.751134 -0.650962
-0.193846 -0.660102 0.0429464 0.166179 -0.757779 0.630995
-0.0991756 -0.535689 0.177667 0.185361 -0.756864 0.626737
0.349547 0.0558917 -0.086281 -0.364919 0.781341 -0.506301
0.202683 0.376333 -0.352947 0.979258 0.157302 0.127711
-0.319947 0.0706957 0.375343 -0.818952 0.245116 0.51888
-0.348439 0.0375311 0.0447712 -0.0402766 0.68072 -0.731436
0.300347 -0.514054 0.106169 -0.121752 -0.604881 0.786954
-0.319851 -0.280447 0.522486 0.343985 -0.867262 0.359904
-0.10394 -0.135721 -0.211661 0.0622419 0.616604 -0.784809
0.228562 -0.495681 0.136037 0.100719 -0.755346 0.64754
0.112881 0.155963 0.537286 -0.848861 0.392313 0.354295
-0.222365 0.000453633 -0.250583 -0.654015 -0.560677 -0.507845
-0.0687384 -0.267329 0.273332 0.0780632 -0.759037 0.64635
-0.209473 0.166849 0.0972468 -0.790026 0.391411 0.471865
0.357335 -0.593646 -0.0198554 -0.70243 -0.0762449 0.707657
-0.250633 -0.0450453 0.546209 -0.823173 0.273628 0.497509
0.368181 0.0156523 0.035974 0.954696 0.288534 -0.0728267
-0.206453 -0.602291 -0.00837418 -0.605764 -0.427812 -0.670841
-0.0986071 0.100976 -0.0784755 0.989261 -0.114007 -0.0914625
0.258795 -0.0532639 -0.195718 -0.276164 0.862651 -0.423753
-0.127549 0.00484539 0.420206 0.348028 0.512868 0.784757
-0.0190251 -0.103453 0.546482 -0.206618 0.595057 0.77667
0.431393 -0.232062 -0.129001 0.823011 -0.234785 -0.517232
0.268335 0.0328207 -0.0916731 0.960396 0.241148 -0.139593
-0.119346 0.205075 0.281551 -0.24724 0.362016 0.898787
0.0724722 0.213557 0.380832 -0.823297 0.250216 0.509483
0.381353 -0.243453 -0.177543 0.781707 -0.120015 -0.611989
-0.301777 -0.166292 -0.166346 -0.757444 0.638279 -0.137402
0.383936 -0.0826436 0.0740025 0.940486 -0.175247 -0.29116
0.0824921 -0.338042 0.165216 0.230076 -0.781641 0.579744
-0.190591 -0.20863 -0.279312 -0.219445 0.823893 -0.522536
0.333237 -0.0996884 -0.268854 -9.30958e-05 0.599029 -0.800727
-0.0682809 -0.460919 0.184894 0.569581 0.63165 0.525924
-0.119623 -0.301074 -0.388978 -0.336198 0.786339 -0.518307
-0.0733838 0.250621 0.252372 -0.215602 0.587329 0.780103
-0.263732 0.0293357 0.495286 -0.819053 0.2382 0.521932
-0.202889 -0.50463 -0.103581 -0.515288 -0.677942 -0.524282
-0.378842 -0.0689241 0.11154 -0.48833 -0.508421 -0.709254
0.378484 0.0333252 0.426876 0.46496 0.494023 0.734679
0.0384203 0.118847 -0.0128779 -0.660537 -0.531401 -0.53038
-0.288846 0.110331 -0.146529 -0.904754 -0.413016 0.104105
0.0231633 0.286297 -0.237996 -0.99925 0.0113805 -0.0370255
0.387733 0.17592 0.187895 0.572043 0.336182 -0.748163
-0.0484698 -0.442903 0.149128 0.53607 0.589726 0.60403
0.246773 -0.251672 0.432673 0.174025 -0.760713 0.625325
0.308811 0.0776704 -0.0472527 -0.587375 0.684321 -0.432082
0.109776 -0.161525 0.396821 -0.231906 -0.403549 -0.885081
0.369358 -0.015688 -0.0315438 0.649263 0.720651 0.243146
-0.0526003 0.413191 -0.0755232 -0.145849 -0.65391 -0.742381
-0.44619 -0.0202899 0.211777 -0.823926 0.268065 0.499286
0.401647 0.15942 0.271688 0.542273 0.631136 0.554624
0.486192 0.0189467 0.353532 0.444076 0.699145 0.560351
0.148237 0.194483 0.128168 -0.28306 0.763687 -0.580223
0.0370009 0.219217 0.290712 0.0471475 0.169863 0.984339
0.480911 -0.10679 -0.0224435 0.553351 0.606807 0.570602
0.416688 -0.129464 -0.198432 0.802765 -0.180616 -0.568284
-0.36029 -0.0730506 -0.00385516 -0.982808 -0.18463 0.000993395
-0.269785 0.136224 0.0108285 -0.8044 0.124854 0.58082
0.501616 -0.434295 0.141665 -0.805472 0.189285 0.561592
0.137987 -0.528053 0.131337 0.166877 -0.755092 0.634025
-0.268939 -0.399007 0.370085 0.291595 -0.813667 0.50291
-0.0537012 -0.121641 -0.265021 0.0247042 -0.251405 -0.967567
0.42168 -0.130578 0.398888 0.827354 -0.447137 -0.339931
0.397672 -0.498438 0.0968617 0.105938 -0.759137 0.642252
-0.32586 0.292422 -0.179464 -0.954546 -0.298053 -0.00273103
-0.294923 -0.298788 0.0198552 -0.823198 0.0203421 0.567389
0.420031 -0.278014 0.298962 0.989805 0.142006 0.0110026
0.389697 -0.199162 -0.202009 0.73453 -0.144522 -0.663007
0.0210852 -0.180091 0.409963 0.043618 -0.363861 -0.930431
0.397774 -0.324933 -0.117647 0.803119 -0.235705 -0.547214
-0.300215 -0.0328031 0.462146 -0.808328 0.210012 0.55
0.206387 0.0380681 0.578145 0.468647 0.528266 0.708029
0.1527 -0.301813 -0.191516 0.341786 -0.722862 -0.600544
-0.261997 0.0970528 0.463195 -0.82392 0.26988 0.498317
0.148321 -0.173856 0.392633 -0.391504 -0.657801 -0.643446
-0.0370836 0.506859 -0.075811 -0.195597 0.603588 0.772932
-0.29616 -0.153863 0.532778 -0.824306 0.286339 0.488395
0.14694 0.131486 -0.359843 0.609181 -0.157604 -0.777213
0.237199 0.150263 0.430534 0.703064 0.337745 0.625803
0.306695 -0.536642 -0.0309259 -0.449315 -0.880368 -0.151881
0.411604 -0.330901 -0.0912474 0.810849 -0.351833 -0.467693
-0.0825783 -0.446156 -0.259416 -0.562208 -0.455742 -0.690088
0.412545 -0.218923 0.147502 0.446132 0.575573 0.685333
-0.132659 0.142306 0.315959 -0.405999 0.457749 0.790968
0.0389519 0.410773 -0.112716 -0.492436 -0.726752 -0.478894
0.332816 0.160214 0.137546 0.386124 0.292137 -0.874966
0.491651 -0.0232919 0.37802 0.811732 -0.342287 -0.473212
0.180231 -0.493462 0.163924 0.334064 -0.790301 0.513639
0.032633 0.210885 -0.187382 -0.974185 0.0436912 0.221481
0.109947 0.421808 -0.0867129 0.516019 0.534552 0.669312
0.46698 -0.16822 0.0502834 0.454808 0.660904 0.596955
0.310881 -0.188028 0.494252 0.24278 -0.761008 0.601602
0.0361781 0.369196 0.0491749 0.445191 0.629727 0.636592
0.301469 0.227712 0.156306 0.272945 0.522447 -0.807806
-0.431282 -0.333348 0.378139 0.783419 -0.203243 -0.587322
0.31475 -0.0052966 -0.157888 -0.305208 0.917932 -0.253474
0.332468 0.0744922 0.419871 0.58639 0.561854 0.583495
-0.306221 0.297592 -0.13019 -0.819437 0.294484 0.491735
0.264847 -0.121432 0.564531 0.0199294 -0.733548 0.679346
0.380008 -0.154698 -0.231249 0.793113 -0.0499285 -0.607025
-0.157609 0.0601084 -0.365896 -0.526004 -0.768787 -0.363712
0.256389 -0.305441 0.372044 0.133979 -0.752433 0.644899
0.125322 0.508205 -0.190928 0.405885 0.411332 0.816127
0.291647 -0.340964 -0.293989 0.825315 -0.132633 -0.548875
0.405171 0.216579 0.197619 0.548659 0.601078 0.581102
0.371878 0.159228 0.170241 0.750345 -0.21189 -0.626167
0.498427 -0.397191 0.0758806 0.852305 -0.391545 -0.346799
-0.0664777 0.0554325 0.0307553 0.837437 -0.478236 -0.264557
0.181845 -0.149771 0.57027 0.185451 -0.847566 0.497233
0.0869768 0.339031 -0.194667 -0.215264 0.762496 -0.610132
-0.264528 0.201774 0.308694 0.278013 0.958682 0.06032
0.0850629 0.266036 0.24479 0.263733 0.696497 0.667336
0.339057 0.0980884 0.0881143 0.877614 0.283097 0.386847
0.0808217 -0.0880415 0.0319566 -0.895399 0.167138 0.412705
0.0799455 0.00646417 -0.326614 0.147968 -0.555827 -0.818023
-0.349629 -0.108599 0.0199793 -0.986271 -0.122502 -0.110733
-0.408848 -0.082387 0.149782 -0.606109 -0.699442 -0.378699
-0.127833 0.25296 -0.240841 0.816573 0.574946 -0.0514368
0.467283 -0.276532 -0.030475 0.823077 -0.332162 -0.460665
-0.32228 0.274137 -0.223823 -0.964613 -0.231893 -0.125486
-0.0745771 -0.354146 -0.343543 0.526701 0.611284 0.590692
0.261254 -0.515399 0.105647 0.0853259 -0.731159 0.67685
0.0798797 -0.161723 0.575756 0.0213403 -0.667367 0.744423
-0.144649 0.0816677 -0.398326 -0.530811 -0.730461 -0.429728
-0.248297 0.468637 -0.1801 -0.261433 0.753782 -0.602881
0.518113 -0.271703 0.0524259 0.803962 -0.219988 -0.552494
0.0336141 -0.558223 0.116557 0.261324 -0.808027 0.528017
-0.435439 -0.199605 0.324047 -0.762557 0.176754 0.622306
-0.328408 0.367636 -0.277968 -0.0897942 0.701144 -0.707343
-0.133919 -0.400203 0.335248 0.0908946 -0.72008 0.687913
0.203447 -0.40138 -0.0815431 -0.550269 -0.599715 -0.580987
0.0859118 0.178692 0.395503 -0.828295 0.056309 0.557456
-0.0976876 0.464057 -0.136643 0.169242 -0.656066 -0.735483
0.0454786 -0.295476 0.133487 -0.102168 0.656214 0.747626
-0.22879 0.2644 0.00488952 -0.798809 0.409968 0.440261
-0.0161835 0.0177009 -0.120931 0.0248077 0.270136 0.962502
-0.343626 -0.204688 -0.207188 -0.737792 0.661852 -0.132724
0.355433 -0.0332697 -0.172529 -0.118596 0.891562 -0.437095
0.422127 -0.298556 0.33786 0.0626536 -0.759988 0.64691
0.114582 0.217033 0.123208 0.675981 0.46757 0.569585
-0.279484 -0.38764 0.134064 -0.909168 -0.405143 -0.0962966
-0.0694188 0.235252 -0.0976326 0.352963 -0.586891 -0.728681
-0.00902553 0.432765 -0.00603867 -0.386109 0.660407 0.644036
0.0921269 0.421338 -0.176556 -0.797358 -0.393104 -0.457919
-0.279711 0.0401175 -0.0954165 -0.987738 -0.147865 -0.0500937
0.172831 0.0381485 0.599208 0.436933 0.619901 0.651776
0.0387662 -0.0773362 0.177582 -0.196231 -0.646989 -0.736816
-0.217793 -0.0133514 0.585754 -0.794169 0.37808 0.475764
-0.33923 0.387669 -0.246377 -0.834762 0.208536 0.509594
