ply
format ascii 1.0
comment Created by Open3D
element vertex 128
property double x
property double y
property double z
property double nx
property double ny
property double nz
end_header
0.464517 -0.224376 0.0995289 -0.0789394 0.20307 0.975977
0.415746 -0.013727 0.0949028 0.0487346 0.173498 0.983628
-0.479215 -0.0677357 0.140634 -0.998997 0.0262685 -0.036255
0.484965 0.208496 -0.0413078 0.921823 0.333827 -0.196981
-0.347802 0.231402 0.0225639 -0.221067 -0.0529706 -0.973819
-0.201276 -0.224931 0.0867418 0.996922 -0.0237031 0.0747246
0.436285 0.317719 -0.0806024 0.238331 0.899261 -0.36678
0.314987 0.215434 0.0286175 0.995318 -0.0932652 -0.0253607
-0.473724 -0.167951 0.150031 -0.998994 -0.0177261 0.0411824
0.250559 0.0290637 0.110208 0.215047 -0.0749445 0.973724
0.163637 0.291189 -0.129301 -0.0895049 0.987255 -0.131592
-0.249574 -0.221826 0.177149 0.170391 -0.0473864 0.984236
0.496552 -0.0226291 -0.0689411 0.971231 -0.221559 -0.0873036
-0.29857 -0.274607 0.0554719 -0.996075 -0.0786261 0.0406592
-0.2636 0.162278 0.154516 0.198638 -0.166195 0.965879
0.00519655 0.215681 -0.158257 -0.941751 -0.318955 0.106645
0.43153 0.0509734 0.03343 -0.033079 -0.106184 -0.993796
0.492228 0.180026 0.0773019 0.26672 -0.0624281 0.96175
-0.511149 0.238173 0.0301318 -0.408956 0.900153 0.14993
-0.434224 -0.093632 0.0282795 0.9285 0.258186 -0.266884
0.283321 -0.254227 0.0385069 0.386471 -0.922251 -0.00963183
-0.406441 -0.3096 0.0949622 0.991278 0.0910075 -0.0953222
0.305228 0.151685 0.106103 -0.0710313 0.99488 -0.0718903
0.495935 -0.113059 -0.163286 0.0491674 -0.299637 -0.952786
-0.317455 0.0332539 0.178933 0.183563 0.0622453 0.981035
-0.285316 -0.111647 0.18833 -0.10617 0.123618 0.986634
0.490039 -0.110402 -0.166286 0.0615505 -0.0646463 -0.996008
0.157321 0.213051 -0.15962 0.252597 -0.965405 -0.0647159
0.204937 0.221185 -0.07759 0.924496 0.346006 -0.159962
-0.239077 -0.00943088 0.0290565 -0.124437 0.211955 -0.969325
0.483441 0.108585 -0.0317444 0.998923 0.029064 -0.0361726
-0.215229 -0.127956 0.027584 -0.18298 0.0190281 -0.982933
-0.516876 0.231317 0.100644 -0.997623 -0.0510713 0.0462547
0.481341 0.276044 0.0821046 0.0193115 0.147098 0.988933
-0.382652 -0.127001 0.121621 -0.0744331 -0.109789 -0.991164
0.269796 0.164954 -0.0376401 0.106917 -0.0468394 -0.993164
-0.473606 -0.24487 0.108531 -0.951294 -0.287374 0.111603
0.259439 -0.11827 0.121901 0.374811 0.0194669 0.926897
0.347452 -0.148158 -0.0182257 0.992286 -0.106868 0.0628307
0.519574 -0.0523223 0.0860725 0.880912 0.366146 -0.299885
0.340011 0.0537848 0.115953 0.0931247 0.0548455 0.994143
-0.212382 0.18246 -0.141185 -0.00419486 -0.212964 -0.977051
-0.336631 0.183502 0.0970472 -0.999849 -0.00620472 -0.0162241
-0.326379 -0.289806 0.187106 0.0263174 0.106948 0.993916
-0.498392 0.098984 0.174052 -0.998667 0.0508155 -0.00909064
-0.169715 0.200356 -0.00302522 0.761014 0.102688 0.640557
0.38174 0.141763 0.0332715 -0.17337 0.0150447 -0.984742
-0.469652 0.193238 0.170606 -0.126429 0.314382 0.94084
-0.460051 -0.268472 0.187043 -0.964274 -0.203099 0.17008
-0.3764 0.0329356 0.112012 -0.277789 -0.042713 -0.959692
-0.420217 -0.24482 0.0238977 0.916946 0.22892 -0.326813
-0.0959808 0.256922 -0.126182 0.912505 0.386636 -0.133591
0.413071 -0.163624 0.0497819 0.278879 -0.0580813 -0.958568
0.458845 -0.0250393 -0.167475 0.0403474 -0.172945 -0.984105
0.370528 -0.23849 0.110316 0.192248 -0.981069 -0.0233405
-0.32955 0.0899603 0.0284709 -0.991145 0.10232 0.0846302
0.0234435 0.219266 -0.0551061 -0.910727 -0.377991 0.166433
0.240452 -0.0643058 0.0385445 -0.976012 -0.16631 0.140506
0.237411 -0.15492 -0.0124111 -0.977825 0.150895 -0.145219
-0.421487 0.131888 0.111681 -0.359308 0.0368247 -0.932492
-0.286733 0.264473 0.144878 -0.114424 0.992161 0.0502366
0.427189 0.298807 -0.182312 -0.0595455 -0.292508 -0.954407
0.321697 0.0671047 -0.0084127 0.986901 0.107131 -0.120623
0.0989749 0.287545 -0.0496191 0.0797843 0.0664546 0.994595
-0.450692 0.0105418 0.17756 0.267265 0.0241287 0.963321
0.438924 0.0188444 -0.0479318 -0.998941 0.0216434 -0.0405939
0.0247906 0.230402 -0.0352481 -0.964981 0.204179 -0.16469
-0.196871 -0.304001 0.126043 0.109539 -0.9913 -0.0729802
-0.224916 -0.128981 0.028365 -0.24105 0.0372386 -0.969798
-0.436861 -0.261747 -0.0701056 0.11422 -0.205869 -0.971891
0.499397 0.0176498 0.0299557 0.999179 -0.0404651 0.00198572
-0.517415 0.223857 -0.0911864 0.0937103 -0.278483 -0.955859
0.480804 0.0897165 -0.122301 0.999554 0.0296484 -0.00345431
-0.255432 0.237387 -0.0598366 -0.950904 -0.212871 0.224649
-0.242395 0.150164 0.0528127 0.955125 0.278464 -0.100967
-0.084897 0.26541 -0.125742 0.702519 0.690459 -0.172432
0.470349 0.237661 -0.13232 0.903353 0.266769 -0.335838
-0.22649 0.0641552 0.151998 0.351632 -0.114556 0.929102
-0.503571 -0.052141 -0.0679405 -0.972751 -0.137411 0.186747
-0.305042 -0.180011 0.0631732 -0.941138 -0.272376 0.200176
0.425642 0.259367 -0.0210259 -0.98776 -0.111091 0.109495
-0.233058 0.247791 0.0698992 0.874811 0.173653 0.452272
-0.468488 0.0967522 -0.0820036 0.998927 0.0347212 -0.0306527
-0.376294 -0.043448 0.17201 -0.0839856 0.257045 0.962743
-0.5 0.0927182 0.0915708 -0.993872 0.10742 0.0260738
-0.49633 -0.0346436 -0.0743531 0.336658 -0.427941 -0.838766
0.374627 0.221305 0.0930314 0.319909 -0.141742 0.936786
0.345565 -0.0504855 0.020067 0.997969 0.0406299 -0.0490656
0.446584 -0.111411 0.0907342 0.0298663 0.0849544 0.995937
-0.228599 0.105563 0.040675 0.941854 -0.334015 0.0366642
0.297672 0.289937 0.0928453 0.123378 -0.0102937 0.992306
0.216436 0.293398 0.0900513 -0.998624 0.0506029 0.0137796
0.425984 0.0757687 -0.162925 -0.049121 -0.224373 -0.973264
-0.515717 0.0820108 0.00492052 -0.985299 -0.102652 0.136561
0.394561 0.333805 0.04326 0.000560369 0.998102 -0.0615788
-0.474987 -0.332055 -0.0418642 -0.900227 -0.317823 0.297624
0.220649 0.111347 0.0270451 -0.998796 0.0486917 -0.00599228
0.514763 -0.222444 -0.15055 0.997954 0.0547134 -0.0330683
0.504 -0.134264 -0.0556568 0.992654 0.0870383 -0.0840333
-0.434621 -0.132673 -0.0626651 0.887599 0.333468 -0.317754
-0.318985 -0.0557073 0.0668861 -0.797727 -0.115626 0.591829
-0.412136 0.250797 0.128697 -0.136404 0.990437 -0.0206774
0.283186 -0.216831 0.111114 0.0663483 0.103591 0.992405
0.464899 -0.214108 -0.0254225 -0.916531 -0.321253 0.238259
-0.355453 0.13359 0.161713 0.0311855 0.154006 0.987578
-0.464417 0.157506 0.0272047 0.872417 0.285698 -0.396567
0.29456 0.282359 -0.0332319 0.967089 -0.239678 0.0854045
0.0626035 0.274738 -0.158291 -0.00693626 0.830707 -0.556666
0.199764 0.295045 -0.0107643 -0.175537 0.981689 0.0739885
0.427059 0.164081 -0.104439 -0.989218 -0.0986092 0.108276
0.526679 -0.224852 0.0162879 0.996136 0.0139567 -0.086712
-0.196641 -0.149705 0.1612 0.987898 0.110586 -0.108756
-0.212492 -0.0315609 0.129132 0.988789 -0.0849291 0.122812
0.222146 0.131996 0.0541968 -0.964065 -0.187075 0.188631
-0.0870652 0.190702 -0.0450331 0.497631 -0.867229 -0.016652
0.499224 0.148194 0.0647135 0.974716 0.191331 -0.115417
-0.341187 -0.313834 0.169508 0.438667 -0.859781 -0.261434
-0.49736 -0.186977 -0.0287834 -0.926038 -0.293266 0.23759
0.361577 -0.080313 0.109601 0.0645653 0.0722071 0.995298
-0.382868 -0.194693 0.192755 0.00479885 0.195102 0.980771
0.329783 -0.0565123 -0.0239406 0.999074 -0.04284 -0.00399288
0.232572 0.0285956 0.101634 -0.999705 0.00398989 0.0239463
-0.440773 0.0124503 0.0568085 0.900713 0.342499 -0.267227
0.522287 -0.139482 0.0398354 0.975077 0.144139 -0.168666
-0.206622 -0.0279772 0.114427 0.841037 0.452814 -0.296002
0.227886 0.0154214 -0.0251283 -0.173893 0.090151 -0.980629
0.452699 -0.0694323 -0.00325804 -0.994975 0.058479 0.081265
0.500053 -0.235296 -0.120071 -0.0847583 -0.976891 0.196215
