ply
format ascii 1.0
comment Created by Open3D
element vertex 512
property double x
property double y
property double z
property double nx
property double ny
property double nz
end_header
-0.0725149 -0.233479 0.0344616 -0.249563 0.869018 -0.427231
0.1327 -0.323893 -0.0193576 -0.136816 -0.950053 -0.280501
-0.0227293 0.00272265 0.1083 -0.804308 -0.412622 -0.427588
0.0654525 -0.0305471 0.294089 0.80438 0.41885 0.421352
-0.0864827 0.398637 0.173625 0.641427 0.550945 0.533883
0.0122323 0.016541 0.0280966 -0.746494 -0.425345 -0.511692
-0.0700079 0.249983 -0.150159 -0.605178 0.335651 0.721871
0.129887 0.343059 -0.182541 0.774064 0.531936 0.34332
-0.00459499 -0.00894412 -0.229123 -0.445664 -0.149232 0.882674
-0.187425 0.336696 0.296901 -0.96864 0.240407 0.0627793
-0.104351 0.44733 0.162971 0.489734 -0.151273 -0.858648
-0.0448004 0.259902 0.0452951 -0.458461 0.888655 0.0103244
0.279034 -0.0878238 -0.309015 -0.137571 -0.46585 -0.874104
0.0145685 -0.211119 -0.0101428 -0.383004 0.915473 -0.12336
-0.0830589 -0.165556 0.222846 0.536857 -0.784114 -0.311367
0.155336 -0.037417 -0.134418 -0.516439 0.24299 0.821125
0.203736 0.0484144 -0.180083 0.149111 0.523472 -0.838894
0.347496 -0.153623 -0.263677 -0.280262 -0.409572 0.868161
0.0248305 0.277285 -0.271472 -0.6239 0.344404 -0.701523
-0.0127768 -0.0456692 0.146928 0.796898 0.412695 0.441177
0.282138 -0.198805 0.0474331 0.46094 0.216035 -0.860734
-0.169549 0.231299 0.243244 -0.0377203 -0.720903 0.692009
-0.0266506 -0.224222 0.120737 0.0964568 -0.804831 0.585614
0.113814 -0.339047 0.100244 -0.199885 -0.97445 -0.102438
-0.0347331 -0.03401 -0.288977 -0.195376 -0.133781 -0.971561
-0.248092 0.177351 0.0713099 -0.956879 0.287053 0.0445343
-0.0560373 -0.191707 0.158573 0.0487995 -0.733964 0.677432
-0.0305068 -0.235798 -0.000131617 -0.357902 0.911242 -0.203823
0.213298 -0.36538 0.220483 -0.543027 0.73975 0.397357
0.0651992 0.210307 -0.221029 0.584283 -0.653859 -0.48071
0.0821455 -0.232978 -0.0785844 0.593493 -0.749754 -0.292634
0.165227 0.0276131 -0.205104 0.0174347 0.69691 -0.716946
0.161692 0.0535738 -0.146423 -0.430394 -0.0995286 0.897137
0.071343 0.215362 -0.0587797 0.0395383 -0.813776 0.579832
0.138564 0.118673 -0.187123 0.328153 0.315908 -0.890235
0.334687 -0.0569826 -0.328884 -0.0468231 -0.461664 -0.885818
-0.0242216 0.265646 -0.121458 -0.544359 0.266011 0.795557
0.162833 -0.144878 0.0440675 -0.5132 0.857909 0.0248567
0.332465 -0.115546 -0.299051 -0.0520565 -0.484426 -0.873282
0.028474 -0.293702 0.0783099 -0.530325 0.266394 0.804854
-0.206312 0.13254 0.14227 -0.166415 -0.562871 0.809619
-0.173283 0.34766 0.345522 -0.963733 0.256651 0.0731352
-0.236378 0.227047 0.0816801 -0.924509 0.330247 -0.190315
-0.00295933 0.227855 0.187801 0.809463 0.399792 0.430041
-0.0290384 0.31284 -0.143672 -0.541795 0.243299 0.804527
-0.124062 0.49138 0.133587 -0.5054 0.842647 0.185787
0.407339 -0.0610034 -0.325118 0.481657 -0.186019 -0.85639
0.255192 -0.115661 -0.0422588 0.633812 -0.6207 -0.461535
0.157016 0.000523031 -0.257902 -0.332436 0.914246 -0.231603
-0.106745 -0.0853233 0.40586 -0.797526 -0.424639 0.428525
-0.0724381 0.146671 -0.0328624 0.389702 -0.91873 0.0637834
0.0961371 -0.200356 -0.130732 0.581195 -0.694543 -0.424055
0.238432 0.0897369 -0.154464 0.382235 0.179958 -0.906373
0.224851 -0.124598 -0.279643 -0.0648594 -0.516794 -0.85365
0.073214 0.116718 -0.209058 0.253072 0.430352 -0.866459
-0.150945 0.439561 0.24281 -0.567586 0.74429 0.351964
-0.216289 0.015025 0.159637 -0.523936 0.155037 0.837528
0.263075 0.000157717 -0.0952342 0.753257 0.379731 0.537036
0.0359117 0.29096 -0.0843568 -0.577947 0.237936 0.780617
-0.0690288 -0.00730325 -0.255085 -0.342716 -0.254212 0.90439
0.24541 -0.16661 0.0938313 0.796182 0.391457 0.461363
-0.169418 0.391787 0.291194 -0.95563 0.28805 0.061633
0.0127317 0.259747 0.12639 0.844334 0.315385 0.433165
-0.097569 0.226147 -0.0324018 -0.395032 0.905851 -0.152916
-0.12583 -0.0853986 0.358632 -0.822012 -0.387419 0.417377
0.142455 0.329816 -0.312426 0.384798 -0.902306 0.194359
-0.224775 0.0845826 0.120426 -0.521135 0.117301 0.845375
-0.216202 0.256984 0.0510352 0.0588203 0.524902 -0.849128
0.0925081 -0.0861253 -0.00985649 0.800888 0.422473 0.424377
0.159532 0.228249 -0.120669 0.80303 0.393648 0.44742
-0.0917438 -0.136279 0.371131 -0.75242 -0.502664 0.425668
0.0416821 0.247927 0.0651918 0.360075 -0.927912 0.0965652
0.251855 -0.237215 0.0262762 0.349044 0.263724 -0.899232
0.237274 0.0484444 -0.106084 -0.504297 0.0352708 0.86281
-0.0647793 -0.284301 -0.00230235 -0.806516 -0.421808 -0.414258
-0.158797 0.204754 0.431287 0.599491 -0.343814 -0.722774
-0.179505 0.191799 0.0160061 -0.217852 0.876437 -0.429417
-0.171323 0.137121 -0.080974 0.379337 -0.912341 0.154068
-0.0838586 0.126789 0.141055 0.586041 -0.576159 -0.569734
0.352728 0.0696062 -0.333758 -0.574421 0.720485 0.388513
0.0822456 -0.0483506 -0.181141 -0.560898 0.220112 0.798087
-0.0280378 -0.209088 0.0594427 -0.171354 0.871531 -0.459425
0.00151294 0.0132178 0.380508 0.752911 0.441478 0.48808
0.211799 0.349267 -0.332174 0.774813 0.360381 0.519414
0.181137 -0.112537 -0.133977 0.59647 -0.492328 -0.633906
0.000187647 0.491806 -0.1197 0.1998 -0.868882 0.452907
-0.0270862 0.260438 -0.249216 -0.575473 0.330412 -0.748103
0.0127427 -0.181206 0.0911539 -0.173902 0.854083 -0.490205
-0.0980946 0.319531 0.269664 0.844579 0.298404 0.444569
0.0814586 0.290405 -0.0406458 -0.502999 0.830612 0.238906
-0.23254 0.124322 -0.0755768 -0.800551 -0.412331 -0.434858
-0.0698886 -0.100085 0.445677 -0.73526 -0.521752 0.432629
-0.0227515 -0.0774105 -0.276348 -0.818008 -0.443955 -0.365742
0.00866971 -0.303925 0.00372016 -0.271247 -0.95592 -0.112438
0.0169958 0.234675 0.0114214 0.265939 -0.941933 0.205032
0.280119 -0.380343 0.226899 0.799913 0.419295 0.429337
0.216893 -0.0842537 -0.304593 -0.0423656 -0.404992 -0.913338
-0.216344 0.152058 -0.120644 -0.862249 0.424959 -0.275567
0.18603 0.173733 -0.125409 0.807706 0.402573 0.430752
-0.00998616 -0.157618 -0.221354 -0.823877 -0.388714 -0.412466
-0.116862 -0.0257733 0.434267 -0.845068 -0.348149 0.405773
-0.0537444 0.525837 -0.0103159 -0.367573 0.922011 -0.121593
0.174648 -0.225932 0.00194041 0.465485 0.0811323 -0.881329
0.236197 -0.3564 0.0396681 -0.201624 -0.96364 -0.175343
0.0519297 -0.13687 -0.264513 -0.0648845 -0.496787 -0.865444
0.13554 0.183252 -0.152138 0.246306 0.485244 -0.838971
0.0516372 -0.15976 0.435123 0.534629 -0.793268 -0.291372
-0.121247 0.217395 0.0133804 -0.321657 0.94617 -0.0360383
-0.0158896 -0.28795 -0.0535763 -0.339766 -0.887702 -0.310716
0.372243 -0.0747683 -0.234579 0.809095 0.412401 0.418677
-0.178234 0.0471955 0.111674 0.572329 -0.324147 -0.753239
0.147266 -0.0853054 -0.297232 -0.0056993 -0.413147 -0.910647
-0.0363798 -0.255527 -0.0825972 -0.785071 -0.388921 -0.482084
0.0767811 0.410606 -0.25455 -0.510286 0.329746 -0.794277
0.0881733 0.196128 -0.176308 0.536511 -0.416375 -0.734022
0.189503 0.113431 -0.172294 0.359604 0.259862 -0.89619
-0.118966 -0.194801 0.227629 0.564851 -0.755906 -0.330982
0.116047 -0.270876 0.126269 -0.48967 -0.0142135 0.871792
0.0871309 0.0512072 -0.129615 0.802451 0.415532 0.428259
0.265757 -0.378081 0.118945 -0.168583 -0.956497 -0.238104
0.176862 -0.126432 0.121655 -0.359399 0.905399 -0.22602
-0.123636 0.163954 0.179226 -0.139889 -0.521767 0.84154
0.277076 -0.112815 -0.200777 0.211348 -0.80948 0.547791
-0.0246824 0.039162 0.0674437 -0.897964 -0.174255 -0.404099
0.191106 -0.366306 0.173991 -0.201203 -0.978291 -0.0496425
0.275463 0.0242041 -0.148819 0.803154 0.391638 0.448959
0.0387788 -0.0602053 0.376024 0.806174 0.413449 0.423253
0.380599 -0.355452 0.0172659 0.802814 0.354902 0.479097
0.170072 -0.115477 -0.19035 0.277632 -0.879634 0.386218
0.0192712 0.039376 0.312174 -0.591161 0.671644 0.446569
0.064509 -0.158625 -0.125205 -0.585034 0.671503 0.454774
0.324962 -0.0157139 -0.194004 0.822936 0.454555 0.340817
-0.143184 0.138535 0.0559375 0.56958 -0.738867 -0.360075
0.130995 0.436003 -0.26646 -0.0151649 0.732592 -0.680499
-0.135342 0.0920083 0.103207 -0.77528 -0.375691 -0.507738
0.0982354 0.43761 -0.205923 0.81183 0.410363 0.415372
0.10601 0.0856726 -0.157975 -0.265066 -0.376847 0.88754
0.0948295 0.317522 -0.0932902 0.80693 0.399311 0.435218
0.0617882 0.381991 -0.105483 -0.555031 0.274854 0.785109
0.180813 -0.173548 -0.0510302 0.603531 -0.709099 -0.364595
0.108344 -0.295405 0.402958 -0.559118 -0.79008 0.251319
0.0798095 0.142868 -0.140343 -0.170233 -0.587613 0.791032
-0.00482652 0.0978492 -0.144507 -0.803319 -0.406403 -0.435332
0.295896 -0.261375 0.082577 0.758915 0.393018 0.519215
-0.0798335 -0.0929459 0.164911 0.303084 0.387448 -0.870646
-0.035618 0.176303 -0.0217239 0.798981 0.390636 0.457201
-0.0421105 0.20898 0.0371621 0.406848 -0.913169 0.0244161
0.138501 -0.115212 0.243286 0.806188 0.400348 0.43564
0.00589601 0.11064 -0.0405001 0.791532 0.376634 0.481273
0.0499157 -0.181065 -0.21432 0.573496 -0.598145 -0.559755
-0.114055 -0.013609 0.171153 -0.750586 -0.523773 -0.402842
-0.0428366 0.00783574 0.323932 -0.434195 0.89872 -0.0614661
0.0107482 0.185643 0.196071 0.764935 0.414369 0.493125
0.399153 -0.128916 -0.232276 0.848277 0.309768 0.4295
0.169504 0.388356 -0.303328 0.829995 0.34042 0.441841
0.0977518 0.0245604 -0.22593 0.502656 -0.0987817 -0.858824
0.0138428 0.101751 0.278241 0.804095 0.413599 0.427044
0.0636078 0.00409296 -0.158387 -0.533448 0.0480271 0.844468
0.0543242 0.0699525 -0.0909356 0.74982 0.42398 0.507948
0.061835 -0.121153 0.361598 0.512712 -0.795246 -0.323588
-0.090333 0.49877 0.0328664 0.365178 -0.926323 0.0925784
0.337692 -0.304632 0.0439357 0.348416 0.264399 -0.899278
0.000628405 0.433516 -0.174519 -0.565485 0.458078 -0.685851
0.173506 -0.351553 0.316784 -0.527596 -0.820178 0.22125
0.258395 -0.0750343 -0.0909683 0.5997 -0.549652 -0.581587
0.125126 -0.0278729 -0.309333 -0.243094 0.933724 -0.2628
0.258254 -0.220973 0.121454 0.788371 0.300091 0.537045
-0.164679 0.277278 0.415089 -0.617012 0.447338 0.647444
0.0538371 -0.0247249 -0.263924 0.0667035 0.600514 -0.796827
-0.272155 0.0668735 0.0960668 -0.488296 0.0315323 0.872108
0.178609 -0.00287069 -0.304878 -0.345921 0.910103 -0.228149
0.0315422 -0.0815702 0.197961 0.181266 0.492928 -0.850978
-0.061664 0.0342655 0.154273 0.726325 0.483433 0.488616
0.15155 -0.131363 -0.0547159 -0.472231 0.823473 0.314467
0.0848384 -0.320616 -0.00719584 -0.0142565 -0.95649 -0.291415
0.385277 -0.020466 -0.301343 0.831239 0.346394 0.434803
-0.118932 0.166667 -0.00436959 0.475438 -0.879192 -0.0313103
-0.168379 0.19752 0.209663 -0.0224426 -0.70099 0.712818
0.023884 -0.162473 0.386346 0.544531 -0.778708 -0.311607
-0.123374 -0.213173 0.067512 0.0414025 0.684063 -0.728247
0.163383 -0.316287 0.169401 -0.562755 0.203401 0.801208
-0.132674 -0.192638 0.154172 0.144253 -0.826423 0.544257
0.134848 -0.181678 -0.104775 0.575129 -0.660483 -0.48269
0.100626 -0.128607 -0.0359641 -0.509171 0.730258 0.455487
0.0349209 -0.110497 0.301423 0.508165 -0.811342 -0.288952
-0.0237593 -0.133731 0.109575 -0.854969 -0.387635 -0.344626
-0.189793 -0.0505651 0.182193 -0.575235 0.355729 0.736588
0.0299699 0.0564591 -0.0413991 -0.759669 -0.499828 -0.416022
0.0290539 0.0501413 -0.162502 -0.818615 -0.335004 -0.466521
0.228406 -0.0799279 -0.137073 0.404552 -0.906002 0.124491
-0.203511 0.307553 0.236798 -0.947703 0.239091 0.211412
0.0899671 -0.141932 0.216355 -0.15528 -0.6691 0.726769
-0.103516 -0.0213972 0.34145 -0.445891 0.894027 -0.0435642
0.00791364 0.370616 -0.222739 -0.563505 0.380147 -0.733451
-0.0586926 0.317412 -0.195577 -0.63387 0.400222 -0.661839
0.177896 -0.319678 0.365923 0.806819 0.409332 0.426017
-0.0626481 0.143511 0.217574 -0.665941 0.506354 0.547839
-0.18432 0.358326 0.232197 -0.937297 0.348461 -0.00699978
0.176974 -0.339788 0.0182949 -0.135428 -0.95946 -0.247174
-0.147719 0.449039 0.130216 0.578445 -0.540968 -0.610536
0.0157273 -0.0148071 0.0700407 0.737187 0.492408 0.462699
-0.0458979 0.0750711 0.105539 0.798721 0.289493 0.527483
0.0422178 -0.120543 -0.185657 -0.533442 0.318466 0.783594
-0.036663 -0.14295 0.462993 -0.603454 -0.625189 0.494957
0.118504 -0.129453 0.144799 -0.114427 0.822775 -0.556729
-0.134238 0.341999 0.312532 0.829972 0.376098 0.411942
-0.0511377 0.501448 -0.0714214 -0.849581 0.397793 -0.346372
0.164024 -0.267945 -0.0147227 0.236952 0.357905 -0.903193
-0.0184548 -0.157818 0.193046 0.0204317 -0.66201 0.749217
-0.270368 -0.00908265 0.115176 -0.803324 -0.494065 -0.33252
-0.171915 0.117026 -0.151621 0.228453 -0.881198 0.413883
0.211629 -0.120082 0.0677871 -0.385041 0.912217 -0.140014
0.0559946 -0.275606 -0.0634505 0.495598 -0.0839134 -0.864489
0.109662 -0.0892133 -0.0869496 -0.626326 0.478926 0.615098
0.272619 -0.322254 0.00744618 0.329741 0.268677 -0.905032
-0.111802 0.508441 0.0797012 -0.471575 0.881229 0.0324295
0.0842417 0.348235 -0.281627 -0.417753 0.288726 -0.861464
0.0402305 -0.17939 0.0356641 -0.802424 -0.446657 -0.395743
0.140486 -0.14824 0.0873641 -0.366921 0.902948 -0.223725
0.0867019 -0.0659035 -0.1262 -0.523377 0.339469 0.781561
0.159137 -0.201519 0.140569 -0.292976 -0.169401 0.940993
-0.109198 -0.140673 0.128237 0.165536 0.561239 -0.810931
0.292522 -0.275028 0.0337544 0.253753 0.297552 -0.920365
-0.0468434 0.26679 0.100642 -0.170344 0.797406 -0.578901
-0.0519503 -0.26181 0.0748557 0.0186353 -0.831769 0.554809
-0.104706 0.0383498 0.510192 -0.424531 -0.114293 0.898171
-0.242311 0.193201 0.0201805 -0.922991 0.373487 -0.0927095
-0.0216327 -0.136495 0.269451 0.573427 -0.724803 -0.381893
-0.163356 0.312606 0.0894544 0.252881 0.446006 -0.858563
0.0297644 -0.140776 0.210268 -0.0803088 -0.663428 0.743918
0.152366 -0.150815 0.191888 0.18769 -0.839683 0.509613
-0.01252 0.263831 -0.0140226 -0.485154 0.862852 -0.141819
0.0575039 -0.0416273 -0.0094464 -0.771675 -0.484683 -0.411825
0.324101 -0.353597 0.00987409 -0.122239 0.798623 -0.589287
-0.197636 0.117505 0.0203991 0.498044 -0.841631 -0.20883
-0.125615 0.109972 -0.176218 0.133122 -0.83299 0.537034
-0.0643781 -0.000635348 0.38085 -0.481003 0.876246 -0.0287952
-0.0729171 -0.177099 0.271524 0.45764 -0.847726 -0.26819
0.238591 -0.139261 -0.233183 -0.00798376 -0.755564 0.655026
-0.0664464 0.00993048 0.502715 0.819949 0.38448 0.424098
0.0655336 0.475004 -0.211306 -0.166574 0.831737 -0.52959
-0.083286 0.117487 0.084674 0.50669 -0.81216 -0.289243
0.038713 0.34468 -0.256652 -0.622524 0.381277 -0.683441
0.403798 -0.118652 -0.30282 -0.138578 -0.619976 -0.772286
0.0213427 0.119228 -0.0884756 -0.855063 -0.394148 -0.33692
-0.192788 0.265879 0.282153 0.0621098 -0.746471 0.662513
-0.116416 0.294397 0.311184 0.0237427 -0.72783 0.685347
0.00608562 0.212766 0.144244 0.558141 -0.725069 -0.403427
0.0901169 -0.243304 0.439807 0.0444994 0.668302 -0.742558
0.0452017 0.06907 -0.242633 0.244294 0.403436 -0.881794
-0.183607 0.0883404 0.0776898 0.630415 -0.509991 -0.585223
-0.23778 0.202356 0.133403 -0.963204 0.126712 0.237027
0.0332455 0.422198 -0.215183 -0.587286 0.373193 -0.718208
0.377521 -0.333113 -0.0388491 -0.534865 0.818514 0.209651
0.292768 -0.347672 0.178668 0.765358 0.300642 0.56907
0.347267 -0.0262845 -0.23846 0.874672 0.390702 0.286882
-0.107083 0.0779348 -0.215379 -0.0564779 -0.683615 0.727654
-0.0153002 0.038825 0.220837 0.485982 -0.0121913 -0.873884
-0.00231705 0.0922149 0.228532 0.532676 -0.172407 -0.828572
-0.032628 0.18303 0.133163 0.595672 -0.662021 -0.454866
0.0359459 -0.177883 0.176113 0.0133933 -0.755188 0.655371
0.09239 0.248413 -0.0160299 0.804585 0.417462 0.422337
0.163546 0.306607 -0.21004 0.774057 0.493256 0.396906
-0.208712 0.28768 0.109153 -0.921887 0.374649 -0.0988086
0.270379 -0.134777 0.00854764 0.54154 -0.800346 -0.257257
0.0731259 -0.195702 0.147228 0.186096 -0.856105 0.482133
-0.0471692 0.350269 0.141891 0.271406 0.32804 -0.904836
0.21721 -0.111381 0.018872 -0.488517 0.872409 0.0159246
-0.0254956 0.300057 0.129033 0.221846 0.432623 -0.873854
0.0962001 -0.0493399 -0.0439664 0.687799 0.578841 0.438035
-0.0302629 0.141848 -0.129854 -0.773508 -0.368202 -0.515862
-0.0622322 0.0389622 -0.281097 -0.295647 0.0606198 -0.953372
0.237601 -0.362488 0.290054 0.802211 0.427222 0.41706
-0.0434966 0.0709721 0.198738 0.573291 -0.248285 -0.780828
-0.117654 0.194699 -0.212744 -0.600807 0.389174 -0.698265
-0.144223 0.181545 -0.158704 -0.502022 0.852004 0.148538
0.170369 -0.135884 -0.0057282 -0.554965 0.801942 0.22114
-0.157565 -0.121491 0.126402 0.380392 0.307342 -0.872263
-0.0749997 0.244134 -0.22279 -0.480053 0.363644 -0.798318
-0.0208769 -0.113103 -0.245391 -0.76422 -0.324296 -0.557494
0.302581 0.0440475 -0.285942 -0.27885 0.909436 -0.308494
0.0553581 -0.12471 0.16545 -0.0411286 0.763657 -0.644311
0.16915 -0.0941527 -0.0899633 -0.594951 0.573882 0.562755
0.329796 0.0243472 -0.238307 0.765886 0.435326 0.473191
-0.167664 -0.187245 0.0946365 -0.806198 -0.389636 -0.445229
0.12271 -0.337588 0.0493553 -0.208644 -0.967424 -0.143381
0.0561657 0.283217 0.020973 0.824136 0.346138 0.448316
0.275008 0.0274199 -0.32867 -0.31379 0.915337 -0.252375
0.251508 -0.334212 0.231618 -0.647582 0.558805 0.518049
-0.158833 0.016513 0.195311 -0.473839 -0.0513805 0.879111
0.120578 -0.249924 -0.0277867 0.605367 -0.0845949 -0.791438
-0.167903 0.186733 -0.0970564 -0.330191 0.908244 -0.257034
0.0368401 -0.22184 0.446049 -0.595173 -0.716493 0.363879
-0.165135 0.142881 -0.0333223 0.425895 -0.904731 -0.00864938
0.0333706 0.0461921 0.251688 0.45277 0.0498037 -0.890236
-0.0300637 0.131279 -0.239786 0.563747 -0.194113 -0.802813
0.126038 0.248948 -0.0778417 0.810165 0.436436 0.391352
0.0150967 0.106571 -0.234849 0.264041 0.374848 -0.888691
-0.030468 0.127726 0.00514978 -0.850745 -0.385216 -0.35755
0.252954 -0.0437214 -0.326972 -0.0922754 -0.33508 -0.93766
0.0304206 -0.165521 -0.158164 -0.600142 0.601017 0.527833
0.0463139 -0.061424 0.0521249 0.809457 0.408204 0.422076
0.318948 -0.388133 0.159981 0.378048 -0.90852 0.177962
-0.0790812 0.221207 -0.0823262 -0.217744 0.906581 -0.361523
-0.260561 0.13118 0.0918926 -0.922788 0.376102 0.0837196
0.279581 -0.137399 -0.274841 -0.0520028 -0.571867 -0.818696
-0.125742 0.140286 -0.230861 -0.599841 0.358252 -0.715434
-0.122597 -0.0384249 0.277777 -0.39517 0.915035 -0.0809406
-0.117085 0.200888 -0.112233 -0.226025 0.880584 -0.416515
-0.0291317 0.375379 -0.174829 -0.566212 0.347042 0.74764
0.264091 -0.268399 0.156189 0.78271 0.458636 0.420735
0.310164 -0.0846964 -0.162838 0.0251205 -0.760541 0.648804
-0.0316598 0.0816642 -0.253493 0.182077 0.485015 -0.855341
0.166404 -0.348965 0.0764712 -0.0551691 -0.992266 -0.111199
0.354407 0.111589 -0.36328 0.794219 0.473878 0.380336
-0.0204088 0.147378 0.25376 -0.470166 0.207834 0.857758
0.0653678 -0.325672 0.0869226 -0.319873 -0.94607 0.0513156
0.0990888 -0.170573 0.0565653 0.790698 0.400441 0.463081
0.252961 -0.0532285 -0.034067 -0.599216 0.601556 0.528272
-0.228854 0.169173 0.176044 0.0119796 -0.733464 0.679622
-0.0639834 0.248956 0.260605 -0.165156 -0.643837 0.747126
0.00904291 -0.0376288 0.417683 0.803276 0.407008 0.434847
0.222426 -0.109775 -0.185939 -0.0664703 -0.780149 0.622052
-0.159192 0.147486 -0.196042 -0.525708 0.443466 -0.725926
-0.0761765 0.308431 0.119347 0.257018 0.412262 -0.874061
0.0348747 0.0131962 -0.207451 -0.25023 -0.274754 0.928383
-0.115543 -0.263075 0.0644246 -0.800711 -0.420873 -0.426295
0.0684624 -0.0521519 -0.301942 -0.131556 -0.284368 -0.949646
0.193595 -0.315357 -0.0188762 0.352232 0.260795 -0.898843
0.077728 -0.119922 -0.155184 -0.60791 0.380275 0.697019
-0.128777 0.386577 0.264774 0.797456 0.421942 0.43131
-0.119673 0.160862 -0.065821 0.32469 -0.904434 0.276724
0.0242168 0.212466 -0.268791 0.571112 -0.540075 -0.618183
0.0312111 -0.170865 0.488642 0.775359 0.372605 0.509886
0.0145067 -0.0630066 0.0997809 -0.795391 -0.446427 -0.409947
-0.0226045 -0.0164289 0.456538 0.76718 0.37845 0.51789
-0.159471 -0.0496631 0.328062 -0.435955 0.899964 0.00296997
-0.087936 0.0770172 0.170491 0.773342 0.480373 0.413744
-0.0295004 -0.0623716 0.194438 0.802617 0.425972 0.417557
0.15176 0.130738 -0.125311 -0.285848 -0.391798 0.87452
0.171268 -0.142626 -0.266377 -0.0742959 -0.467885 -0.880661
0.0503177 -0.315542 0.0286434 -0.231715 -0.962415 -0.141652
-0.058479 0.114722 -0.170328 -0.021909 -0.705979 0.707894
0.0178307 0.390297 -0.135243 -0.56305 0.336303 0.754901
0.0588289 -0.207522 -0.167135 0.594034 -0.62517 -0.506248
0.265048 0.0438718 -0.252421 -0.409682 0.906739 -0.0999268
0.0320242 -0.052575 -0.213712 -0.499685 0.0485423 0.864846
-0.0741927 0.174336 0.0886648 0.56879 -0.651863 -0.501549
-0.0563699 -0.142427 0.415817 -0.684575 -0.618209 0.386232
0.0872452 -0.0756648 0.284243 0.302859 -0.922401 0.239692
0.10801 0.352954 -0.140755 0.776754 0.395838 0.489863
-0.0902269 -0.0247905 0.47889 -0.713924 -0.513654 0.47589
0.296679 0.0485435 -0.203087 0.751818 0.500748 0.428977
0.0698505 0.429875 -0.14679 0.875606 0.276431 0.396106
0.156425 0.361851 -0.249687 0.800512 0.404235 0.442465
-0.00880173 0.0525482 -0.209139 -0.254217 -0.408024 0.876864
-0.208183 0.285523 0.169494 -0.94941 0.245676 0.195612
-0.0573161 0.00379994 0.437171 -0.507849 0.860291 0.0445994
0.395203 -0.0712136 -0.279153 0.80099 0.401208 0.44435
-0.086518 0.0853361 -0.264402 0.337738 0.258014 -0.905186
-0.113748 -0.230086 0.118997 -0.00955816 -0.730095 0.683279
0.400826 -0.280278 -0.152009 -0.0542999 -0.793081 -0.60669
-0.13727 0.470739 0.184936 -0.52106 0.833816 0.182339
0.101465 -0.020779 -0.258276 -0.237699 0.889901 -0.389326
0.0831072 -0.0925651 0.198127 0.0907203 0.62902 -0.772077
0.0574053 -0.0118919 0.245245 0.224844 0.435535 -0.871639
-0.193866 -0.119025 0.197204 -0.720594 -0.555961 0.414308
0.0426986 -0.203705 -0.0552613 -0.441663 0.897168 -0.00479039
-0.0563511 0.0957894 0.244953 -0.541428 0.339163 0.769301
0.0798936 -0.159877 0.114532 -0.247524 0.860521 -0.445236
0.225696 -0.221916 0.184084 0.803721 0.4079 0.433186
0.363718 -0.0129506 -0.349311 -0.0743322 -0.39584 -0.915306
0.421847 -0.177365 -0.255552 0.609846 -0.487921 -0.624517
0.176535 -0.267811 0.161143 -0.596531 0.245849 0.764008
0.388983 -0.307786 -0.0935072 -0.555155 0.763842 0.329163
0.228215 0.284686 -0.349877 -0.168452 -0.52132 0.83657
-0.182822 -0.170804 0.154 -0.770239 -0.429342 0.47159
0.00335139 -0.253395 0.0702017 -0.200578 -0.696525 0.688928
-0.0697989 -0.0255146 0.146861 0.407746 0.160138 -0.898943
-0.0207451 -0.226918 -0.129199 -0.516255 0.815544 0.261475
-0.000529349 0.020378 -0.27283 0.400157 0.225118 -0.888367
0.121774 0.23532 -0.178988 0.515056 -0.524425 -0.678009
-0.0268531 0.194746 -0.270627 -0.375347 0.230523 -0.89776
0.223302 0.00578413 -0.335779 -0.35495 0.912559 -0.203092
0.126334 -0.128356 -0.269279 0.0703019 -0.541738 -0.837602
-0.226532 0.1084 -0.0259642 0.456919 -0.882793 -0.109093
0.0726195 0.00860511 -0.0759248 -0.794508 -0.33297 -0.507827
-0.0595913 -0.000787161 0.190449 0.77936 0.430895 0.454893
0.357465 0.0272736 -0.30085 0.80538 0.421969 0.416298
0.305409 -0.0263527 -0.153098 0.749978 0.49715 0.436319
-0.0313509 0.147203 0.179009 0.621711 -0.401784 -0.672343
0.21224 0.0169964 -0.263803 -0.33413 0.904916 -0.263598
0.385393 0.0319997 -0.359194 0.569669 -0.122045 -0.812762
0.220051 -0.184374 0.155751 0.751562 0.475042 0.4577
0.117949 0.38573 -0.286268 -0.574948 0.225872 -0.786395
-0.152085 -0.0961883 0.302607 -0.841505 -0.322106 0.433724
0.0324624 -0.0852286 -0.284229 -0.130487 -0.48045 -0.867261
0.0237429 -0.202821 -0.102989 -0.544518 0.766044 0.341579
-0.0713033 0.327886 0.221252 0.81295 0.412503 0.41104
-0.126515 0.079879 0.481533 0.474273 0.00491898 -0.880364
0.0389755 0.187589 -0.0945555 0.0507271 -0.770584 0.635317
0.125 -0.149335 -0.16561 0.540159 -0.650701 -0.533682
0.00592394 -0.0957479 0.139352 0.0678891 0.658177 -0.749796
-0.123104 0.112438 0.191926 -0.574927 0.32041 0.752859
-0.137951 -0.0566329 0.152656 0.541632 0.0899994 -0.835784
-0.0639158 -0.193066 0.0899593 -0.0181556 0.768527 -0.63956
-0.00773653 0.178075 -0.0636464 0.862157 0.421979 0.28039
0.228267 -0.282463 0.00761135 0.320387 0.310146 -0.895077
-0.0887044 -0.0131997 0.248484 -0.61578 0.484375 0.621446
-0.14528 0.30897 0.358418 0.511425 -0.84913 -0.131997
0.14035 -0.202827 -0.0535188 0.502926 -0.797719 -0.33273
-0.182905 0.35244 0.146325 -0.952434 0.301877 0.0417104
-0.02741 -0.298443 0.0416121 -0.250925 -0.967505 -0.0311571
0.00547458 -0.27373 -0.10347 0.573185 -0.770993 -0.277541
-0.139272 -0.147725 0.262044 -0.800837 -0.48328 0.353695
-0.0703133 0.149667 0.0358612 0.517042 -0.794645 -0.31813
0.0668368 -0.166661 -0.0247434 -0.808325 -0.416966 -0.415633
0.0427669 -0.112389 0.418982 0.821754 0.375727 0.428426
0.244506 -0.379991 0.177819 -0.139934 -0.989796 -0.026875
-0.11839 0.069434 0.216841 -0.540135 0.349011 0.765797
-0.116311 0.146167 -0.116081 0.184248 -0.897541 0.40059
0.0917203 -0.156289 -0.0773589 -0.745211 -0.442641 -0.498728
-0.076224 0.0510003 -0.229406 -0.272292 -0.473601 0.837592
-0.18512 0.305541 0.332949 -0.962963 0.117877 0.242502
0.00510327 -0.00712447 0.22137 0.35037 0.347087 -0.869926
0.0719858 -0.242516 0.0933649 -0.440222 -0.137542 0.887292
0.200323 -0.138222 -0.0891686 0.540857 -0.788225 -0.293558
0.0195623 -0.233972 -0.177766 -0.0273252 -0.852273 -0.522383
-0.0610501 -0.19298 0.336487 -0.751907 -0.517343 0.408647
-0.0635133 -0.0513171 0.510275 -0.803781 -0.413427 0.4278
-0.0414816 0.266671 0.222827 0.757867 0.360898 0.543499
0.109168 -0.168814 0.175702 0.0993091 -0.829374 0.549796
0.105296 0.0803128 -0.217216 0.466061 0.198056 -0.8623
0.0487826 0.496229 -0.165681 0.7629 0.460239 0.454053
-0.113301 0.351473 0.125703 0.180843 0.470715 -0.863553
0.129533 -0.149941 -0.222907 0.218276 -0.850794 0.478022
-0.0250058 -0.103766 0.516384 -0.301984 -0.344819 0.888766
0.209084 -0.36679 0.114966 -0.273436 -0.956107 -0.105315
-0.0405263 0.210703 0.227323 -0.146657 -0.558678 0.816315
-0.160831 0.20163 -0.0337895 -0.444569 0.895241 0.0300335
-0.170744 0.251609 0.0615898 0.297555 0.373032 -0.878811
0.117234 0.289653 -0.252934 0.582855 -0.652358 -0.484468
0.0933945 -0.0882795 -0.290261 -0.0748499 -0.366732 -0.927311
0.000295775 0.315766 -0.238763 -0.52469 0.264635 -0.809116
0.177211 -0.0551846 -0.313743 -0.140291 -0.310727 -0.940089
-0.115584 0.239436 -0.183913 -0.561844 0.407835 -0.719724
0.0434766 -0.116426 0.0985049 -0.869479 -0.365376 -0.332426
0.0619507 -0.103071 0.247981 -0.0868568 -0.695347 0.713406
0.339722 -0.367838 0.115507 0.821354 0.428294 0.376751
0.197625 0.0874078 -0.122419 -0.472642 -0.0897564 0.876672
0.01928 0.218133 -0.0345773 0.25268 -0.868664 0.426117
-0.163498 -0.0146108 0.136529 0.524618 -0.170608 -0.834068
0.0184977 0.179084 -0.224394 0.597682 -0.678921 -0.42643
-0.0702577 0.175163 -0.252796 -0.314882 0.320925 -0.893228
0.126192 -0.0652307 0.224588 0.812076 0.321306 0.487129
-0.0642725 0.15342 -0.0827515 -0.805597 -0.358274 -0.471862
-0.117826 -0.132009 0.322247 -0.683401 -0.572432 0.453083
-0.230727 -0.0447374 0.108029 0.515546 -0.0946052 -0.851624
0.211117 -0.195895 0.0244861 0.374442 0.22579 -0.89934
-0.00216681 0.223874 0.0660261 0.3688 -0.929053 -0.0291042
0.0857261 -0.168654 -0.24458 -0.0551831 -0.761908 0.64533
0.212303 -0.0499292 -0.0870859 -0.632467 0.518947 0.575048
0.346553 -0.103236 -0.201782 0.144266 -0.812082 0.565429
-0.0125481 -0.180607 0.433658 -0.62827 -0.674914 0.386998
-0.166675 0.0936776 0.163454 -0.578068 0.383816 0.720085
0.213165 -0.0887355 -0.0346078 -0.520845 0.752596 0.40289
-0.214221 0.173827 -0.0565182 -0.448534 0.89326 -0.0300736
-0.0108068 0.0728002 0.0227333 0.79362 0.436603 0.423728
-0.248692 0.0685911 0.0211646 0.553098 -0.740402 -0.381952
0.0259133 0.334776 -0.11108 -0.558239 0.288861 0.777771
0.232532 -0.27178 0.202767 -0.545593 0.216934 0.809486
0.16216 -0.357314 0.12497 -0.156261 -0.976801 -0.146434
-0.171987 0.395268 0.187567 -0.981516 0.174957 0.0775652
-0.126075 0.154422 0.479421 0.79612 0.527472 0.296591
0.0971265 -0.293393 -0.0455558 0.266568 0.303833 -0.914673
-0.093517 0.208154 0.215429 -0.00987418 -0.712439 0.701665
-0.242888 -0.0765283 0.149856 -0.854487 -0.312656 0.414848
0.0737507 -0.111972 0.0436585 0.808285 0.418759 0.413905
0.195942 0.0073253 -0.119745 -0.532462 0.172255 0.828742
-0.162924 -0.157439 0.209869 -0.65655 -0.615044 0.43665
-0.0450999 0.0152354 0.259276 -0.481574 0.384388 0.787612
0.115668 0.18159 -0.103468 -0.109913 -0.619504 0.777261
-0.00325696 -0.227869 -0.0529395 -0.462198 0.884241 0.0670148
-0.185037 -0.0630054 0.265706 -0.450572 0.891375 -0.0493435
0.0129952 -0.211504 0.142794 0.087078 -0.801426 0.591721
-0.223106 0.249027 0.146308 -0.947058 0.318803 0.0380158
0.36548 -0.369311 0.06308 0.788576 0.443056 0.426438
0.00205922 0.251678 -0.0695493 -0.47229 0.876109 -0.096827
0.296732 -0.373276 0.052486 -0.247105 -0.946802 -0.206167
-0.263796 0.130589 0.0365357 -0.904998 0.402928 -0.136484
0.302802 -0.310012 0.131585 0.805456 0.407076 0.430732
0.128296 -0.161806 0.00228854 -0.47335 0.880555 0.0237159
0.14156 0.289672 -0.14556 0.852076 0.416786 0.316632
0.320821 0.0373805 -0.364639 -0.245079 -0.176502 -0.953301
0.309826 0.195103 -0.367776 0.894943 0.347559 0.279786
-0.144965 -0.0489901 0.238489 -0.445692 0.894844 0.0247657
-0.219311 -0.121062 0.131005 -0.846885 -0.433317 -0.308257
-0.126636 0.0344806 0.140603 -0.793561 -0.413968 -0.445972
0.145238 -0.0924511 0.191678 -0.17405 0.793252 -0.583487
-0.224715 0.22409 0.194359 -0.965407 0.2391 0.104019
-0.00689407 -0.157036 0.334733 0.494616 -0.858004 -0.13851
0.399448 -0.219094 -0.214726 -0.623334 0.597473 0.50446
0.304851 0.128671 -0.379138 -0.219687 -0.261609 -0.939839
-0.227995 0.0415873 0.0774934 0.557387 -0.423176 -0.714312
0.119553 0.387117 -0.202711 0.775653 0.458746 0.433491
0.0711713 0.26745 -0.283239 0.588361 -0.649343 -0.481856
-0.129989 0.257557 0.2701 -0.120228 -0.718495 0.685062
0.012265 -0.0986415 0.462595 0.877961 0.393397 0.272807
-0.125297 0.247906 0.0776436 0.301339 0.370489 -0.878597
-0.0532405 0.243735 -0.0449249 -0.329063 0.910576 -0.250137
0.273978 0.239406 -0.374539 0.242645 0.478446 -0.843927
0.120015 0.00870413 -0.160788 0.835124 0.407073 0.369944
