ply
format ascii 1.0
comment Created by Open3D
element vertex 512
property double x
property double y
property double z
property double nx
property double ny
property double nz
end_header
-0.0502595 0.209587 0.120579 -0.932583 0.0191567 -0.360446
0.362881 0.0808925 0.160141 0.992249 0.0625513 -0.107371
0.256313 0.0792903 -0.104594 -0.0467218 0.938421 0.342319
0.281681 0.0771787 -0.190813 0.660801 0.208087 -0.721139
0.547002 -0.228794 -0.0200053 0.610652 -0.126932 0.78166
-0.42613 0.0181119 -0.151243 -0.76157 0.0887411 -0.641978
0.174379 -0.426872 -0.109339 -0.00225834 -0.759417 -0.6506
0.201792 0.494902 0.112091 -0.0455391 0.973877 0.222464
-0.0426209 -0.170586 -0.503893 0.516891 0.645762 0.561974
-0.0499 -0.21127 -0.448237 0.306082 0.804966 0.508275
0.269989 -0.291331 -0.303822 0.59053 0.230275 -0.773465
-0.0769948 -0.303698 -0.463795 0.0671663 -0.926676 -0.369811
0.291584 -0.0512088 -0.213442 0.586033 0.313026 -0.747382
-0.403391 -0.385297 -0.192832 0.0454079 -0.973518 -0.224056
0.268286 -0.350511 0.274094 0.712099 -0.0897689 0.696317
0.0942519 0.241245 0.402576 -0.261235 -0.131956 0.956213
0.339324 -0.133245 0.230354 0.699068 -0.231452 0.67656
0.402081 -0.022891 0.163229 -0.73709 -0.203032 -0.644575
0.27153 -0.214944 -0.2789 0.670841 0.167261 -0.722493
-0.363828 -0.396247 -0.110083 0.0466653 -0.976704 -0.209454
0.153549 -0.500282 -0.00405269 -0.193772 -0.819145 -0.539864
-0.344089 -0.404665 0.0405604 -0.597084 -0.288913 0.748345
-0.462292 -0.0357402 -0.122005 -0.782429 0.054475 -0.620353
0.156131 -0.337012 -0.269388 0.0497347 -0.974705 -0.217891
0.199134 -0.437073 0.340488 0.815315 -0.156108 0.557577
-0.373193 0.0121735 0.051542 0.124576 0.984691 0.12192
0.259217 -0.205687 0.314573 0.772035 -0.102126 0.627322
0.285661 -0.1816 0.285125 0.711145 -0.164363 0.683563
-0.142014 -0.366915 -0.205404 0.10209 -0.971285 -0.214903
0.338049 -0.350077 -0.185727 0.0492076 -0.967124 -0.249498
0.00116885 -0.103145 -0.140983 -0.790426 -0.066049 -0.608986
0.315625 -0.377028 0.221913 0.677595 -0.14252 0.721494
0.0968463 0.482359 0.0367989 0.0274133 0.158653 -0.986954
-0.275998 -0.0450097 0.208733 -0.749563 -0.155911 0.64331
0.121837 -0.45047 0.429919 0.786447 -0.11619 0.606632
-0.300195 -0.13629 -0.280919 0.684729 0.0235683 0.728417
0.394413 -0.162791 0.162872 0.775884 -0.0621248 0.627809
0.156158 -0.101965 0.282821 0.556387 0.483346 0.675877
-0.487619 -0.251708 -0.131893 -0.765416 0.13688 -0.62881
-0.0564314 0.140099 0.236009 -0.961913 0.0322833 0.271444
-0.479984 0.013622 -0.093104 -0.720743 0.0629933 -0.690334
-0.0221194 0.178543 0.313625 -0.787797 -0.12797 0.602494
-0.0671869 0.284988 0.222426 -0.993388 0.101716 -0.0532423
0.314744 -0.403055 -0.0893242 0.330365 -0.828843 -0.451528
0.0197148 -0.319542 0.411314 -0.630787 -0.220883 0.743854
-0.130509 0.0707222 -0.166654 0.0157137 0.982449 0.185866
-0.00283298 0.275872 0.358739 -0.69527 -0.166651 0.699162
-0.103169 -0.166425 -0.459215 0.479417 0.621816 0.619277
-0.233078 -0.280897 -0.423112 -0.689898 0.10411 -0.716381
0.194569 -0.0311725 0.375871 -0.0424972 0.97813 0.203605
0.0150606 0.443019 0.338216 -0.0483422 0.975147 0.216222
0.290988 -0.47096 0.176162 0.330698 -0.940963 0.0722981
0.34029 0.379277 0.272953 0.940677 -0.173636 0.291509
0.53266 0.0415732 0.0289457 0.598753 0.288958 -0.746993
0.445905 -0.311353 -0.144342 0.64429 0.213422 -0.734399
-0.0245648 -0.245454 -0.346379 -0.254435 0.929322 0.267628
-0.00773815 -0.177815 0.41486 -0.606267 -0.251901 0.754312
0.000931507 0.10337 -0.443053 0.70244 0.145792 -0.696651
0.212213 0.491385 0.0494639 0.582196 -0.0264906 -0.812617
0.0828376 0.0827391 -0.171388 0.226903 0.97116 0.0732389
0.213608 -0.072264 0.367723 -0.65946 -0.271469 -0.701011
0.2638 0.194606 0.00485969 0.487047 0.313218 -0.815279
0.0503233 0.45301 0.282689 0.00380115 0.99719 0.0748136
-0.0139411 0.00211567 0.279401 -0.78212 -0.170669 0.5993
0.131218 -0.327653 -0.3094 -0.00818898 -0.955927 -0.293491
0.184853 0.0280049 0.360963 0.148041 -0.203847 0.967745
0.0771606 -0.118381 -0.227068 -0.754545 0.15322 -0.638111
0.362082 -0.430314 0.035338 0.422936 -0.889989 -0.170426
0.346115 0.458768 0.211111 0.991768 0.0475596 -0.118884
-0.296052 -0.0706863 -0.317746 -0.71445 0.0935109 -0.69341
0.148573 0.325688 0.20861 -0.924632 -0.116817 0.362503
0.261781 0.0600852 0.341508 0.411116 -0.169166 0.895749
0.0394411 -0.206789 -0.248322 -0.620594 0.674676 -0.399594
0.376713 -0.0802836 0.135874 -0.222311 0.964597 -0.141885
-0.406568 -0.270579 -0.219317 -0.807497 0.133126 -0.574653
-0.290961 -0.13524 0.165855 -0.568136 -0.371275 0.734423
0.235583 -0.090307 -0.279123 0.675763 0.154752 -0.720692
-0.464412 0.00594578 -0.109022 -0.722027 0.121788 -0.681062
0.215277 -0.434555 -0.0947947 0.141911 -0.807018 -0.573221
-0.165288 -0.175768 -0.397479 0.584587 0.494903 0.642907
-0.325753 -0.334439 0.0136642 -0.233153 0.97242 0.00621516
-0.323094 -0.11646 -0.291172 -0.713214 0.107245 -0.692694
-0.105613 -0.274409 -0.207748 -0.315225 0.948783 0.0210558
0.484465 -0.228077 0.0583892 0.722448 -0.112138 0.682271
-0.166243 -0.118255 0.289274 -0.686815 -0.169365 0.706824
0.312698 -0.153257 0.264459 0.786523 -0.0829011 0.611972
-0.423416 -0.412772 -0.0584608 -0.179394 -0.972486 -0.148624
-0.298455 -0.0255783 -0.305559 -0.740256 0.117341 -0.662006
0.270595 0.222835 0.0163241 0.578955 0.290358 -0.761908
-0.0501324 -0.404112 -0.0166215 0.0539955 -0.973613 -0.221724
0.081483 0.0678316 -0.350776 -0.246176 -0.866845 -0.433563
-0.112391 -0.334411 0.279042 -0.590044 -0.290656 0.753238
0.00614981 -0.228352 -0.44098 0.115697 0.945003 0.305915
0.385531 -0.346001 -0.197673 0.0764433 -0.951843 -0.296903
-0.106718 0.118083 -0.366153 0.13114 0.987707 0.0850694
-0.0601261 0.0991159 0.138666 -0.982325 0.00686212 -0.187057
0.506013 -0.0878376 0.0557279 0.781409 -0.102927 0.615472
0.319018 0.372059 0.326097 0.755982 0.0127524 0.654468
0.121275 -0.305364 -0.425472 0.0418864 -0.980308 -0.192979
0.184588 -0.336193 -0.274406 0.00726011 -0.992094 -0.125287
-0.10283 0.0336814 -0.192327 -0.0934152 -0.949693 -0.298925
0.179582 -0.0807018 0.425711 0.787442 -0.190512 0.586208
0.383333 -0.0439421 -0.133396 0.682846 0.0622418 -0.727906
-0.297467 -0.437151 0.0842627 0.0303424 -0.977055 -0.210814
0.173497 -0.0823651 0.435054 0.676421 -0.131053 0.724762
-0.108445 -0.105592 -0.532966 -0.768513 0.20932 -0.604626
0.0849769 0.456567 0.255765 -0.0585717 0.97128 0.230618
0.317418 0.217712 0.317223 0.775276 -0.0651028 0.628258
0.336828 0.349912 0.303602 0.948131 -0.0640746 0.311356
0.109641 -0.316154 -0.387142 -0.0624945 -0.991402 -0.114966
-0.167644 -0.031714 0.277259 -0.0717409 0.967465 0.242619
0.140661 -0.503977 0.132584 -0.0931015 -0.981277 0.168604
0.496101 0.0506169 0.0169693 -0.196058 -0.924262 -0.327567
0.00252508 -0.0299649 0.328923 -0.129609 0.939109 0.31824
0.0764015 -0.490294 0.0476253 -0.4225 -0.895188 -0.141892
-0.0111487 0.0830542 -0.20783 -0.157425 0.974201 0.161707
-0.085061 -0.430012 0.0992323 0.0101332 -0.977709 -0.20972
-0.196269 0.0233088 -0.24027 0.432914 -0.897732 0.0816232
0.00478957 -0.412155 -0.0709251 -0.772753 0.104849 -0.625987
0.19685 -0.330475 -0.301846 0.0203388 -0.992686 -0.119001
-0.0623174 -0.356845 -0.226961 0.0383736 -0.99905 -0.0206433
0.442017 -0.129952 0.120881 0.75884 -0.0913679 0.644836
0.0992266 0.343137 0.431772 -0.135146 -0.23983 0.961362
0.136092 0.471632 0.213482 -0.0300412 0.992931 0.114825
-0.510015 -0.296706 -0.0690462 -0.628175 -0.196449 0.752863
-0.4153 -0.123931 -0.189271 -0.747425 0.105691 -0.655886
-0.0032571 0.2519 0.045417 -0.689586 0.116874 -0.714711
0.0231247 0.164194 0.0076046 -0.649512 0.150278 -0.745353
-0.0477957 0.0263659 0.211936 -0.930714 -0.164397 0.326717
0.454556 -0.174183 0.096561 0.771154 -0.20724 0.601975
0.200584 0.49302 0.0464261 0.352197 0.214001 -0.911132
0.153911 0.385967 0.21803 -0.771676 -0.166501 0.613835
0.335027 -0.141377 0.239922 0.730374 -0.109428 0.674225
0.0347588 0.196032 0.370146 -0.662248 -0.124592 0.738853
0.0306191 -0.0794094 0.439226 0.658805 -0.695255 0.287396
0.131453 0.482606 0.176815 -0.0422754 0.978991 0.199472
0.283061 0.249612 0.357319 0.692357 -0.187289 0.696824
-0.195813 -0.379109 -0.149435 0.0513544 -0.997781 -0.0423838
-0.392511 -0.405301 -0.076017 -0.0179962 -0.998832 -0.0448424
0.0875076 -0.376327 -0.135631 -0.4276 0.167778 -0.888262
0.0580715 -0.230882 0.466958 -0.655519 -0.220087 0.722396
-0.186485 -0.0817555 0.030607 -0.612976 -0.494 -0.616623
-0.409119 -0.0144259 -0.176633 -0.733125 0.114142 -0.670447
0.283144 0.0917096 -0.174636 -0.0281565 0.977486 0.209114
0.360346 -0.194106 0.203942 0.730598 -0.121739 0.671867
-0.0110287 0.218461 0.337094 -0.734985 -0.0864299 0.672553
-0.0529189 0.0377644 0.195354 -0.976826 -0.0877181 0.195237
0.338147 -0.132496 -0.196516 0.735591 0.0632597 -0.674465
-0.0395232 0.0612561 -0.301321 -0.00871648 -0.980117 -0.19823
-0.0792746 -0.336704 0.316354 -0.720269 -0.104276 0.685813
-0.302243 -0.180462 -0.269992 0.666583 0.234981 0.707426
-0.0075515 0.178199 0.0384445 -0.712826 0.0978702 -0.694479
-0.109974 0.0501642 -0.261706 0.128246 -0.98923 -0.0705427
-0.0330203 -0.35402 -0.224752 0.161706 -0.958535 -0.234654
-0.0402907 -0.253015 -0.288893 -0.166318 0.986036 -0.00838837
0.236417 0.274208 0.393605 0.384045 -0.158545 0.9096
-0.0183152 -0.29304 -0.516442 0.0616679 -0.95251 -0.298198
0.225752 -0.0656474 0.374531 0.762457 -0.136981 0.632373
0.33056 0.435911 0.153759 0.886288 0.171338 -0.430276
0.0836483 0.446683 0.315374 -0.113195 0.966385 0.230839
0.361963 -0.319523 0.183578 0.810063 -0.0974409 0.57819
0.497445 -0.138807 0.0531365 0.682176 -0.207105 0.701244
0.219066 0.457002 0.298794 -0.0429659 0.926844 0.37298
-0.212598 -0.449306 0.14914 0.0768927 -0.970544 -0.228326
-0.168565 0.00838795 -0.10839 -0.154435 -0.918054 -0.36514
0.271172 -0.354252 -0.174684 0.0595442 -0.973806 -0.219445
0.346877 0.109729 0.0855496 0.842097 0.268731 -0.467607
-0.358049 -0.111578 -0.253712 -0.706945 0.0748027 -0.703301
0.0613247 0.265884 0.39995 -0.401582 -0.177557 0.898446
-0.301842 -0.247515 -0.220282 0.503487 0.661987 0.555224
0.251179 0.356278 0.0344066 0.537883 0.162354 -0.827238
-0.185449 -0.19031 -0.366128 0.584905 0.50661 0.633429
0.168272 -0.333617 0.393021 0.676919 -0.0873738 0.730854
-0.00274578 -0.416476 0.360062 -0.579149 -0.290121 0.76185
0.151455 0.0145898 0.35842 -0.00191901 -0.214524 0.976717
0.464515 0.0161746 0.0822645 -0.516488 -0.589187 -0.621369
-0.42565 -0.203082 -0.140427 0.691596 0.186116 0.697894
0.337352 0.0747104 0.262708 0.898736 0.0204374 0.438013
0.127205 0.336797 0.224063 0.777837 0.165365 -0.60632
-0.253279 -0.317193 -0.0948412 -0.111672 0.989156 0.0953882
0.0880616 -0.358307 -0.180652 0.0546931 -0.974184 -0.219032
-0.21831 -0.199156 -0.419633 -0.656662 0.14572 -0.739974
-0.291412 -0.250673 -0.349367 -0.756251 0.110438 -0.644894
-0.0495606 0.0627652 0.104443 -0.942313 0.0916046 -0.321955
-0.514846 0.000747957 -0.00104007 -0.650142 -0.242042 0.72023
0.50452 -0.049216 -0.0232782 0.591612 0.318434 -0.740672
-0.15742 -0.0371676 -0.419468 0.765626 -0.30293 0.567495
0.353076 0.189512 0.205757 0.971912 -0.201987 0.120779
0.250499 -0.16854 -0.284262 0.668697 0.167649 -0.724389
0.261311 0.495739 0.135635 -0.0590731 0.945835 0.319229
-0.331622 -0.332802 -0.0399166 0.0554967 0.986333 0.155139
-0.0386693 0.000900924 0.234188 -0.909761 -0.141899 0.390127
-0.0316189 0.421654 0.369042 -0.798424 -0.11611 0.590794
0.0447898 0.0966865 -0.229953 -0.0464504 0.976912 0.208531
0.238404 -0.0554654 -0.266673 0.663932 0.190209 -0.723198
-0.174194 0.00408558 -0.0919321 0.0588199 -0.834902 -0.547247
-0.221747 0.014641 0.0503822 -0.0701415 0.985957 0.151552
0.119532 -0.49989 0.0263787 -0.370761 -0.908534 -0.192622
-0.0441201 0.477931 0.129894 -0.818691 0.0808713 -0.56851
0.315633 -0.0189017 0.278094 0.846569 -0.101203 0.52257
-0.398879 -0.146569 -0.169293 0.739736 -0.0906696 0.666761
0.124417 -0.48744 -0.0159701 -0.173203 -0.866031 -0.469032
-0.137957 -0.174172 -0.516205 -0.763359 0.120705 -0.634596
0.507816 -0.0441927 -0.0120187 -0.253856 0.966626 0.0345125
0.510796 0.063851 0.0178816 -0.00838312 0.988618 0.150212
0.319719 0.409838 0.118795 0.848589 0.143825 -0.509127
0.461865 -0.056736 0.0226556 -0.0976299 0.967291 0.234128
-0.228447 0.0278545 0.00082271 -0.042879 0.968997 0.243325
-0.0560197 0.0731982 0.186456 -0.996043 -0.025128 0.0852441
0.254918 0.0974431 -0.212399 0.608461 0.327391 -0.722904
-0.0691836 -0.0763876 -0.537085 0.750725 0.0572647 0.658128
-0.0910822 -0.350702 -0.24692 0.0958017 -0.961872 -0.256174
0.349045 0.299155 0.171538 0.860947 0.456929 -0.223576
-0.165923 -0.264236 -0.0238597 -0.632464 0.672817 -0.383805
-0.437304 -0.0709613 -0.067635 0.674869 -0.665019 0.319847
-0.271527 0.017227 0.0426788 -0.0790007 0.961212 0.264255
0.441631 -0.174217 -0.110304 0.702405 0.102172 -0.704406
0.206709 0.0948739 0.371368 0.353716 -0.215939 0.910085
0.176406 -0.506543 0.117453 0.0517522 -0.978059 0.201796
-0.154558 -0.206241 0.279193 -0.665909 -0.187684 0.722039
-0.0969435 -0.284214 -0.569915 0.0155556 -0.986196 -0.164851
0.212216 -0.235552 0.365602 0.726081 -0.0893755 0.681776
0.0628251 -0.465529 0.291791 0.0589002 -0.965742 -0.252732
-0.137314 0.114682 -0.354586 -0.0745387 0.997209 0.00431259
-0.392595 -0.0434284 -0.0815473 0.576119 -0.78722 0.219937
0.555606 -0.345707 -0.0445697 0.76262 -0.0964495 0.639616
0.15011 0.378988 0.00889074 0.0123596 0.256517 -0.966461
-0.137621 -0.23298 -0.526476 -0.608917 0.244051 -0.754758
-0.190734 -0.337061 -0.358897 0.100303 -0.949669 -0.296762
-0.0472365 -0.243101 0.364585 -0.753292 -0.0470021 0.656005
0.260915 -0.157839 -0.275627 0.608408 0.263794 -0.7485
-0.379285 0.00573489 0.0722896 -0.000163724 0.94674 0.321998
0.246443 -0.248399 0.322572 0.791967 0.0325516 0.609695
-0.21393 -0.176619 0.096738 -0.735792 0.0137701 -0.677068
0.293514 -0.316422 -0.281074 0.72228 0.112382 -0.682409
0.226927 -0.0205016 0.236105 0.6595 -0.737013 0.147891
-0.468824 -0.271045 -0.153416 -0.736004 0.121658 -0.665956
0.381793 0.0786803 -0.0913328 -0.1062 0.963484 0.245806
-0.252849 -0.318299 -0.0352265 -0.460872 0.886274 0.0459814
0.350707 -0.355565 -0.134693 -0.00324203 -0.980194 -0.198012
-0.132589 -0.217134 -0.0105127 -0.671963 0.381446 -0.634795
0.128613 -0.29655 0.448271 0.771112 -0.132001 0.622866
0.352584 -0.430792 0.00540107 0.460318 -0.839992 -0.287262
0.412616 -0.318973 0.125136 0.796902 -0.129951 0.589966
-0.0549349 0.0682816 -0.376704 0.447706 -0.894126 -0.00993953
-0.1508 -0.248156 -0.0244682 -0.709259 0.59914 -0.371461
-0.021956 0.290706 0.339672 -0.731707 -0.346148 0.587185
0.150874 0.488164 0.141169 -0.0634377 0.961892 0.26597
0.0688549 0.42361 0.414143 -0.053779 0.970057 0.236847
0.152695 -0.339522 0.411244 0.766297 0.00875951 0.642427
-0.349131 -0.208172 -0.207979 0.632162 0.37109 0.680194
0.145794 -0.139225 0.457078 0.736185 -0.0660321 0.673551
0.0240544 0.0967705 -0.249405 -0.0497543 0.96836 0.244549
0.347815 0.0602513 0.0678994 0.933008 0.0902678 -0.348349
0.0330586 -0.477982 0.159224 -0.272942 -0.961731 0.0239868
-0.316097 -0.229404 -0.222668 0.542416 0.417921 0.728785
-0.0426819 -0.151655 0.389255 -0.712603 -0.0888715 0.695916
-0.235941 0.000749541 0.122708 -0.0694269 0.958445 0.276701
0.207988 0.36726 0.0204714 0.360447 0.191035 -0.913008
-0.448499 -0.00148041 0.0628355 -0.672789 -0.117707 0.730411
-0.365103 -0.392935 -0.130299 -0.0199384 -0.990424 -0.136615
-0.244359 -0.0437216 -0.315761 0.663411 -0.455859 0.593361
0.135449 -0.370552 0.430718 0.765288 -0.0704691 0.639819
0.090892 -0.123121 0.510789 -0.677094 -0.0165377 -0.73571
0.302167 -0.104179 0.190246 -0.153798 0.95999 0.234019
-0.140424 0.125383 -0.423147 -0.0840854 0.918589 0.386167
0.0452334 -0.0434618 -0.206439 -0.736504 -0.310435 -0.600992
-0.0828868 -0.167298 -0.478899 0.598932 0.5512 0.580912
-0.211913 -0.417423 0.00486688 0.0326154 -0.981084 -0.190813
-0.466353 -0.237735 -0.0842347 0.707814 0.311388 0.634064
-0.177685 -0.247955 0.244238 -0.672544 -0.180163 0.717793
-0.230778 -0.266468 0.063345 -0.728582 0.562248 -0.39121
-0.0980434 -0.237747 -0.375211 0.115053 0.917022 0.381881
-0.0855757 0.0897371 -0.246707 -0.000328686 0.979365 0.202099
-0.0350343 0.0533161 0.255167 -0.917907 -0.0938159 0.385545
-0.234839 -0.304115 -0.135599 0.0294094 0.988354 0.149305
0.0892285 0.115859 -0.36179 0.731545 0.108194 -0.673154
0.466399 -0.193677 0.0800527 0.691164 -0.135736 0.709837
-0.122311 -0.160573 -0.0104657 -0.747062 0.0728805 -0.660747
0.237154 0.0982697 -0.206978 -0.0861885 0.964145 0.25099
0.0949949 -0.400012 0.456984 -0.61827 -0.258564 0.742218
-0.00323484 -0.0473665 -0.155705 -0.709003 -0.407596 -0.575483
-0.101783 0.00570223 0.146704 -0.0602607 0.954506 0.29204
-0.0166004 0.0797904 -0.41575 0.324193 -0.945482 -0.0310294
0.0613697 -0.482112 0.0398763 -0.376031 -0.894744 -0.240903
0.231756 0.499959 0.104491 -0.151712 0.926577 0.34415
-0.066674 0.0444161 -0.0305925 -0.00629654 0.990054 0.140545
0.0258221 -0.4507 0.208282 0.0456204 -0.921684 -0.385251
-0.0517156 -0.142077 0.392578 -0.659845 -0.197724 0.72492
0.348577 0.0491506 0.235598 0.88911 -0.0112674 0.457556
-0.0122309 0.464471 0.225747 -0.00278526 0.989249 0.146212
0.300573 0.102523 0.316625 0.735517 -0.106566 0.669072
-0.0354383 -0.245938 0.373788 -0.634111 -0.245886 0.733105
0.193662 0.0702883 0.37058 0.119715 -0.163224 0.979299
-0.167808 0.0961293 -0.436812 -0.805029 0.163789 -0.570177
0.296647 -0.0491998 0.27685 -0.609126 -0.237323 -0.756732
0.290562 -0.475746 0.164696 0.297737 -0.930672 0.212607
-0.410992 -0.338965 -0.00937518 0.0361365 0.905858 0.422038
0.116082 -0.136907 -0.285732 -0.715971 0.319122 -0.620925
-0.173677 -0.411836 -0.0153317 0.0691955 -0.969782 -0.233954
-0.129909 -0.374764 0.252427 -0.630534 -0.235407 0.739601
0.299382 -0.474688 0.0781804 0.416097 -0.90924 -0.012051
-0.287635 -0.318093 -0.100507 -0.00599263 0.97457 0.224002
0.175298 -0.372669 -0.154055 0.245983 0.152637 -0.95718
-0.0507995 -0.10231 0.395762 -0.681376 -0.133753 0.719609
0.445461 -0.23072 0.102989 0.828746 -0.135986 0.542852
-0.0491 0.305132 0.29566 -0.922177 -0.102952 0.372815
0.275189 -0.137532 0.305094 0.720217 -0.145499 0.67832
-0.254698 -0.0206964 0.225597 -0.0800095 0.971258 0.22418
0.138965 0.30771 -0.00560672 -0.0805723 0.212428 -0.973849
-0.0512593 -0.014503 0.254662 -0.131902 0.961986 0.239133
-0.340672 -0.297948 -0.125689 0.306888 0.810494 0.498917
-0.0539656 -0.0498728 0.402546 0.036633 0.986392 0.16028
0.295416 -0.00461063 -0.203528 0.685672 0.157173 -0.71074
0.24134 -0.396848 -0.135414 0.247846 -0.713572 -0.655277
0.397006 -0.307163 -0.193464 0.670842 0.0852739 -0.736682
0.466965 -0.325858 0.058801 0.729573 -0.0963549 0.677081
0.00348847 -0.215778 0.42005 -0.653242 -0.286844 0.70071
0.186155 -0.0737492 -0.321743 0.71645 0.16087 -0.678837
-0.0439186 0.132711 0.0953012 -0.933754 0.0189339 -0.357414
0.18003 -0.0346129 0.348327 -0.178029 -0.967535 -0.17939
-0.132935 -0.281396 -0.182195 -0.289015 0.957289 0.00827448
0.543026 0.0178082 0.0272568 0.60831 0.247125 -0.754247
-0.113337 -0.0840591 -0.488294 0.696871 0.0730599 0.713466
-0.184812 -0.279895 -0.473402 -0.803842 0.0560681 -0.592195
0.286613 -0.468402 0.00746707 0.460149 -0.818397 -0.344225
0.00572667 -0.236192 -0.269204 -0.468193 0.853132 -0.230132
-0.199287 -0.20107 -0.351465 0.636408 0.54536 0.545497
0.0333932 0.478846 0.161395 -0.0460429 0.970971 0.234722
-0.00889101 0.186044 0.0434049 -0.738544 0.141368 -0.659218
-0.393656 -0.0645635 -0.136555 0.657569 -0.600581 0.454869
0.409635 -0.387382 0.0138896 0.0491206 -0.978723 -0.199218
0.178978 -0.47148 0.343611 0.130935 -0.965584 -0.22473
0.000132472 -0.447598 0.014682 -0.228071 -0.927559 -0.296004
0.177181 -0.51567 0.0601254 0.0398814 -0.981684 -0.186293
0.408795 -0.0143016 -0.102043 0.70133 0.11907 -0.702822
0.0319187 -0.391886 0.397488 -0.661302 -0.202782 0.72219
-0.175689 0.0736752 -0.425717 -0.69199 0.0876548 -0.716566
-0.0675303 0.0262356 -0.479741 0.793039 -0.561345 0.236605
0.111339 0.0997433 -0.241018 -0.0454873 0.976935 0.208637
0.270405 0.234438 0.36371 0.49082 -0.0222269 0.870978
-0.130948 0.0292704 0.0328137 -0.0219327 0.978962 0.202861
-0.208663 -0.0117851 -0.0396476 -0.228966 -0.871157 -0.43435
0.514408 -0.0754233 0.0412483 0.827406 -0.0233452 0.561118
0.0262728 -0.233216 -0.297086 -0.48565 0.867296 -0.109282
0.33549 0.154337 0.0747754 0.914941 0.109404 -0.388475
-0.418646 -0.176975 -0.192035 -0.69858 0.16757 -0.695634
0.120674 -0.505703 0.104277 -0.376505 -0.924614 0.05774
0.0716732 -0.0955446 -0.218096 -0.714133 0.03523 -0.699123
0.138102 -0.516006 0.0333729 -0.357773 -0.899075 -0.252313
0.350172 -0.265114 -0.223538 0.605095 0.270459 -0.748807
-0.39496 -0.038199 -0.204262 -0.712076 0.126974 -0.690525
-0.114923 -0.436997 0.25301 -0.634051 -0.249753 0.731849
-0.039287 0.0452785 -0.251864 -0.160744 -0.88944 -0.427854
0.0239645 -0.236228 -0.327754 -0.434138 0.900649 0.018856
0.130691 -0.244315 0.456328 0.793702 -0.170199 0.584011
-0.0336749 0.120216 -0.363698 -0.0626868 0.952065 0.299403
-0.351796 -0.027104 -0.245376 -0.809443 0.0865871 -0.580779
0.342237 -0.411151 0.183128 0.62277 -0.132379 0.771124
0.472457 -0.146606 0.0780985 0.852211 -0.105621 0.512426
-0.290535 -0.108622 0.1803 -0.658518 -0.195052 0.726849
0.302264 -0.400526 0.233915 0.841448 -0.158206 0.516658
-0.251381 -0.0502428 0.229723 -0.708155 -0.0866672 0.700718
0.133965 -0.0619057 0.316883 0.657623 -0.530187 0.535195
0.36118 -0.119699 0.207712 0.712749 -0.132342 0.688822
0.439778 -0.0120269 -0.0272559 0.692364 0.270263 0.669021
-0.126469 0.0400499 -0.211689 0.0510319 -0.967564 -0.247417
0.0411582 -0.374108 0.410219 -0.692652 -0.150195 0.705461
0.0546678 -0.478317 0.179217 -0.302179 -0.940137 0.157574
-0.331742 -0.0797003 -0.270604 -0.749594 0.106635 -0.653251
-0.22161 -0.0047182 -0.0456429 -0.0277445 -0.907208 -0.419767
-0.454488 -0.401548 -0.118604 0.0678185 -0.968407 -0.239978
0.227513 0.457579 0.302955 -0.00694765 0.97786 0.209142
0.428402 -0.0578047 0.121867 -0.6035 0.648747 -0.463589
0.0977203 -0.0389507 0.394389 -0.131297 0.94672 0.294079
-0.0222035 0.372281 0.365544 -0.755854 -0.166118 0.633316
0.332756 0.140219 0.0683347 0.873254 0.1446 -0.465315
0.485427 -0.349883 0.0327737 0.767643 -0.0893397 0.63462
-0.0236812 -0.394259 -0.0571172 0.0438969 -0.958618 -0.28129
-0.449121 -0.225022 -0.105515 0.614688 0.29102 0.73312
0.209208 -0.109175 -0.311112 0.697038 0.161202 -0.698679
0.145629 -0.145743 0.402588 -0.505858 0.829646 -0.236209
-0.253129 -0.00884608 -0.253181 0.592478 -0.737401 0.32436
-0.0606986 0.167972 0.228795 -0.979561 -0.0409573 0.196935
-0.326484 0.0647198 -0.259142 -0.86102 0.201972 -0.466746
0.307084 0.386517 0.348808 0.752257 -0.0900356 0.65269
0.0700204 -0.401364 0.430366 -0.59471 -0.248268 0.764646
-0.276063 -0.322294 0.00626395 -0.304226 0.935799 -0.178121
-0.121097 -0.0351111 0.305121 -0.0800832 0.945945 0.314285
-0.0414685 0.0715346 -0.414917 0.482606 -0.875623 -0.0193942
-0.0265516 -0.416589 -0.0128324 -0.933788 0.0203057 -0.35725
0.319921 -0.0604451 0.114074 0.776056 0.350894 0.524033
-0.349872 0.0465796 -0.236285 -0.690963 0.0720018 -0.719295
0.518268 0.0308526 0.0527563 0.587277 -0.158222 0.79377
-0.0487327 0.0393637 -0.0183348 -0.140926 0.95962 0.243453
-0.0649701 -0.0791667 -0.0833035 -0.54255 -0.282185 -0.791209
-0.0523494 -0.410054 0.00762312 0.0932688 -0.96449 -0.247103
-0.0595128 -0.0465804 -0.539433 0.760478 -0.112217 0.639594
0.282988 0.48862 0.168289 -0.0478125 0.973345 0.224305
0.176333 -0.0890068 0.423908 0.71824 -0.112896 0.686575
0.148283 -0.405778 0.40834 0.762815 -0.109633 0.637255
-0.397012 -0.338287 -0.00420957 0.0401389 0.941414 0.334856
0.124566 -0.0255166 0.352536 -0.0660932 -0.284093 0.956516
0.238246 0.410256 0.419151 0.293134 -0.101555 0.950662
-0.482697 0.011081 -0.0938449 -0.75047 0.099785 -0.653329
0.0593387 -0.169528 -0.24029 -0.731847 0.469491 -0.49394
-0.0338411 0.260118 0.0818349 -0.757607 0.0705714 -0.648884
-0.164969 -0.132615 -0.425572 0.663252 0.0835943 0.743713
-0.140025 0.134844 -0.459241 -0.0676462 0.964444 0.255484
0.137075 0.0775177 -0.0545411 -0.0444352 0.181617 -0.982365
0.358312 0.0461753 0.0637178 -0.0847705 0.94871 0.304571
-0.109101 -0.185473 -0.0270792 -0.62357 0.298059 -0.722719
0.177502 0.0879803 -0.178043 -0.104248 0.959182 0.262874
-0.148726 -0.417435 0.226171 -0.665818 -0.18806 0.722024
0.00170932 -0.0545144 0.422708 0.0672895 0.983978 0.165101
0.236668 -0.438725 -0.0754733 0.239719 -0.782403 -0.574787
-0.161365 -0.00353149 -0.458826 -0.725027 0.102955 -0.680982
-0.12208 -0.00076568 -0.0985679 -0.354323 -0.815023 -0.458468
-0.218538 0.0549794 -0.125084 -0.0332812 0.978846 0.201873
-0.0497724 0.38181 0.334213 -0.85863 -0.176546 0.481233
-0.104929 -0.169509 -0.45486 0.539284 0.589781 0.601108
-0.215622 0.0444166 -0.0697676 -0.0746162 0.955633 0.284952
0.239806 -0.0748976 0.341779 -0.693978 -0.171895 -0.699176
-0.211803 -0.383189 -0.144135 0.0292421 -0.981644 -0.188469
0.102888 -0.143728 -0.263647 -0.656347 0.42899 -0.620626
-0.000797981 0.469818 0.186413 0.0852864 0.996041 0.0250785
-0.0388785 -0.0638195 0.424313 -0.658819 -0.192375 0.727289
0.250028 -0.496353 0.106623 0.226815 -0.963233 0.144005
0.203493 -0.500095 0.14059 0.140545 -0.966403 0.215202
-0.0448952 0.287918 0.296681 -0.864539 -0.235376 0.44404
-0.0532391 -0.294578 0.347289 -0.661407 -0.195734 0.724037
-0.408224 -0.3867 -0.176053 0.111153 -0.944031 -0.310564
0.491 -0.23763 0.0496672 0.742592 -0.109895 0.660667
0.37892 0.0175674 0.0568148 0.732023 -0.622261 0.277369
0.248598 0.138484 0.362399 0.551482 -0.178079 0.814958
0.203193 -0.146906 -0.331397 0.641312 0.230378 -0.731878
0.482844 -0.320833 -0.114679 0.704994 0.112944 -0.700162
-0.324644 -0.128118 -0.254875 0.744618 -0.108556 0.658604
0.256692 0.485759 0.18878 -0.0976235 0.988576 0.114838
-0.481483 -0.0595855 0.0198912 -0.63857 -0.226807 0.735382
0.0883204 -0.0740554 0.5289 0.796712 -0.132676 0.589616
-0.174631 0.0486896 -0.0791235 -0.0292973 0.985175 0.169029
-0.14176 -0.404214 -0.0396392 0.0474731 -0.942624 -0.330463
0.506044 -0.0396448 0.0180302 -0.514881 0.825707 -0.230445
-0.0263795 -0.378113 -0.121859 0.0518033 -0.972947 -0.225146
-0.273847 -0.0131279 -0.0161977 -0.125727 -0.944564 -0.303301
0.193912 -0.133037 0.399052 0.733552 -0.124113 0.668204
-0.153936 -0.396827 -0.0570295 0.0898866 -0.946473 -0.310015
-0.0134199 0.466556 0.215304 -0.0761592 0.989787 0.120505
-0.0446885 0.0999045 0.0857626 -0.880156 0.206224 -0.427548
0.0416239 -0.309491 -0.421296 -0.0263082 -0.995328 -0.0928932
-0.191388 0.0871527 -0.279483 -0.0249301 0.98546 0.16807
0.179223 0.316887 0.000235014 0.0910858 0.308985 -0.946695
0.407314 -0.0328138 0.161123 -0.723633 0.0653592 -0.687083
-0.382582 -0.390088 -0.144332 0.084535 -0.9521 -0.293871
0.0883597 0.44917 0.316232 -0.0552647 0.973639 0.221297
0.0791513 -0.492637 0.0545163 -0.287804 -0.912355 -0.291165
0.507151 -0.227205 -0.0750411 0.620762 0.237252 -0.747239
-0.0608084 0.12184 0.135653 -0.976489 0.0166073 -0.214925
-0.394756 -0.400704 -0.0997373 0.0480043 -0.983017 -0.177126
-0.182871 -0.32494 -0.403849 0.0315612 -0.984317 -0.173565
0.269119 -0.473764 0.220814 0.226273 -0.955421 0.189659
-0.184693 -0.0687876 -0.440075 -0.682919 0.218872 -0.696934
-0.037722 -0.427166 0.0628724 -0.994146 -0.0637688 0.0872235
-0.151667 -0.0485062 -0.4815 -0.747859 0.120461 -0.652837
0.336376 0.263006 0.285933 0.908957 -0.119759 0.399318
0.34662 0.127484 0.248278 0.923779 0.184678 0.335449
0.160031 -0.240125 0.421281 0.786122 -0.217939 0.578373
-0.166866 -0.289452 -0.172683 -0.258036 0.962109 0.0881109
0.141887 -0.324207 -0.341845 0.0975223 -0.950755 -0.294201
0.48894 -0.146848 0.0635832 0.746418 -0.106735 0.656863
0.508599 -0.0139911 0.051699 -0.642296 0.0464407 -0.765048
0.462879 -0.110539 -0.0747797 0.681205 0.147285 -0.717124
0.0558085 -0.386103 -0.112671 -0.531877 0.187933 -0.825704
-0.0224478 -0.0558568 0.430892 -0.615258 -0.213905 0.758751
0.018124 -0.237002 -0.324511 -0.209665 0.956198 -0.204267
0.524663 -0.311609 -0.00319798 0.759918 -0.106393 0.641253
-0.454521 -0.0582577 0.00207946 0.565899 -0.799324 0.202091
-0.420829 -0.158141 -0.15147 0.756351 -0.0956026 0.647143
-0.103422 -0.426084 0.0877468 -0.00586118 -0.98426 -0.176629
-0.441463 -0.263058 -0.0920306 0.578936 0.466116 0.669006
0.315353 0.290306 0.322215 0.847511 -0.0575928 0.527644
-0.058268 0.39037 0.312168 -0.938702 -0.0957006 0.331179
0.358694 0.032935 -0.134192 0.595873 0.20499 -0.776476
0.166869 -0.241146 0.415063 0.826599 -0.199114 0.526391
-0.00163116 -0.286843 -0.548619 0.0491245 -0.97741 -0.205563
-0.128882 -0.298632 -0.500758 -0.00249711 -0.980588 -0.196063
0.0626378 -0.302532 -0.461875 0.0370569 -0.97781 -0.206188
0.0921326 -0.186372 -0.305861 -0.663709 0.672372 -0.32773
-0.192612 -0.125653 -0.39875 0.742646 0.163762 0.649353
-0.405359 -0.371424 -0.231845 -0.0129854 -0.981084 -0.193145
0.41017 -0.291533 0.128295 0.758313 -0.179026 0.626826
0.306551 -0.0219377 0.289457 0.827752 -0.141193 0.543039
-0.0242055 -0.161822 0.402384 -0.607578 -0.282954 0.742149
-0.298325 -0.347539 -0.320632 0.121662 -0.966294 -0.226881
-0.253051 -0.211629 -0.292983 0.700967 0.435529 0.564765
-0.0945948 -0.349915 -0.2734 0.05207 -0.98504 -0.164272
-0.131571 -0.108951 -0.461606 0.734361 0.18739 0.65238
-0.0513899 0.422302 0.336905 -0.882566 -0.203371 0.42393
-0.199495 -0.24599 -0.301548 0.363096 0.841674 0.399683
-0.222412 -0.248749 0.0764781 -0.769982 0.402212 -0.495331
0.0367978 -0.127053 -0.17802 -0.746698 0.151088 -0.647777
0.413404 0.0128399 -0.0919047 0.688469 0.158349 -0.707768
0.464591 0.0472109 0.0797454 0.0264082 0.989461 0.142373
-0.0957987 -0.0489645 -0.49533 0.733711 -0.16071 0.660182
0.0601938 -0.298754 0.451012 -0.682825 -0.171865 0.710079
-0.00750329 0.427893 0.386164 -0.0732824 0.935204 0.346444
0.120357 0.0782404 0.372878 -0.0659168 -0.246344 0.966938
-0.283098 0.0338127 -0.02387 0.016102 0.996185 0.0857692
0.235541 0.475947 0.220918 -0.074185 0.966308 0.246467
0.0509203 -0.318108 -0.381076 -0.0430322 -0.98119 -0.188186
0.16096 -0.115746 0.292183 0.456193 0.672204 0.58312
