ply
format ascii 1.0
comment Created by Open3D
element vertex 829
property double x
property double y
property double z
property double nx
property double ny
property double nz
end_header
-0.0786525 -0.381549 -0.327501 -0.397429 -0.426851 -0.812311
-0.116825 -0.138719 0.16786 0.0798628 0.68128 0.727653
-0.1856 0.368469 -0.143993 -0.696673 0.716503 -0.0356539
-0.000936436 -0.192181 0.143318 0.397429 0.426851 0.812311
0.412552 0.465758 0.0838598 0.683354 0.647756 -0.336808
0.42445 0.388759 0.199672 0.0800498 0.681169 0.727737
0.325621 0.17108 0.366317 0.397429 0.426851 0.812311
0.329631 0.26095 0.31713 0.397429 0.426851 0.812311
-0.568195 -0.104998 0.021096 -0.584289 -0.537878 0.607695
0.429121 -0.158757 -0.399988 0.696673 -0.716503 0.0356539
-0.214476 -0.443789 -0.277393 -0.397429 -0.426851 -0.812311
0.0363625 -0.253559 -0.482693 0.269814 -0.821704 -0.501999
-0.187059 -0.522497 -0.200397 -0.397429 -0.426851 -0.812311
0.533054 0.358426 0.166209 0.440364 0.466359 0.767195
-0.402134 -0.512573 -0.134877 -0.705798 -0.693467 -0.144751
-0.48032 -0.343935 -0.146385 -0.603637 -0.612344 -0.510545
0.206275 -0.365138 -0.193049 0.696673 -0.716503 0.0356539
-0.350592 0.2074 -0.156919 -0.696673 0.716503 -0.0356539
0.541263 -0.0224368 0.148257 0.696673 -0.716503 0.0356539
-0.0220741 -0.479341 0.214287 -0.528458 -0.478952 0.700954
-0.103734 0.442111 -0.263729 -0.696673 0.716503 -0.0356539
0.100624 0.221542 0.349587 -0.597242 -0.551745 0.582134
0.307683 0.514057 0.145816 0.397429 0.426851 0.812311
0.0881479 -0.404358 -0.397123 -0.397429 -0.426851 -0.812311
-0.263742 -0.506002 -0.218456 -0.158769 -0.630107 -0.760104
0.351704 -0.206997 -0.605109 0.507196 0.0132067 -0.86173
0.000338064 -0.566748 -0.222457 0.665548 -0.745962 -0.0242
0.04224 0.546874 0.258441 0.397429 0.426851 0.812311
-0.257778 -0.533881 -0.177226 0.507355 -0.822027 -0.25858
0.431685 -0.0759883 -0.412437 0.597242 0.551745 -0.582134
0.196899 0.335832 0.293671 0.397429 0.426851 0.812311
-0.239638 -0.0820442 -0.40612 -0.397429 -0.426851 -0.812311
-0.31189 0.241999 -0.217833 -0.696673 0.716503 -0.0356539
0.60385 0.246359 0.0697163 0.597242 0.551745 -0.582134
0.428043 0.352422 0.220915 0.397429 0.426851 0.812311
0.413954 -0.161375 -0.156256 0.696673 -0.716503 0.0356539
0.49805 -0.0859355 -0.283439 0.696673 -0.716503 0.0356539
-0.0792955 0.479246 0.00502565 -0.696673 0.716503 -0.0356539
-0.438072 0.00330665 0.202097 0.153643 0.197612 0.968165
-0.0553472 0.506452 0.0838039 -0.696673 0.716503 -0.0356539
-0.342568 0.206867 -0.324395 -0.696673 0.716503 -0.0356538
-0.590561 -0.0587257 -0.240513 -0.688663 -0.0192973 -0.724825
0.403474 0.267885 -0.115458 0.597242 0.551745 -0.582134
0.421889 0.0813542 0.317315 0.397429 0.426851 0.812311
-0.122377 -0.670751 -0.134399 0.304718 -0.827466 -0.471644
0.102032 0.11956 0.254373 -0.597242 -0.551745 0.582134
0.504614 -0.0246969 -0.288987 0.614168 0.533985 -0.581083
-0.293469 -0.411707 0.0793353 -0.584289 -0.537878 0.607696
-0.267771 0.289096 -0.133459 -0.696673 0.716503 -0.0356539
0.213312 -0.0696056 0.189251 -0.597242 -0.551745 0.582134
-0.344987 0.19634 -0.462346 -0.766823 0.605562 -0.212785
-0.534183 -0.109352 0.049944 -0.584289 -0.537878 0.607695
-0.328265 0.149048 -0.484193 -0.397429 -0.426851 -0.812311
0.573784 0.209396 0.00383689 0.597242 0.551745 -0.582134
0.410405 -0.156237 0.0163514 0.696673 -0.716503 0.0356539
0.0196561 0.579348 0.0831754 -0.696673 0.716503 -0.0356539
-0.0735002 0.490683 0.121622 -0.696673 0.716503 -0.0356539
-0.343518 0.144821 0.0847902 0.397429 0.426851 0.812311
0.11555 -0.312895 0.100708 0.397429 0.426851 0.812311
-0.160878 0.40213 0.0493984 -0.696673 0.716503 -0.0356539
-0.0186573 -0.375908 0.199481 0.397429 0.426851 0.812311
-0.245549 -0.235812 0.248849 -0.77412 0.410168 0.482184
-0.323777 0.219748 -0.432712 -0.696673 0.716503 -0.0356538
0.159151 -0.266952 0.0552332 0.397429 0.426851 0.812311
-0.639095 -0.17676 -0.110598 -0.592339 -0.546486 0.59202
-0.363526 0.202821 0.00378099 -0.696673 0.716503 -0.0356539
-0.367376 0.184013 -0.298951 -0.696673 0.716503 -0.0356538
0.232265 0.0345708 -0.512245 0.597242 0.551745 -0.582134
-0.212091 0.341595 -0.166434 -0.696673 0.716503 -0.0356539
-0.161518 -0.152639 0.170477 -0.509594 0.821516 0.255784
-0.166734 -0.242682 -0.406428 -0.397429 -0.426851 -0.812311
-0.154422 0.387906 -0.362605 -0.696673 0.716503 -0.0356539
0.0634671 0.620105 0.0461734 -0.696673 0.716503 -0.0356539
-0.419419 0.131876 -0.329772 -0.696673 0.716503 -0.0356538
0.293569 0.0471983 -0.437381 0.597242 0.551745 -0.582134
0.406114 -0.15674 0.0900955 0.696673 -0.716503 0.0356539
0.358649 -0.207536 -0.00325887 0.696673 -0.716503 0.0356539
-0.294111 0.245379 -0.497333 -0.696673 0.716503 -0.0356538
0.0211604 -0.528396 0.143202 0.696673 -0.716503 0.0356539
-0.0776262 0.468346 -0.246643 -0.696673 0.716503 -0.0356539
0.264531 0.120246 -0.397938 0.597242 0.551745 -0.582134
0.603784 0.0316256 -0.0947559 0.890812 -0.391924 -0.229889
-0.534563 -0.259773 -0.168434 -0.397429 -0.426851 -0.812311
0.504229 -0.0550219 0.217058 0.696673 -0.716503 0.0356539
-0.19241 -0.21712 -0.387254 -0.796381 0.321708 -0.512135
0.28005 -0.0839635 0.244112 -0.597242 -0.551745 0.582134
-0.431523 0.136169 -0.00699331 -0.696673 0.716503 -0.0356539
0.318511 0.390016 -0.0868703 0.597242 0.551745 -0.582134
0.209239 0.133002 0.42744 -0.158515 -0.105276 0.981728
-0.186837 -0.0660244 -0.440372 -0.397429 -0.426851 -0.812311
0.351751 0.276055 -0.16078 0.597242 0.551745 -0.582134
0.393445 -0.194747 -0.426154 0.696673 -0.716503 0.0356539
-0.287288 -0.0452887 0.157178 0.397429 0.426851 0.812311
0.361203 -0.212779 -0.158505 0.696673 -0.716503 0.0356539
-0.0558075 0.488463 -0.268699 -0.696673 0.716503 -0.0356539
-0.107843 0.434899 -0.328361 -0.696673 0.716503 -0.0356539
-0.345378 0.208896 -0.228732 -0.696673 0.716503 -0.0356539
0.217635 -0.359666 -0.305079 0.696673 -0.716503 0.0356539
0.375971 -0.201378 -0.217987 0.696673 -0.716503 0.0356539
0.239787 0.4205 -0.138745 0.597242 0.551745 -0.582134
0.351288 0.146804 0.366516 0.397429 0.426851 0.812311
0.198828 0.0463224 0.352712 -0.597242 -0.551745 0.582134
-0.0141043 0.111429 0.127516 -0.597242 -0.551745 0.582134
-0.447698 0.122766 0.0397211 -0.696673 0.716503 -0.0356539
-0.0730272 0.158944 0.112098 -0.597242 -0.551745 0.582134
-0.240393 -0.464091 -0.254045 -0.397429 -0.426851 -0.812311
-0.552464 0.00284625 0.118294 -0.889212 0.0166626 0.457192
0.231722 -0.352803 -0.451558 0.642785 -0.763365 -0.0640484
-0.0448676 -0.0722537 -0.52158 -0.783854 0.555287 -0.277902
-0.41497 0.155463 0.0573066 -0.696673 0.716503 -0.0356539
0.356172 0.386161 -0.0518853 0.597242 0.551745 -0.582134
-0.209159 0.227654 0.037557 -0.597242 -0.551745 0.582134
0.312956 -0.0342474 -0.494686 0.597242 0.551745 -0.582134
0.389936 0.415823 0.157193 0.397429 0.426851 0.812311
0.0316307 0.576417 0.238325 -0.115295 0.777318 0.618453
0.339091 -0.242961 -0.332985 0.696673 -0.716503 0.0356539
-0.0264367 0.428757 -0.404052 0.597242 0.551745 -0.582134
-0.0152305 0.5222 -0.266055 -0.353756 0.888069 -0.293582
0.222543 -0.358076 -0.369023 0.696673 -0.716503 0.0356539
-0.167343 -0.609655 -0.0401691 -0.584289 -0.537878 0.607695
0.460365 -0.0664482 0.367291 0.726082 -0.063583 0.684662
-0.172583 -0.250921 0.258163 0.397429 0.426851 0.812311
0.00997093 0.122014 0.162249 -0.597242 -0.551745 0.582134
0.0403065 -0.516322 0.0117338 0.696673 -0.716503 0.0356539
0.301459 0.305783 0.264983 -0.639954 0.765326 0.0688116
-0.334406 -0.457064 -0.000170675 -0.584289 -0.537878 0.607696
0.0553779 -0.184926 0.108058 0.640891 0.108095 0.759983
-0.406736 0.14812 -0.251166 -0.696673 0.716503 -0.0356538
-0.0861747 0.463519 -0.176622 -0.696673 0.716503 -0.0356539
-0.0972876 -0.0310133 0.0567172 0.397429 0.426851 0.812311
-0.152922 0.392416 -0.301263 -0.696673 0.716503 -0.0356539
-0.573993 -0.194139 -0.183631 -0.397429 -0.426851 -0.812311
-0.459606 -0.200092 -0.236468 -0.397429 -0.426851 -0.812311
-0.368776 0.180001 -0.352196 -0.696673 0.716503 -0.0356538
0.310851 0.482968 0.160602 0.397429 0.426851 0.812311
-0.43535 0.136723 0.0789285 -0.696673 0.716503 -0.0356539
0.0968202 -0.208826 -0.510591 0.639957 -0.765324 -0.0688056
-0.165264 0.36754 -0.546571 -0.584315 0.800279 -0.134648
-0.0538785 0.188512 -0.630436 0.0276844 -0.0227181 -0.999359
0.491088 0.317552 0.208393 0.397429 0.426851 0.812311
0.484683 -0.0872767 -0.0491964 0.696673 -0.716503 0.0356539
-0.461135 -0.0775832 0.148298 -0.584289 -0.537878 0.607695
0.0103725 -0.526124 0.178241 0.192095 -0.895813 0.400772
0.0471097 0.326126 -0.42587 0.597242 0.551745 -0.582134
-0.639106 -0.1064 -0.051519 -0.773293 -0.286047 0.565859
0.337515 0.203708 -0.243956 0.597242 0.551745 -0.582134
-0.340101 -0.529913 -0.0701265 -0.584289 -0.537878 0.607696
-0.654902 -0.146766 -0.0992411 -0.584289 -0.537878 0.607695
-0.412704 -0.109806 -0.306858 -0.397429 -0.426851 -0.812311
-0.561879 -0.202795 -0.0593929 -0.584289 -0.537878 0.607695
-0.270834 0.279319 -0.270087 -0.696673 0.716503 -0.0356539
0.158264 -0.407285 -0.101928 0.696673 -0.716503 0.0356539
0.363363 0.0422411 -0.370474 0.597242 0.551745 -0.582134
-0.288909 0.175815 0.0417859 0.397429 0.426851 0.812311
0.117767 0.652348 0.158599 -0.0369262 0.743943 0.667222
0.213598 0.420637 -0.165483 0.597242 0.551745 -0.582134
0.0523865 -0.116138 -0.580131 -0.397429 -0.426851 -0.812311
-0.116582 0.38361 -0.533174 0.263679 0.794769 -0.54664
0.455501 0.22715 0.272916 0.479905 0.335714 0.810548
-0.00989584 -0.350065 -0.377684 -0.397429 -0.426851 -0.812311
0.476477 -0.0933779 -0.0114725 0.696673 -0.716503 0.0356539
0.0429773 0.0481353 0.132533 -0.748413 0.662994 0.0177793
0.430313 0.162317 0.294902 0.802046 -0.415259 0.42928
-0.220615 -0.291355 -0.35449 -0.397429 -0.426851 -0.812311
-0.528322 0.0477368 0.107314 -0.696673 0.716503 -0.0356538
-0.109563 0.0595532 -0.544167 -0.397429 -0.426851 -0.812311
0.330976 0.338596 -0.122818 0.597242 0.551745 -0.582134
0.435342 -0.147949 -0.304353 0.696673 -0.716503 0.0356539
0.700858 0.157711 0.0945248 0.86304 0.126906 -0.488935
0.220358 -0.348841 -0.140731 0.696673 -0.716503 0.0356539
0.417762 0.240355 0.284834 0.397429 0.426851 0.812311
0.296274 -0.194804 0.155703 -0.597242 -0.551745 0.582134
-0.37692 -0.267896 -0.241293 -0.397429 -0.426851 -0.812311
-0.164476 0.0547164 0.0445406 0.397429 0.426851 0.812311
0.390914 -0.170091 0.118797 0.696673 -0.716503 0.0356539
0.122325 0.46414 -0.217893 0.597242 0.551745 -0.582134
-0.111174 -0.244515 0.224752 0.397429 0.426851 0.812311
-0.160392 0.407465 0.14713 -0.696673 0.716503 -0.0356539
0.170088 -0.392313 -0.0320794 0.696673 -0.716503 0.0356539
-0.162944 0.3333 0.185102 -0.597242 -0.551745 0.582134
0.279457 -0.0452725 -0.539503 0.597242 0.551745 -0.582134
-0.157932 0.198742 -0.593642 -0.397429 -0.426851 -0.812311
-0.155714 -0.544044 -0.20441 -0.397429 -0.426851 -0.812311
0.134808 -0.0862967 0.161232 -0.544377 -0.602955 0.58318
0.244885 0.583045 0.0205448 0.597242 0.551745 -0.582134
-0.11039 -0.627124 -0.00485154 -0.294407 -0.759706 0.579802
-0.36964 0.186382 -0.207107 -0.696673 0.716503 -0.0356538
0.216136 0.665724 0.10479 0.640179 0.643353 0.419843
0.0330085 -0.224205 -0.513309 -0.272481 -0.543054 -0.794258
-0.12513 -0.375522 0.248094 0.195092 -0.895857 0.399224
0.0880606 -0.468411 0.0414553 0.696673 -0.716503 0.0356539
0.0424026 0.210666 0.279546 -0.597242 -0.551745 0.582134
0.448064 0.200123 -0.133935 0.597242 0.551745 -0.582134
0.269726 -0.300926 -0.142475 0.696673 -0.716503 0.0356539
-0.330479 0.0409619 -0.426312 -0.397429 -0.426851 -0.812311
-0.330158 0.225377 -0.194925 -0.696673 0.716503 -0.0356539
0.477716 -0.0784864 0.263588 0.696673 -0.716503 0.0356539
0.337684 -0.0632106 -0.496767 0.597242 0.551745 -0.582134
-0.27741 -0.157108 0.209166 0.221656 0.262251 0.939198
0.503718 0.342722 0.188988 0.397429 0.426851 0.812311
0.261049 -0.149323 0.16267 -0.597242 -0.551745 0.582134
0.201498 0.121333 -0.461577 0.597242 0.551745 -0.582134
0.173616 0.508429 0.214366 0.397429 0.426851 0.812311
0.361415 -0.152365 -0.55692 0.597242 0.551745 -0.582134
0.623623 0.0631153 0.195345 0.786177 -0.546443 0.288662
-0.251253 0.284305 -0.548122 -0.724021 0.683159 -0.0953284
-0.237286 0.266629 0.0456403 -0.597242 -0.551745 0.582134
0.408383 -0.120543 -0.478572 0.597242 0.551745 -0.582134
-0.112072 0.450601 0.0698119 -0.696673 0.716503 -0.0356539
0.139318 0.399584 -0.261646 0.597242 0.551745 -0.582134
-0.132776 0.335563 -0.60148 0.597242 0.551745 -0.582134
0.098519 -0.0270425 0.180265 -0.597242 -0.551745 0.582134
-0.275793 -0.534235 -0.0346076 0.150966 -0.894199 0.421447
-0.0948523 0.395019 -0.504622 0.43008 0.695331 -0.5758
0.369708 0.350909 0.239213 -0.116822 0.777898 0.617436
0.414716 0.206216 -0.162373 0.597242 0.551745 -0.582134
-0.147177 -0.569343 0.0149 -0.584289 -0.537878 0.607695
-0.100405 0.206782 0.129351 -0.597242 -0.551745 0.582134
-0.376809 0.181123 -0.172703 -0.696673 0.716503 -0.0356538
0.348661 0.302234 -0.139138 0.597242 0.551745 -0.582134
0.0425784 -0.444152 0.205382 0.397429 0.426851 0.812311
-0.100984 0.430682 -0.439563 -0.353756 0.888069 -0.293582
0.167105 0.58981 0.174788 0.397429 0.426851 0.812311
-0.242325 0.317212 -0.0656522 -0.696673 0.716503 -0.0356539
0.543468 0.0531856 -0.175322 0.597242 0.551745 -0.582134
0.589621 0.0453339 0.239731 0.778606 -0.224592 0.585945
-0.028045 0.340537 0.330362 -0.597242 -0.551745 0.582134
0.168006 -0.392151 0.0118546 0.696673 -0.716503 0.0356539
0.176218 0.0929765 -0.514389 0.597242 0.551745 -0.582134
-0.442948 -0.0630016 0.178691 -0.584289 -0.537878 0.607695
-0.0944094 0.0537966 0.0196505 -0.0169628 0.0332119 0.999304
-0.155466 0.415055 0.207286 -0.738722 0.673971 0.00726875
0.317871 -0.250742 -0.0747156 0.696673 -0.716503 0.0356539
-0.00206696 -0.338703 0.171814 0.397429 0.426851 0.812311
0.0272544 0.301798 0.350074 -0.566386 -0.518848 0.640315
0.230137 -0.110771 0.167495 -0.597242 -0.551745 0.582134
0.194494 0.15105 -0.440597 0.597242 0.551745 -0.582134
-0.174123 0.38736 0.0113982 -0.696673 0.716503 -0.0356539
0.167985 0.287198 -0.338753 0.597242 0.551745 -0.582134
0.103703 0.429656 -0.269683 0.597242 0.551745 -0.582134
0.0659842 0.294412 -0.436564 0.597242 0.551745 -0.582134
0.292006 -0.288784 -0.333809 0.696673 -0.716503 0.0356539
-0.524933 0.0344753 -0.225413 -0.696673 0.716503 -0.0356538
-0.53102 -0.0319267 0.121515 -0.584289 -0.537878 0.607695
0.497282 0.173984 0.231754 0.397429 0.426851 0.812311
0.319549 0.410176 0.194598 0.397429 0.426851 0.812311
-0.234724 -0.169251 -0.362699 -0.397429 -0.426851 -0.812311
0.263412 0.315273 -0.21424 0.597242 0.551745 -0.582134
0.220334 0.57948 -0.00802204 0.597242 0.551745 -0.582134
0.56387 0.139884 -0.0722182 0.597242 0.551745 -0.582134
0.204585 -0.306755 -0.505379 -0.397429 -0.426851 -0.812311
-0.506383 0.0566044 -0.143166 -0.696673 0.716503 -0.0356538
0.0834173 -0.11843 -0.594108 -0.397429 -0.426851 -0.812311
0.0305031 0.166264 -0.594424 0.597242 0.551745 -0.582134
-0.0782965 -0.60287 -0.209338 -0.197221 -0.602489 -0.773377
-0.394507 -0.144475 -0.297543 -0.397429 -0.426851 -0.812311
0.0792799 0.175838 -0.535307 0.597242 0.551745 -0.582134
0.25498 -0.325104 -0.340232 0.696673 -0.716503 0.0356539
0.245613 0.199227 -0.34249 0.597242 0.551745 -0.582134
-0.00784727 0.0790824 0.103278 -0.597242 -0.551745 0.582134
-0.353745 -0.424336 0.0102027 -0.584289 -0.537878 0.607696
-0.016735 0.140373 -0.627561 -0.121289 -0.166625 -0.978532
0.30622 0.209121 -0.270932 0.597242 0.551745 -0.582134
0.476157 -0.0306479 0.348731 0.510669 0.298088 0.806449
0.226952 0.287037 -0.278409 0.597242 0.551745 -0.582134
0.185323 -0.39096 -0.302575 0.696673 -0.716503 0.0356539
-0.203558 -0.41772 0.160155 -0.530712 -0.589809 0.608662
-0.313577 0.231476 -0.396334 -0.696673 0.716503 -0.0356538
0.271615 -0.0241997 0.292102 -0.597242 -0.551745 0.582134
-0.355385 -0.2337 -0.269799 -0.397429 -0.426851 -0.812311
-0.311868 0.206165 0.0366682 0.3022 0.517497 0.800545
-0.20516 0.331763 -0.499432 -0.696673 0.716503 -0.0356539
0.276341 -0.278612 0.0220868 0.311787 -0.895374 0.317954
0.117703 -0.135131 -0.602107 -0.397429 -0.426851 -0.812311
0.0383399 0.462625 -0.305494 0.597242 0.551745 -0.582134
-0.0629339 -0.561681 -0.240536 -0.397429 -0.426851 -0.812311
0.35498 -0.222795 -0.238206 0.696673 -0.716503 0.0356539
-0.450929 -0.281511 -0.19793 -0.397429 -0.426851 -0.812311
-0.225806 0.142494 -0.530877 -0.397429 -0.426851 -0.812311
-0.341105 0.205711 -0.376216 -0.696673 0.716503 -0.0356538
-0.0903447 0.0113907 0.031038 0.397429 0.426851 0.812311
0.0544847 0.616659 0.152434 -0.696673 0.716503 -0.0356539
0.0367193 -0.0114756 0.131563 -0.62249 -0.524938 0.58047
0.0830515 0.160099 0.273323 -0.597242 -0.551745 0.582134
0.173102 -0.400739 -0.260309 0.696673 -0.716503 0.0356539
-0.335533 -0.370012 0.0750946 -0.665578 -0.44562 0.598689
-0.606162 -0.0363689 -0.061903 -0.696673 0.716503 -0.0356538
-0.202216 -0.471231 -0.254437 0.23082 -0.813328 -0.53406
0.057741 -0.138385 0.0863405 0.397429 0.426851 0.812311
-0.182865 0.278424 -0.623314 -0.397429 -0.426851 -0.812311
-0.184008 -0.438637 0.135235 0.195092 -0.895857 0.399224
0.152304 -0.33679 -0.464018 -0.397429 -0.426851 -0.812311
-0.00479069 0.559492 0.16183 -0.696673 0.716503 -0.0356539
0.0398854 0.203385 -0.549615 0.597242 0.551745 -0.582134
0.0478278 0.59819 -0.0886419 -0.696673 0.716503 -0.0356539
0.131849 -0.151634 0.0279274 -0.597242 -0.551745 0.582134
0.406181 -0.178752 -0.353575 0.696673 -0.716503 0.0356539
0.328775 0.0854281 0.40098 0.726683 -0.0650521 0.683886
-0.302591 -0.170028 -0.329087 -0.397429 -0.426851 -0.812311
0.180685 -0.0571125 0.230557 -0.262393 -0.7954 0.546342
-0.0203642 0.326178 -0.495046 0.597242 0.551745 -0.582134
0.227633 0.653642 0.0707287 0.656395 0.616598 -0.434687
0.404198 -0.155383 0.154803 0.696673 -0.716503 0.0356539
-0.0572247 0.350343 -0.509959 0.597242 0.551745 -0.582134
-0.0742883 0.454697 -0.398113 -0.26904 0.900524 -0.341575
-0.487123 0.0875378 0.102121 -0.696673 0.716503 -0.0356539
-0.0230267 0.534376 0.0134346 -0.696673 0.716503 -0.0356539
-0.204076 0.260456 -0.603495 -0.397429 -0.426851 -0.812311
0.268828 -0.08003 -0.583351 0.597242 0.551745 -0.582134
0.566874 0.00352919 0.169642 0.696673 -0.716503 0.0356539
-0.168121 -0.207665 -0.415156 -0.726676 0.0650361 -0.683894
-0.168524 0.342806 -0.6142 -0.00281692 0.885787 -0.464083
0.217471 0.559196 0.166233 0.397429 0.426851 0.812311
-0.090737 -0.634093 -0.176754 0.154117 -0.791217 -0.591797
0.218049 0.231573 -0.340111 0.597242 0.551745 -0.582134
0.131231 0.688115 0.0888105 -0.696673 0.716503 -0.0356539
0.39144 0.155549 0.339151 0.622038 0.139554 0.77045
-0.166478 -0.591766 -0.174067 -0.397429 -0.426851 -0.812311
-0.391428 0.172097 -0.0684378 -0.696673 0.716503 -0.0356539
-0.0809629 0.485173 0.156706 -0.696673 0.716503 -0.0356539
0.551542 0.0144375 -0.202329 0.735378 0.381343 -0.560176
-0.0804527 0.471533 -0.127362 -0.696673 0.716503 -0.0356539
0.39074 -0.189302 -0.26388 0.696673 -0.716503 0.0356539
-0.222085 0.342951 0.078815 -0.81061 0.578192 0.0927694
0.518072 0.0470489 -0.207194 0.597242 0.551745 -0.582134
0.313627 -0.222533 -0.602985 -0.397429 -0.426851 -0.812311
-0.455344 -0.316342 -0.177466 -0.397429 -0.426851 -0.812311
0.337623 -0.22679 0.0206684 0.696673 -0.716503 0.0356539
0.323646 -0.248532 -0.14315 0.696673 -0.716503 0.0356539
0.137581 -0.438696 -0.329009 0.696673 -0.716503 0.0356539
-0.264888 0.142801 -0.511917 -0.397429 -0.426851 -0.812311
-0.103174 0.462757 0.140244 -0.696673 0.716503 -0.0356539
-0.19716 0.335153 -0.587626 -0.696673 0.716503 -0.0356539
-0.110841 0.448739 0.327392 -0.916386 0.138474 0.375582
0.270449 -0.23023 0.0956307 -0.597242 -0.551745 0.582134
-0.526198 -0.150213 -0.230098 -0.397429 -0.426851 -0.812311
0.0424368 0.1385 0.211182 -0.597242 -0.551745 0.582134
-0.234309 -0.345592 -0.31929 -0.397429 -0.426851 -0.812311
-0.0687441 0.474324 -0.300072 -0.696673 0.716503 -0.0356539
-0.287457 -0.0693545 -0.389393 -0.397429 -0.426851 -0.812311
-0.294012 0.26527 -0.0995306 -0.696673 0.716503 -0.0356539
0.505722 -0.0766678 -0.247111 0.696673 -0.716503 0.0356539
0.0481934 -0.232744 0.0915444 0.397429 0.426851 0.812311
0.102358 -0.171539 -0.572118 -0.119267 -0.656633 -0.74472
0.563316 0.122851 0.226315 0.397429 0.426851 0.812311
-0.241415 -0.314894 -0.331944 -0.397429 -0.426851 -0.812311
0.22822 0.48995 0.197361 0.397429 0.426851 0.812311
0.210413 0.0160904 0.335944 -0.597242 -0.551745 0.582134
-0.451294 -0.0717771 -0.307961 -0.397429 -0.426851 -0.812311
0.389326 0.198614 0.32068 0.397429 0.426851 0.812311
0.534205 0.331175 0.0786528 0.597242 0.551745 -0.582134
0.507896 0.295405 0.0177573 0.597242 0.551745 -0.582134
-0.580381 -0.15141 -0.202959 -0.397429 -0.426851 -0.812311
-0.440185 0.1154 -0.255121 -0.696673 0.716503 -0.0356538
-0.385099 -0.453261 -0.188938 -0.397429 -0.426851 -0.812311
-0.280447 -0.323524 0.169907 -0.584289 -0.537878 0.607696
0.644349 0.083817 -0.0203153 0.916386 -0.138474 -0.375583
0.461004 -0.0460073 -0.353941 0.597242 0.551745 -0.582134
0.0528952 0.170225 0.251981 -0.597242 -0.551745 0.582134
0.346067 -0.241498 -0.43991 0.696673 -0.716503 0.0356539
0.012828 -0.281246 0.134334 0.397429 0.426851 0.812311
-0.0572013 -0.164922 0.156521 0.397429 0.426851 0.812311
-0.413883 -0.257568 0.0344236 -0.584289 -0.537878 0.607695
0.532444 -0.0328399 0.111512 0.696673 -0.716503 0.0356539
0.580982 0.0108779 0.0416443 0.696673 -0.716503 0.0356539
0.0455462 -0.406235 0.184005 0.397429 0.426851 0.812311
-0.0336264 0.442487 0.350412 0.397429 0.426851 0.812311
0.222717 -0.249405 -0.544386 -0.397429 -0.426851 -0.812311
-0.63785 -0.0712662 -0.144026 -0.696673 0.716503 -0.0356538
-0.0792186 -0.343741 -0.390972 -0.0416228 -0.703498 -0.709477
-0.0827914 0.249737 0.188134 -0.597242 -0.551745 0.582134
0.202935 0.404468 0.254651 0.397429 0.426851 0.812311
0.116036 -0.100367 0.128739 -0.597242 -0.551745 0.582134
-0.484848 0.087879 0.0645241 -0.696673 0.716503 -0.0356538
0.0539047 -0.325753 -0.421675 -0.397429 -0.426851 -0.812311
0.339236 -0.239441 -0.265081 0.696673 -0.716503 0.0356539
0.297378 0.298252 -0.195525 0.597242 0.551745 -0.582134
-0.0304621 0.393405 -0.441688 0.597242 0.551745 -0.582134
0.242596 -0.0395806 -0.571926 0.597242 0.551745 -0.582134
-0.0600586 -0.622458 -0.16594 0.642782 -0.763366 -0.0640524
0.0108312 -0.487658 0.225143 -0.0960999 -0.276091 0.956315
-0.558662 -0.0597599 0.0703026 -0.584289 -0.537878 0.607695
0.215477 -0.127243 0.136843 -0.597242 -0.551745 0.582134
0.287276 0.351653 -0.155276 0.597242 0.551745 -0.582134
-0.300042 -0.223095 0.174391 -0.584289 -0.537878 0.607695
0.574036 0.261384 0.0533695 0.597242 0.551745 -0.582134
0.533924 -0.0274833 0.190248 0.696673 -0.716503 0.0356539
-0.0298041 -0.587688 -0.219823 0.375977 -0.833704 -0.404448
-0.54735 0.0145244 -0.188332 -0.696673 0.716503 -0.0356538
0.213985 0.274776 0.317395 0.397429 0.426851 0.812311
0.0180935 0.532325 -0.251734 0.176262 0.83323 -0.52408
0.555703 0.345844 0.114659 0.608883 0.564289 -0.55753
0.192564 -0.366849 0.040468 0.696673 -0.716503 0.0356539
0.0346738 -0.0456041 -0.608172 -0.479721 -0.335931 -0.810567
0.62345 0.211786 0.150161 0.397429 0.426851 0.812311
0.408041 -0.15677 0.0518366 0.696673 -0.716503 0.0356539
-0.264563 -0.53868 -0.0687352 0.673624 -0.73671 0.0590601
0.0658814 0.259167 0.349583 -0.587308 -0.541103 0.601894
0.230987 -0.130727 -0.610395 -0.324918 -0.359551 -0.87473
-0.198666 -0.321935 0.249946 -0.584289 -0.537878 0.607696
0.426607 -0.154219 -0.259681 0.696673 -0.716503 0.0356539
-0.0374481 0.312638 -0.525407 0.597242 0.551745 -0.582134
-0.337431 0.0614058 0.125645 0.397429 0.426851 0.812311
0.153344 -0.225525 0.0363057 0.397429 0.426851 0.812311
0.392497 -0.118377 0.324081 -0.389799 -0.722857 0.570557
-0.0464908 0.380852 -0.47003 0.597242 0.551745 -0.582134
-0.377085 0.177091 -0.248335 -0.696673 0.716503 -0.0356538
0.49217 -0.0854636 -0.159071 0.696673 -0.716503 0.0356539
0.342266 -0.168532 -0.591889 0.597242 0.551745 -0.582134
0.19458 -0.0853465 0.155113 -0.597242 -0.551745 0.582134
-0.308668 -0.364715 -0.27268 -0.447355 -0.373261 -0.812742
0.269074 -0.185317 0.136789 -0.597242 -0.551745 0.582134
-0.595292 -0.0821739 0.0152449 -0.584289 -0.537878 0.607695
0.109059 0.101309 0.296287 -0.907638 0.0525173 0.416456
0.241052 -0.316731 0.0114071 0.797959 -0.482059 0.361774
-0.231121 -0.205615 -0.345353 -0.397429 -0.426851 -0.812311
-0.53147 -0.198521 -0.0263712 -0.584289 -0.537878 0.607695
0.157481 0.691221 0.0488448 0.0422259 0.875779 -0.480861
0.570673 0.153899 0.206401 0.397429 0.426851 0.812311
-0.529705 0.0382326 -0.0566573 -0.696673 0.716503 -0.0356538
-0.4165 0.1408 0.107686 -0.232308 0.813693 0.532857
-0.115318 -0.296977 -0.403053 -0.397429 -0.426851 -0.812311
0.29203 0.120727 -0.36927 0.597242 0.551745 -0.582134
0.275018 0.606981 0.0764187 0.683354 0.647756 -0.336808
-0.306142 0.0837398 0.0986004 0.397429 0.426851 0.812311
0.150729 -0.125628 -0.620345 -0.119994 -0.656163 -0.745018
0.448042 0.137259 0.275143 0.397429 0.426851 0.812311
-0.259504 0.0113953 0.113798 0.397429 0.426851 0.812311
-0.404551 -0.351798 -0.183686 -0.397429 -0.426851 -0.812311
0.18915 0.654464 0.130028 0.397429 0.426851 0.812311
-0.403723 -0.48232 -0.164556 -0.397429 -0.426851 -0.812311
0.262383 0.436977 -0.0999458 0.597242 0.551745 -0.582134
-0.118936 0.268857 0.169174 -0.597242 -0.551745 0.582134
-0.390686 0.161938 0.0864141 -0.158572 0.792698 0.58863
-0.244444 0.298153 -0.407257 -0.696673 0.716503 -0.0356539
-0.262761 -0.296026 0.211011 -0.63461 -0.482954 0.603345
0.510926 0.245028 0.221491 0.779054 -0.226469 0.584626
-0.208461 0.0541808 -0.492957 -0.397429 -0.426851 -0.812311
-0.443653 -0.163484 0.0890746 -0.584289 -0.537878 0.607695
-0.479105 -0.33381 -0.09577 -0.584289 -0.537878 0.607695
-0.063219 0.490363 -0.085711 -0.696673 0.716503 -0.0356539
0.0350596 -0.268515 -0.442532 -0.397429 -0.426851 -0.812311
-0.0409734 0.199966 0.183865 -0.597242 -0.551745 0.582134
-0.0050502 0.402172 -0.407307 0.597242 0.551745 -0.582134
-0.0636931 -0.12461 0.138514 0.397429 0.426851 0.812311
-0.335579 -0.169159 -0.313403 -0.397429 -0.426851 -0.812311
0.468896 0.147477 -0.16246 0.597242 0.551745 -0.582134
-0.170718 -0.377648 -0.333557 -0.397429 -0.426851 -0.812311
-0.270973 -0.357959 0.148538 -0.584289 -0.537878 0.607696
0.541929 0.215039 -0.0234971 0.597242 0.551745 -0.582134
-0.245065 0.295254 -0.45338 -0.696673 0.716503 -0.0356539
-0.00753478 -0.472999 -0.314241 -0.397429 -0.426851 -0.812311
-0.557262 0.00297708 -0.226701 -0.696673 0.716503 -0.0356538
-0.286906 -0.109722 -0.36845 -0.397429 -0.426851 -0.812311
-0.14745 -0.175524 -0.431034 -0.798642 0.342149 -0.495081
-0.597246 -0.0257675 -0.0230753 -0.696673 0.716503 -0.0356538
-0.495105 0.0715163 -0.0638769 -0.696673 0.716503 -0.0356538
-0.285413 0.261264 -0.348039 -0.696673 0.716503 -0.0356539
-0.0957682 -0.208952 -0.458873 -0.397429 -0.426851 -0.812311
0.0589786 -0.331687 0.13826 0.397429 0.426851 0.812311
-0.0539864 -0.22604 0.187065 0.397429 0.426851 0.812311
-0.545517 -0.0580123 -0.269095 -0.397429 -0.426851 -0.812311
-0.159174 -0.678686 -0.113083 -0.456646 -0.885796 -0.0827007
0.432089 -0.134325 0.0329974 0.696673 -0.716503 0.0356539
-0.177189 -0.354737 0.241561 -0.584289 -0.537878 0.607696
0.379233 -0.179562 0.156698 0.696673 -0.716503 0.0356539
0.125838 0.0811953 -0.577244 0.597242 0.551745 -0.582134
-0.493192 0.0709071 -0.1135 -0.696673 0.716503 -0.0356538
-0.299304 -0.333452 0.142584 -0.665573 -0.445626 0.59869
-0.398131 -0.235131 0.0694272 -0.584289 -0.537878 0.607695
-0.22738 0.337085 0.0417081 -0.696673 0.716503 -0.0356539
0.108076 -0.152734 0.055868 0.768962 -0.18754 0.611168
-0.579266 -0.0140816 0.0629639 -0.906037 0.275977 0.320833
0.148503 -0.419353 -0.153713 0.696673 -0.716503 0.0356539
0.127733 0.301009 -0.36696 0.597242 0.551745 -0.582134
0.133869 -0.28571 0.0774597 0.397429 0.426851 0.812311
-0.503178 -0.072223 0.112618 -0.584289 -0.537878 0.607695
-0.258145 0.304147 -0.0190745 -0.696673 0.716503 -0.0356539
-0.317849 -0.354766 0.106049 -0.634628 -0.482933 0.603343
0.667228 0.11463 0.163115 0.787117 -0.263741 0.557572
-0.556527 -0.247873 -0.0941455 -0.584289 -0.537878 0.607695
0.220708 -0.327881 0.0381764 0.793731 -0.302244 0.527864
0.515621 -0.0343188 0.304077 0.79796 -0.482054 0.36178
0.170163 -0.160941 0.058414 -0.597242 -0.551745 0.582134
0.0259183 0.578626 -0.053702 -0.696673 0.716503 -0.0356539
-0.259661 0.243399 -0.562778 -0.645648 -0.0998809 -0.757075
-0.145365 -0.127527 0.130955 0.397429 0.426851 0.812311
-0.0164806 0.549904 0.197562 -0.696673 0.716503 -0.0356539
-0.234126 0.208572 -0.561529 -0.397429 -0.426851 -0.812311
-0.290597 -0.00856876 0.139501 0.397429 0.426851 0.812311
-0.511812 0.0664058 0.162109 -0.681938 0.730579 0.0348619
0.287521 0.156729 0.392499 0.397429 0.426851 0.812311
-0.137995 0.119392 -0.561699 -0.397429 -0.426851 -0.812311
-0.29252 0.262049 -0.193417 -0.696673 0.716503 -0.0356539
-0.506341 0.051084 -0.254937 -0.696673 0.716503 -0.0356538
-0.0518848 0.499572 -0.122103 -0.696673 0.716503 -0.0356539
-0.230152 0.327427 -0.0982299 -0.696673 0.716503 -0.0356539
0.537677 0.28426 0.0377492 0.597242 0.551745 -0.582134
0.279765 -0.133873 0.196515 -0.597242 -0.551745 0.582134
-0.184715 -0.210414 0.241488 0.234559 0.573915 0.784604
-0.430384 0.077759 -0.394841 -0.568844 -0.220285 -0.792396
0.454583 -0.132721 -0.374315 0.711119 -0.702747 0.0213579
0.380558 -0.0581853 0.370547 -0.520504 -0.470647 0.712437
0.358106 0.504595 0.0623498 0.597242 0.551745 -0.582134
-0.0231421 0.300021 0.296991 -0.597242 -0.551745 0.582134
0.0966583 -0.375395 -0.416506 -0.397429 -0.426851 -0.812311
0.444966 -0.131737 -0.427111 0.917629 -0.182163 -0.353233
0.154866 -0.420513 -0.301372 0.696673 -0.716503 0.0356539
0.139263 0.556728 0.205794 0.397429 0.426851 0.812311
0.426724 -0.151209 -0.201481 0.696673 -0.716503 0.0356539
0.38562 0.428558 0.0185105 0.597242 0.551745 -0.582134
0.0658555 -0.493931 -0.0375073 0.696673 -0.716503 0.0356539
-0.161249 -0.335314 0.268732 -0.360693 -0.306883 0.880752
0.113237 0.664534 0.0118971 -0.512145 0.837705 -0.189625
0.095299 -0.276359 0.0914167 0.397429 0.426851 0.812311
0.0929195 0.19512 -0.503038 0.597242 0.551745 -0.582134
0.000870757 -0.119084 -0.553378 -0.397429 -0.426851 -0.812311
-0.16192 0.390447 -0.165033 -0.696673 0.716503 -0.0356539
0.554869 0.24697 0.0200434 0.597242 0.551745 -0.582134
0.45048 0.423454 0.0807782 0.643226 0.601942 -0.473209
0.174305 -0.396427 -0.197157 0.696673 -0.716503 0.0356539
0.102559 -0.470341 -0.280636 0.696673 -0.716503 0.0356539
-0.125912 -0.557491 0.0458375 -0.584289 -0.537878 0.607695
-0.562313 -0.26249 -0.146559 -0.646577 -0.64866 -0.40147
0.0274524 -0.525469 0.0790849 0.696673 -0.716503 0.0356539
0.28861 0.405511 -0.102862 0.597242 0.551745 -0.582134
0.446474 0.349409 0.00592636 0.597242 0.551745 -0.582134
0.0661857 0.406789 -0.329847 0.597242 0.551745 -0.582134
0.0758562 -0.0766801 -0.612347 -0.397429 -0.426851 -0.812311
-0.3891 -0.461084 -0.056317 -0.584289 -0.537878 0.607696
-0.119562 0.151052 0.0568767 -0.597242 -0.551745 0.582134
-0.361648 0.0949411 -0.439428 -0.397429 -0.426851 -0.812311
-0.529855 -0.228564 -0.0514097 -0.584289 -0.537878 0.607695
-0.130883 0.41636 -0.25072 -0.696673 0.716503 -0.0356539
-0.296643 -0.0269653 -0.407173 -0.397429 -0.426851 -0.812311
0.240981 0.389628 0.243835 0.397429 0.426851 0.812311
0.379709 0.256176 -0.150937 0.597242 0.551745 -0.582134
0.168456 0.680002 0.126005 0.272486 0.543051 0.794259
0.5872 0.229492 0.036647 0.597242 0.551745 -0.582134
0.165487 0.135364 -0.485224 0.597242 0.551745 -0.582134
0.297389 -0.288928 -0.441897 0.696673 -0.716503 0.0356539
-0.542537 -0.277534 -0.107031 -0.611348 -0.566955 0.552101
0.0668044 -0.0293654 0.145526 -0.597242 -0.551745 0.582134
0.173645 -0.306459 0.0689023 0.397429 0.426851 0.812311
-0.184403 -0.324779 -0.354644 -0.397429 -0.426851 -0.812311
-0.253631 0.299171 -0.20728 -0.696673 0.716503 -0.0356539
-0.107441 -0.406162 0.197539 -0.584289 -0.537878 0.607696
-0.256988 0.294648 0.0274114 -0.917582 0.192093 0.348057
-0.387227 -0.312301 -0.212916 -0.397429 -0.426851 -0.812311
0.563124 0.318223 0.0960461 0.597242 0.551745 -0.582133
0.04941 -0.361487 0.158601 0.397429 0.426851 0.812311
0.499789 0.237941 -0.0450242 0.597242 0.551745 -0.582134
0.142765 0.0682658 0.315992 -0.597242 -0.551745 0.582134
0.329646 -0.125143 -0.563713 0.597242 0.551745 -0.582134
-0.219154 0.0111647 0.0941777 0.397429 0.426851 0.812311
0.343262 0.359153 0.209807 0.397429 0.426851 0.812311
-0.134255 0.0268718 0.0443865 0.397429 0.426851 0.812311
0.185539 0.547171 -0.0743426 0.597242 0.551745 -0.582134
-0.185152 0.287289 0.118709 -0.597242 -0.551745 0.582134
-0.106397 -0.0799712 0.0869004 0.397429 0.426851 0.812311
0.21571 -0.205708 -0.56392 -0.397429 -0.426851 -0.812311
0.227657 0.494738 -0.0808269 0.597242 0.551745 -0.582134
0.133534 0.631603 -0.0475065 0.544374 0.602958 -0.583179
0.515224 -0.0418663 0.266595 0.696673 -0.716503 0.0356539
-0.0458046 -0.436884 -0.314494 -0.397429 -0.426851 -0.812311
-0.137874 0.405514 -0.332086 -0.696673 0.716503 -0.0356539
-0.19088 -0.558763 -0.17947 -0.397429 -0.426851 -0.812311
0.256431 0.588514 0.131766 0.397429 0.426851 0.812311
0.486903 0.0601034 -0.226799 0.597242 0.551745 -0.582134
0.18803 -0.0266388 -0.615642 0.597242 0.551745 -0.582134
0.0100826 0.331657 0.356252 -0.411997 -0.358919 0.837518
0.0387716 0.46037 0.305594 0.397429 0.426851 0.812311
0.0625125 0.514336 0.265621 0.397429 0.426851 0.812311
0.270106 -0.3154 -0.440786 0.696673 -0.716503 0.0356539
-0.0944946 -0.245233 -0.440432 -0.397429 -0.426851 -0.812311
0.260041 0.146733 -0.37744 0.597242 0.551745 -0.582134
0.14984 0.120841 -0.515042 0.597242 0.551745 -0.582134
-0.210124 0.348398 -0.0681255 -0.696673 0.716503 -0.0356539
-0.318424 -0.302469 -0.251746 -0.397429 -0.426851 -0.812311
0.085115 0.419904 -0.297996 0.597242 0.551745 -0.582134
-0.182349 0.205332 0.0439053 -0.597242 -0.551745 0.582134
-0.24862 0.0693365 -0.481273 -0.397429 -0.426851 -0.812311
0.593216 0.0176849 -0.0606173 0.696673 -0.716503 0.0356539
0.66828 0.185847 0.141701 0.440282 0.466278 0.767292
0.0519658 -0.516193 -0.213491 0.696673 -0.716503 0.0356539
-0.325311 -0.323175 0.102109 -0.908484 0.239118 0.342753
-0.341778 -0.0922908 0.206244 0.196785 0.238659 0.950956
0.442315 -0.128815 -0.0560829 0.696673 -0.716503 0.0356539
-0.376959 0.170456 -0.384151 -0.696673 0.716503 -0.0356538
0.470123 0.0356082 0.317755 0.397429 0.426851 0.812311
-0.268008 -0.201227 -0.329612 -0.397429 -0.426851 -0.812311
-0.116165 0.440505 -0.0531048 -0.696673 0.716503 -0.0356539
-0.362957 -0.0236132 -0.37649 -0.397429 -0.426851 -0.812311
-0.194285 0.140388 0.0166904 0.190025 0.232234 0.953917
0.258499 0.32723 0.268053 0.397429 0.426851 0.812311
0.219375 -0.362844 -0.402952 0.696673 -0.716503 0.0356539
-0.273651 0.262851 -0.529883 -0.754354 0.632987 -0.174001
0.172529 -0.395347 -0.14076 0.696673 -0.716503 0.0356539
-0.356741 0.0375678 0.147619 0.397429 0.426851 0.812311
0.0736319 0.0335622 0.211601 -0.693337 -0.440092 0.570616
-0.110684 -0.295086 0.251086 0.397429 0.426851 0.812311
0.0758238 -0.490282 -0.158954 0.696673 -0.716503 0.0356539
0.165559 0.127323 0.395283 -0.614161 -0.533993 0.581083
0.248209 0.256178 -0.285847 0.597242 0.551745 -0.582134
-0.170601 0.384326 -0.118403 -0.696673 0.716503 -0.0356539
0.478841 0.170589 -0.130352 0.597242 0.551745 -0.582134
0.319066 0.446305 -0.0329503 0.597242 0.551745 -0.582134
-0.0195201 0.0421533 -0.579077 -0.397429 -0.426851 -0.812311
0.468313 0.290136 0.233943 0.397429 0.426851 0.812311
0.10792 0.608642 -0.0950054 0.507468 0.635305 -0.58212
0.425704 -0.135695 0.130221 0.696673 -0.716503 0.0356539
0.407735 -0.0337287 0.380857 0.121308 0.166643 0.978527
0.18652 0.583389 -0.0390091 0.597242 0.551745 -0.582134
0.312716 0.231272 -0.243273 0.597242 0.551745 -0.582134
-0.0400287 0.230883 0.214137 -0.597242 -0.551745 0.582134
0.242232 -0.33586 -0.307292 0.696673 -0.716503 0.0356539
-0.124605 0.303942 0.196611 -0.597242 -0.551745 0.582134
0.461618 -0.111778 -0.0909005 0.696673 -0.716503 0.0356539
-0.49182 -0.00706168 -0.32214 -0.397429 -0.426851 -0.812311
-0.611123 -0.0961931 -0.0123845 -0.584289 -0.537878 0.607695
-0.00744851 0.539598 -0.186022 -0.696673 0.716503 -0.0356539
-0.351626 0.200977 -0.265782 -0.696673 0.716503 -0.0356538
0.0474176 0.0368435 0.170032 -0.91323 0.0973679 0.395639
-0.182006 0.171873 0.019326 -0.362402 -0.30861 0.879445
0.528385 0.141749 0.233475 0.397429 0.426851 0.812311
0.323472 -0.227935 0.11858 0.311787 -0.895374 0.317954
0.32254 0.0522366 0.376786 0.112643 0.158338 0.980939
-0.0467606 0.0643995 0.0494378 -0.597242 -0.551745 0.582134
-0.391209 0.17461 -0.022196 -0.696673 0.716503 -0.0356539
-0.293774 0.249529 -0.420499 -0.696673 0.716503 -0.0356538
-0.293707 0.255249 -0.306858 -0.696673 0.716503 -0.0356539
0.0127006 0.550727 -0.213287 -0.311793 0.895373 -0.317951
0.272287 0.521881 -0.00931278 0.597242 0.551745 -0.582134
0.0703325 -0.48422 0.0701547 0.696673 -0.716503 0.0356539
-0.258108 -0.458739 0.0717062 -0.584289 -0.537878 0.607696
0.234017 -0.292943 -0.527037 -0.397429 -0.426851 -0.812311
0.134103 0.601397 -0.0757186 0.597242 0.551745 -0.582134
-0.180652 0.0261291 -0.491822 -0.397429 -0.426851 -0.812311
0.275612 0.232306 -0.28036 0.597242 0.551745 -0.582134
0.275743 0.257865 -0.256001 0.597242 0.551745 -0.582134
0.425365 -0.164048 -0.432929 0.696673 -0.716503 0.0356539
-0.0316442 -0.108958 -0.542621 -0.447611 -0.372975 -0.812732
-0.0934257 0.278723 0.204697 -0.597242 -0.551745 0.582134
0.465382 -0.0887124 0.299083 0.696673 -0.716503 0.0356539
0.552759 0.278061 0.177718 0.798643 -0.342159 0.495073
-0.208862 -0.47925 0.0372848 0.673624 -0.73671 0.0590601
-0.034226 -0.0328777 0.0381442 -0.584207 0.796551 0.155595
0.0967216 0.294211 -0.40522 0.597242 0.551745 -0.582134
0.184058 -0.103543 0.127072 -0.597242 -0.551745 0.582134
0.00237454 0.507381 -0.295703 0.306492 0.772641 -0.555958
0.0128123 -0.552421 -0.176469 0.696673 -0.716503 0.0356539
0.295589 0.0343898 0.400815 0.398368 -0.877713 0.266314
-0.381642 -0.0122382 0.185973 0.397429 0.426851 0.812311
0.356825 0.27519 0.296343 0.397429 0.426851 0.812311
-0.464408 0.0757446 0.177589 0.158146 0.630545 0.75987
-0.658484 -0.0936879 -0.0946262 -0.873683 0.437062 0.213669
-0.108483 -0.5143 -0.243148 -0.397429 -0.426851 -0.812311
0.328147 0.086812 -0.36436 0.597242 0.551745 -0.582134
-0.492866 -0.165185 -0.238538 -0.397429 -0.426851 -0.812311
-0.368716 -0.498018 -0.069408 -0.584289 -0.537878 0.607696
-0.132257 0.42961 0.0423981 -0.696673 0.716503 -0.0356539
-0.182974 0.00488656 0.0797755 0.397429 0.426851 0.812311
-0.308356 0.252866 -0.0685111 -0.696673 0.716503 -0.0356539
0.124709 0.26062 -0.408343 0.597242 0.551745 -0.582134
-0.279869 -0.234084 -0.306544 -0.397429 -0.426851 -0.812311
0.386251 0.492504 0.0819571 0.679481 0.643115 -0.35314
-0.432257 -0.299998 -0.0207988 -0.584289 -0.537878 0.607695
0.242672 0.192038 0.395887 0.397429 0.426851 0.812311
0.246298 -0.089109 0.204607 -0.597242 -0.551745 0.582134
0.205992 0.0637244 -0.511567 0.597242 0.551745 -0.582134
-0.0247343 0.207147 -0.612346 0.597242 0.551745 -0.582134
-0.195192 0.0360144 0.0693963 0.397429 0.426851 0.812311
-0.0251459 0.249338 -0.57278 0.597242 0.551745 -0.582134
-0.101465 0.236586 0.156512 -0.597242 -0.551745 0.582134
-0.0959043 0.155015 0.084904 -0.597242 -0.551745 0.582134
0.0882575 -0.464177 0.122702 0.696673 -0.716503 0.0356539
-0.00609623 0.493262 0.310262 0.397429 0.426851 0.812311
-0.0489345 -0.475547 0.192379 -0.584289 -0.537878 0.607696
-0.465425 0.0948465 -0.174969 -0.696673 0.716503 -0.0356538
-0.0590548 0.436035 -0.428305 0.389789 0.722864 -0.570555
-0.570674 0.00193106 0.0143524 -0.696673 0.716503 -0.0356538
-0.341451 -0.206033 -0.291155 -0.397429 -0.426851 -0.812311
0.387468 0.176188 -0.218789 0.597242 0.551745 -0.582134
-0.355416 -0.508697 -0.17433 -0.397429 -0.426851 -0.812311
0.255949 0.266484 0.301221 0.397429 0.426851 0.812311
0.446892 -0.121474 0.00200207 0.696673 -0.716503 0.0356539
0.0527765 0.0761831 0.162727 -0.597242 -0.551745 0.582134
-0.229538 0.318664 -0.286324 -0.696673 0.716503 -0.0356539
0.00815514 0.415982 0.343898 0.397429 0.426851 0.812311
0.528895 -0.0487683 -0.139238 0.696673 -0.716503 0.0356539
0.232493 -0.339151 -0.183128 0.696673 -0.716503 0.0356539
-0.418141 -0.275031 -0.217376 -0.397429 -0.426851 -0.812311
-0.0647531 0.148937 -0.613059 -0.397429 -0.426851 -0.812311
0.123701 0.0250889 0.255511 -0.597242 -0.551745 0.582134
0.217608 -0.165229 0.103027 -0.597242 -0.551745 0.582134
-0.0194806 0.242649 0.24637 -0.597242 -0.551745 0.582134
-0.0610527 0.411709 -0.455724 0.597242 0.551745 -0.582134
0.366153 -0.219077 -0.381808 0.696673 -0.716503 0.0356539
-0.0833412 -0.162358 -0.489437 -0.397429 -0.426851 -0.812311
-0.179982 -0.495257 0.0489338 -0.584289 -0.537878 0.607696
-0.0576527 -0.443788 0.211756 -0.528458 -0.478952 0.700954
0.664345 0.149733 0.16263 0.447596 0.372992 0.812733
0.301109 -0.0910245 -0.560652 0.597242 0.551745 -0.582134
0.230649 0.240453 0.332931 -0.644839 0.761913 0.0605936
-0.022655 0.54083 0.135872 -0.696673 0.716503 -0.0356539
0.12287 0.211989 -0.456322 0.597242 0.551745 -0.582134
-0.676282 -0.140578 -0.150236 -0.892181 -0.291424 -0.345087
0.202687 0.597394 0.153394 0.397429 0.426851 0.812311
0.303401 0.294142 0.297589 -0.23233 0.813689 0.532853
0.541521 0.16867 0.212902 0.397429 0.426851 0.812311
-0.193624 0.193041 -0.573184 -0.397429 -0.426851 -0.812311
0.308433 -0.25459 0.032353 0.696673 -0.716503 0.0356539
-0.0185239 -0.146508 0.127922 0.397429 0.426851 0.812311
-0.390919 0.0875879 -0.421243 -0.397429 -0.426851 -0.812311
-0.379785 0.0217412 0.16721 0.397429 0.426851 0.812311
0.0117593 0.296256 -0.490449 0.597242 0.551745 -0.582134
0.334003 0.332207 0.248673 -0.471197 0.828708 0.302021
0.370618 0.386562 0.18202 0.397429 0.426851 0.812311
-0.503567 -0.221419 -0.0198111 -0.584289 -0.537878 0.607695
0.335094 0.0384534 -0.403067 0.597242 0.551745 -0.582134
-0.26603 0.293056 -0.0879006 -0.696673 0.716503 -0.0356539
0.160888 0.173305 0.385156 -0.838271 0.528996 0.132155
0.083051 0.108941 -0.594843 0.597242 0.551745 -0.582134
-0.208808 -0.101743 -0.410853 -0.397429 -0.426851 -0.812311
-0.216706 -0.622731 -0.113481 -0.716952 -0.697122 0.000642347
-0.0518313 0.0568359 -0.570984 -0.397429 -0.426851 -0.812311
0.140052 0.0222436 -0.618535 0.597242 0.551745 -0.582134
0.507453 -0.054522 0.164118 0.696673 -0.716503 0.0356539
-0.0794702 0.462359 -0.330931 -0.696673 0.716503 -0.0356539
0.248851 -0.0149633 -0.542177 0.597242 0.551745 -0.582134
0.110683 0.148074 -0.529403 0.597242 0.551745 -0.582134
0.214959 0.370068 0.266845 0.397429 0.426851 0.812311
0.138897 -0.42354 -0.0501396 0.696673 -0.716503 0.0356539
0.402197 0.0935958 -0.281958 0.597242 0.551745 -0.582134
-0.190307 -0.459013 0.0771185 0.642637 -0.760994 0.0889139
0.0451331 -0.51528 -0.0616256 0.696673 -0.716503 0.0356539
-0.0105918 -0.111082 0.105426 0.397429 0.426851 0.812311
-0.554999 0.00934992 -0.142853 -0.696673 0.716503 -0.0356538
-0.32254 -0.496229 -0.196966 -0.397429 -0.426851 -0.812311
-0.213031 0.325475 0.118199 -0.858485 -0.139718 0.493439
0.0845419 0.22477 -0.483531 0.597242 0.551745 -0.582134
0.552237 -0.0250039 -0.197305 0.864931 -0.469933 -0.176234
0.195975 -0.373181 -0.153436 0.696673 -0.716503 0.0356539
-0.492846 -0.0407747 0.150388 -0.584289 -0.537878 0.607695
0.258541 -0.314033 -0.187319 0.696673 -0.716503 0.0356539
-0.0491868 0.0141984 -0.549873 -0.397429 -0.426851 -0.812311
-0.00799913 -0.437608 -0.332611 -0.397429 -0.426851 -0.812311
0.422621 0.417923 0.141101 -0.688592 0.724889 -0.0194145
-0.0656735 -0.513465 -0.264532 -0.397429 -0.426851 -0.812311
-0.298719 -0.538171 -0.18448 -0.177768 -0.616686 -0.766875
-0.269277 0.278246 -0.322073 -0.696673 0.716503 -0.0356539
-0.581034 -0.214462 -0.0881359 -0.584289 -0.537878 0.607695
-0.511386 -0.235836 -0.192352 -0.397429 -0.426851 -0.812311
0.307278 -0.147319 -0.604689 0.447979 0.395686 -0.801715
-0.0867605 -0.276612 0.229674 0.397429 0.426851 0.812311
0.576903 0.00359452 -0.0250192 0.696673 -0.716503 0.0356539
0.248586 -0.316435 -0.0410791 0.696673 -0.716503 0.0356539
0.581162 0.2579 0.146619 0.397429 0.426851 0.812311
-0.26303 -0.129334 0.189473 0.397429 0.426851 0.812311
0.238169 -0.0759835 -0.608091 0.45859 0.406243 -0.790356
-0.0329815 0.481679 -0.34927 0.131854 0.849474 -0.510889
0.288412 0.0175422 -0.47078 0.597242 0.551745 -0.582134
0.0809397 -0.487486 -0.202733 0.696673 -0.716503 0.0356539
0.253271 -0.333088 -0.46884 0.665548 -0.745962 -0.0242
0.30075 -0.28368 -0.40212 0.696673 -0.716503 0.0356539
0.0690454 0.488574 -0.249397 0.597242 0.551745 -0.582134
0.0149411 0.00687429 0.101764 -0.917298 0.207346 0.33996
0.0166352 0.0525642 0.103261 -0.597242 -0.551745 0.582134
-0.137556 -0.651069 -0.0504148 -0.37733 -0.709485 0.595191
-0.32388 0.228629 -0.252245 -0.696673 0.716503 -0.0356539
-0.126067 0.434259 0.295516 -0.917629 0.182176 0.353226
0.570357 0.00445179 0.120122 0.696673 -0.716503 0.0356539
0.523957 0.241444 0.190255 0.746203 -0.648353 0.151061
-0.0219712 0.523603 -0.223699 -0.696673 0.716503 -0.0356539
0.00929457 0.571272 0.123346 -0.696673 0.716503 -0.0356539
-0.109657 -0.431967 0.172568 -0.584289 -0.537878 0.607696
-0.589636 -0.100624 -0.225118 -0.397429 -0.426851 -0.812311
0.561901 0.0722542 -0.138338 0.597242 0.551745 -0.582134
-0.405281 -0.429401 -0.0495804 -0.817537 -0.199071 0.540375
-0.655044 -0.119854 -0.177579 -0.66771 -0.0600896 -0.741992
0.489241 -0.0643702 0.316687 0.724024 -0.683157 0.0953198
0.346532 0.49035 0.139266 0.397429 0.426851 0.812311
0.172248 0.155213 0.417912 -0.647002 -0.00566707 0.762467
0.349022 -0.213762 0.0597497 0.696673 -0.716503 0.0356539
-0.08293 -0.465128 0.168915 -0.584289 -0.537878 0.607696
-0.137835 -0.413456 0.16186 -0.584289 -0.537878 0.607696
0.0687847 0.114057 0.215047 -0.597242 -0.551745 0.582134
0.0772767 0.0849089 0.196458 -0.707813 0.705969 -0.0246686
0.364388 -0.206571 -0.0960112 0.696673 -0.716503 0.0356539
-0.250627 0.1698 0.0262168 0.397429 0.426851 0.812311
-0.222189 -0.401019 -0.296094 -0.397429 -0.426851 -0.812311
-0.261183 -0.279478 -0.319412 -0.798466 0.34039 -0.496575
0.571932 0.337018 0.146768 0.691431 0.683882 0.232869
0.0251563 0.588077 0.151108 -0.696673 0.716503 -0.0356539
-0.177067 0.37435 -0.19253 -0.696673 0.716503 -0.0356539
-0.48747 -0.209263 0.00642578 -0.584289 -0.537878 0.607695
-0.0550136 0.0405114 0.0255627 -0.34705 -0.29321 0.890834
-0.104263 -0.338568 0.264134 0.667791 -0.00361107 0.74434
0.331173 0.270329 -0.187319 0.597242 0.551745 -0.582134
-0.387177 -0.379371 -0.0341336 -0.803902 0.587471 0.0928467
0.0412399 0.599203 0.0604244 -0.696673 0.716503 -0.0356539
-0.15131 -0.294426 0.269591 0.255672 0.294418 0.920842
-0.0899044 0.186393 -0.620436 -0.397429 -0.426851 -0.812311
-0.0445205 -0.404083 -0.332359 -0.397429 -0.426851 -0.812311
0.429131 0.30967 -0.049531 0.597242 0.551745 -0.582134
0.222261 -0.353048 -0.262462 0.696673 -0.716503 0.0356539
0.158836 0.250532 0.357116 0.397429 0.426851 0.812311
0.0390343 -0.0132423 -0.616657 -0.742507 0.10589 -0.661415
0.251614 -0.331348 -0.399938 0.696673 -0.716503 0.0356539
0.387555 -0.185513 -0.125483 0.696673 -0.716503 0.0356539
0.256784 0.356248 -0.182205 0.597242 0.551745 -0.582134
-0.119428 0.336126 0.232426 -0.597242 -0.551745 0.582134
-0.484092 -0.171831 0.0428056 -0.584289 -0.537878 0.607695
0.0960955 0.328421 -0.373438 0.597242 0.551745 -0.582134
0.297461 -0.273451 -0.132293 0.696673 -0.716503 0.0356539
0.0218797 0.108793 -0.626472 -0.00627534 -0.0556785 -0.998429
0.19934 -0.376036 -0.276548 0.696673 -0.716503 0.0356539
0.388775 -0.193259 -0.305004 0.696673 -0.716503 0.0356539
0.302715 0.324491 -0.16518 0.597242 0.551745 -0.582134
0.117702 0.257353 0.367001 0.0425766 0.0910008 0.99494
-0.344211 -0.275099 -0.253511 -0.397429 -0.426851 -0.812311
-0.207003 -0.194869 0.215431 -0.479024 0.827509 0.292855
-0.176791 0.369437 -0.296653 -0.696673 0.716503 -0.0356539
-0.226542 0.307912 -0.560942 -0.696673 0.716503 -0.0356538
-0.0155341 -0.311388 -0.408581 0.565854 -0.804235 -0.1817
0.0467292 -0.501527 0.183572 0.696673 -0.716503 0.0356539
-0.270274 -0.478735 0.0423099 -0.584289 -0.537878 0.607696
-0.11296 -0.167496 -0.468519 -0.634511 -0.118938 -0.763708
-0.28667 0.176263 -0.518844 -0.397429 -0.426851 -0.812311
