ply
format ascii 1.0
comment Created by Open3D
element vertex 829
property double x
property double y
property double z
property double nx
property double ny
property double nz
end_header
-0.328587 -0.113324 -0.230945 -0.0877916 0.978578 0.18622
-0.305146 -0.00686356 -0.173388 -0.765266 0.0157819 -0.64352
-0.0768022 -0.13291 -0.150093 0.260088 -0.95051 -0.169957
-0.32811 0.072001 -0.303919 -0.820209 -0.194607 0.537945
0.327759 0.095241 0.323948 0.170326 -0.882968 -0.437443
-0.321044 -0.151779 -0.262885 0.162495 -0.843564 -0.511855
0.090548 0.0477723 0.114403 -0.741289 0.0526164 -0.66912
0.379346 -0.179377 0.32092 0.604823 -0.046891 0.794978
0.227634 0.0794645 0.425661 -0.670076 -0.342877 0.658356
-0.260049 0.0646468 -0.229722 0.209675 -0.796024 -0.567787
0.282065 -0.0242052 0.189782 0.744336 -0.0713279 0.663985
0.327444 0.018185 0.352787 -0.943876 -0.205629 -0.258486
0.0172512 0.0187839 0.0711594 0.625002 -0.10498 0.773532
0.349392 -0.185746 0.305355 0.287734 -0.897631 -0.333867
0.126586 0.060109 0.288753 -0.251016 0.893937 0.371304
-0.292742 0.0260795 -0.119854 -0.721619 -0.249162 0.645898
-0.429655 0.11651 -0.252255 0.198442 -0.936282 -0.289821
-0.272672 0.134007 -0.0812554 -0.357234 0.859692 0.365122
0.0404635 -0.0179627 0.164103 -0.0462304 0.998709 -0.0210302
-0.235532 -0.150624 -0.224503 -0.00538142 -0.994866 -0.101055
0.031962 0.0189821 0.200068 -0.413172 -0.52671 0.742877
-0.170912 0.153512 -0.193831 -0.838884 0.127115 -0.529259
0.206986 0.0758089 0.296199 0.0282954 0.999314 0.0238867
-0.238489 0.00648213 -0.1024 0.344684 -0.93019 -0.126248
0.221613 -0.00225569 0.391255 -0.532307 -0.423727 0.732875
0.173019 -0.115911 0.174417 -0.420107 0.89798 -0.13093
0.206381 -0.125723 0.269129 0.662704 -0.0619693 0.746313
0.268448 0.0444134 0.227402 0.387238 -0.745266 -0.542794
0.124335 0.107478 0.0957285 -0.611293 0.189518 -0.768377
0.351337 -0.152169 0.309561 -0.238918 0.241287 -0.940584
0.331326 0.113406 0.230675 0.836761 0.126519 -0.532751
-0.130782 -0.0578099 0.00058896 -0.688349 -0.326863 0.647562
-0.0402204 0.0263317 0.133859 0.821528 0.0146843 0.569979
0.118627 0.120182 0.12927 -0.275813 0.88529 0.374419
-0.282211 0.0427157 -0.104174 -0.674332 -0.3296 0.660787
0.382499 0.111971 0.328407 0.68341 0.334792 -0.648741
-0.176159 0.0222815 -0.272426 0.808747 0.0640621 -0.584657
-0.188736 0.123815 -0.0946313 -0.137331 0.979281 0.148827
0.356998 -0.146921 0.206931 0.351131 -0.862788 -0.363736
0.149097 -0.0683419 0.00181884 0.383743 0.611882 -0.691622
-0.322973 0.0990127 -0.358115 0.243153 -0.906228 -0.345872
0.056371 -0.0840601 0.166735 -0.595834 -0.515654 0.615696
-0.071892 -0.128846 -0.0511996 0.624669 -0.765297 0.155273
-0.170179 -0.0265581 -0.0827469 -0.657532 -0.269708 -0.703498
-0.260017 0.0867995 -0.0961805 -0.0878825 0.884839 0.457534
0.148613 -0.00455657 0.165218 0.496412 -0.857301 -0.136417
-0.388394 0.0948129 -0.314924 -0.729651 0.0688456 -0.680345
0.153602 0.103906 0.168552 0.93154 0.103452 0.348612
-0.198135 0.12339 -0.17183 0.109545 0.933579 0.341218
0.0639481 -0.151941 0.136588 -0.745728 -0.258083 0.614233
-0.0727154 -0.116719 -0.0197039 0.507824 -0.64995 0.565402
-0.244402 -0.0757971 -0.172467 0.514886 0.402868 0.756696
0.266629 0.0309602 0.199542 0.688462 -0.0405584 0.724137
0.310485 0.0954614 0.332642 -0.435372 -0.616081 0.656427
-0.30515 0.123429 -0.0635802 -0.731697 -0.108523 0.672935
-0.205495 -0.153622 -0.122946 -0.749533 -0.302103 0.589011
-0.289133 -0.105058 -0.336302 -0.953955 -0.282015 0.102159
-0.180883 0.119073 -0.0696492 -0.361803 0.690108 0.626777
0.0735461 0.0174293 0.0661362 -0.497852 0.809161 0.312094
0.356138 -0.106136 0.187865 0.727149 0.168762 -0.665413
-0.126309 0.147895 -0.106932 -0.201122 0.914902 0.350006
-0.0116876 -0.07029 -0.156093 0.717259 0.29336 -0.632043
0.235662 0.00248155 0.405229 -0.437769 -0.607687 0.662627
0.327947 0.0924329 0.343788 0.220563 -0.967517 -0.123541
0.230633 0.0815781 0.287257 -0.186433 0.916806 0.353141
-0.117701 0.0330538 -0.09303 -0.192453 0.904699 0.380107
-0.361138 0.109018 -0.139931 -0.695935 -0.32697 0.639347
0.167263 -0.0471957 0.235628 -0.401388 -0.571521 -0.715718
0.312202 0.00635071 0.382172 0.105966 -0.988802 0.105084
-0.0342803 0.0480126 0.117816 0.69609 -0.0734089 0.714192
-0.0862943 0.0870077 -0.157788 0.642702 0.366398 -0.67282
-0.0326828 0.0679912 0.0154734 0.607995 -0.0398368 0.792941
0.188136 -0.0226758 0.21092 -0.524572 -0.510749 -0.681146
0.110767 0.0365581 0.05884 -0.199024 0.923848 0.326948
0.0767173 0.099946 0.166148 0.304827 0.941607 0.143027
0.274207 0.131141 0.273686 -0.284227 0.892315 0.350697
-0.199272 -0.0589508 -0.197297 0.248838 0.667013 0.702263
-0.206679 -0.0535366 -0.270012 -0.734584 0.105128 -0.670324
-0.174658 -0.00840846 -0.281079 0.670027 0.335433 -0.66223
-0.141855 -0.11211 -0.273696 0.0448477 -0.970727 -0.235962
0.375564 0.0392083 0.299278 -0.0387246 -0.984974 -0.168306
-5.06018e-05 -0.107467 0.100291 -0.857642 -0.191896 0.477102
-0.200904 0.173325 -0.166617 -0.394158 0.883528 -0.253018
0.110865 0.0433944 0.0265725 0.0819671 0.978237 0.190616
0.244488 -0.0611129 0.232172 0.75114 -0.0160104 0.659949
-0.0966509 -0.145192 -0.0382531 0.543316 -0.830019 0.125998
0.0630871 0.0473831 0.0305289 0.720741 -0.0606398 0.690547
-0.33681 0.144431 -0.176949 -0.18353 0.903849 0.386489
0.143416 -0.125766 0.00706243 -0.0688796 -0.857833 -0.509292
-0.330356 0.09922 -0.112288 -0.585458 -0.552695 0.593101
-0.165503 -0.148205 -0.146585 0.136854 -0.96121 -0.23947
0.168724 0.127414 0.222952 0.169506 0.849676 0.499318
0.302117 0.134548 0.268163 -0.272202 0.834828 0.478506
-0.0406296 0.119357 0.0185847 0.751597 -0.046644 0.657971
0.130798 -0.16844 0.103283 0.179355 -0.940349 -0.289094
0.132147 0.0348046 0.316714 -0.680345 -0.289463 0.673307
-0.298067 0.110208 -0.169492 -0.336467 0.755622 0.561983
0.297849 0.023804 0.311788 0.352366 -0.182877 0.91782
0.244986 -0.0181447 0.382689 0.153275 -0.95465 -0.255244
0.249647 0.117158 0.320017 -0.136103 0.966992 0.215412
-0.0107509 0.104019 -0.0584035 0.725775 0.17885 -0.664277
0.019552 0.0283733 0.191761 -0.682201 0.0525097 -0.729277
0.288095 -0.145371 0.242564 -0.286972 0.889518 0.355535
0.0334105 -0.165484 0.114731 -0.6931 -0.315097 0.648326
-0.310266 0.0718743 -0.284319 0.290588 -0.945731 -0.145433
0.285104 0.0379943 0.432388 0.817511 0.197333 0.54105
0.303576 -0.119943 0.190332 -0.188701 0.906516 0.377652
0.2783 0.125795 0.313342 -0.0497102 0.995646 -0.0788483
0.105692 0.0566385 0.100815 -0.658803 0.129085 -0.741158
-0.25948 0.121002 -0.0656244 -0.344552 -0.672472 -0.655031
0.335532 -0.172032 0.310894 0.418136 0.33318 -0.845076
0.0222414 -0.0834889 0.0239746 -0.670302 -0.197967 -0.715195
0.182466 0.154739 0.159547 0.672381 0.314776 -0.66994
-0.117431 -0.153652 -0.0275758 -0.623206 -0.398093 0.673153
-0.38357 0.122832 -0.260413 0.954979 0.217265 -0.202015
-0.237347 0.15265 -0.271698 0.131426 -0.967739 -0.214959
0.231784 0.0151125 0.145846 -0.220825 -0.736435 -0.639452
0.378493 -0.11536 0.221499 -0.208976 0.92955 0.303752
0.18866 -0.114737 0.158676 -0.482818 0.764095 0.427838
-0.117736 -0.0461707 -0.1334 -0.893376 0.23861 -0.380716
0.0214932 -0.00534733 0.111243 -0.203339 0.881445 0.426271
-0.229752 0.081838 -0.265199 0.105503 -0.983365 -0.147861
-0.188475 -0.0875114 -0.0850977 -0.66517 0.661377 -0.346598
0.215387 0.129986 0.245751 -0.146319 0.966455 0.211081
-0.277985 0.181009 -0.260125 -0.247697 0.878667 0.408154
0.0968456 0.0285503 0.0592413 -0.0956439 0.979186 0.179019
-0.284384 0.0465998 -0.177993 -0.737333 0.0435599 -0.674123
-0.400132 0.0426426 -0.239496 0.575729 -0.737934 -0.352122
-0.391628 0.11102 -0.213388 -0.196915 0.933341 0.300166
-0.228877 -0.0114467 -0.189392 0.657323 -0.145531 0.739424
0.127125 0.0328911 0.0741509 -0.200183 0.925535 0.321421
-0.173536 0.0487059 -0.184562 0.386829 -0.922074 0.0119661
0.290028 -0.0807953 0.123956 0.73833 0.0834097 -0.669262
0.294756 -0.148387 0.17064 0.198067 -0.935152 -0.293702
-0.286188 0.129116 -0.322716 0.670787 0.326678 -0.665827
0.166573 -0.147913 0.250576 -0.579087 -0.426047 0.695085
-0.151296 -0.146282 -0.0682719 -0.574896 -0.462738 0.67481
-0.194635 -0.122345 -0.0930514 -0.653951 -0.366834 0.66165
-0.238404 -0.0560919 -0.190593 0.783729 0.196068 0.589344
0.170115 0.0933381 0.167453 0.439689 0.580104 0.685677
0.159266 0.0711514 0.24714 -0.635854 0.646896 -0.42097
0.0587815 -0.00227908 0.12398 -0.287436 0.857403 0.426897
-0.156334 -0.164726 -0.0720243 -0.839047 0.107888 0.533254
-0.058419 -0.0836178 0.00363975 0.750992 -0.396038 0.528361
-0.291473 -0.0937386 -0.32941 -0.930018 -0.13475 -0.34192
-0.138505 -0.142306 -0.158927 0.414511 -0.840824 -0.34813
-0.00184193 -0.0880127 0.109024 -0.711307 -0.252736 0.655871
-0.121186 -0.0602023 -0.228224 -0.171171 0.629711 0.757737
-0.0937801 0.119299 -0.131569 0.616447 0.416187 -0.668417
-0.36982 0.124013 -0.29723 0.0846204 -0.314473 0.945487
-0.141234 -0.0662107 -0.127731 -0.684275 0.536167 -0.49426
-0.149257 -0.0470807 -0.0141002 -0.673644 -0.330741 0.660919
-0.179124 -0.0344447 -0.301044 0.736482 0.249378 -0.628812
0.216124 0.0337103 0.399547 -0.560535 -0.489956 0.66764
-0.111094 0.0509521 -0.0932856 0.770449 -0.0353588 0.636521
-0.093988 0.0154703 0.0579058 0.730352 -0.063289 0.680133
0.207735 -0.0957052 0.113915 -0.13278 0.959365 0.248974
0.293508 0.0135935 0.191674 0.607858 -0.236767 0.757925
-0.18472 -0.112926 -0.287184 0.329005 -0.739022 -0.58788
-0.0471676 0.103196 0.0262073 0.662983 -0.0394148 0.747596
-0.258986 0.136547 -0.203787 0.189547 -0.941217 -0.279612
0.0974163 -0.0493559 -0.0388117 0.560218 0.577975 -0.59338
0.0724076 0.0101949 0.0861455 0.210323 0.954872 0.209724
-0.225279 -0.0930372 -0.378343 0.251557 -0.883694 -0.39472
0.299634 -0.160751 0.199548 0.178328 -0.978121 -0.10714
0.120933 0.114315 0.166535 -0.101855 0.982066 0.158655
-0.300823 -0.165338 -0.21678 -0.635278 -0.374253 0.675542
0.0781252 0.00741472 0.119185 -0.192628 0.939538 0.28313
-0.42229 0.0973816 -0.222334 -0.173684 0.984778 0.00678126
0.14105 0.114765 0.244253 0.3643 0.928793 0.0680421
-0.0116063 0.105561 0.0485547 -0.78115 0.0828088 -0.618827
0.305077 0.0930745 0.41921 0.766132 -0.105321 0.633995
-0.384896 0.0554748 -0.264232 -0.223581 -0.904083 -0.364206
0.0170036 0.0762756 0.0772505 0.879215 0.0356639 0.475089
-0.302142 0.0958925 -0.137928 -0.425106 0.822736 0.377347
-0.319342 0.0215429 -0.143321 -0.526131 -0.654219 0.543308
0.368669 0.0504585 0.347261 0.777247 -0.00701757 0.629156
-0.121385 0.0120042 -0.0384598 -0.124723 0.971495 0.201596
-0.163492 -0.0195159 -0.0081724 -0.649509 -0.37377 0.662144
-0.198099 0.034679 -0.284773 0.402232 0.439544 -0.803125
0.41368 -0.152422 0.241377 0.212259 -0.918008 -0.334974
0.364688 0.109624 0.296638 -0.289112 0.904606 0.313212
0.306844 0.120669 0.303262 -0.138246 0.964978 0.222945
0.151786 -0.0250417 0.031221 0.577489 0.418187 -0.70116
-0.01079 -0.0884141 -0.166522 0.520382 0.469484 -0.713293
0.194954 -0.0787695 0.278369 0.749778 -0.178361 0.637197
0.204956 -0.109094 0.147067 -0.226786 0.969376 -0.0942235
-0.113567 -0.0527852 -0.249438 0.664668 0.342052 -0.664241
0.144251 -0.148795 0.226116 -0.86819 0.0100168 0.496131
-0.340752 -0.0786391 -0.335415 0.813385 -0.11861 0.569505
-0.280715 0.0873167 -0.309384 0.266461 -0.877294 -0.399192
0.324599 -0.138333 0.140035 0.151702 -0.96252 -0.224815
0.237203 -0.0100712 0.374299 0.0495424 -0.994394 -0.0934118
0.256354 -0.188079 0.315757 -0.737001 -0.12349 0.664515
-0.305623 -0.0601249 -0.403472 -0.174204 0.881986 0.437897
-0.2268 0.0198777 -0.118912 0.145328 -0.986773 -0.0718285
-0.424706 0.110124 -0.263212 -0.786258 0.0178367 -0.617641
-0.0471936 -0.117003 -0.18472 0.241139 -0.970194 -0.0239779
-0.172764 -0.0926071 -0.0665378 -0.524146 -0.492555 0.694738
0.201519 -0.000743677 0.279666 0.733497 0.063944 0.676678
0.0861952 -0.161766 0.152084 -0.623793 -0.418047 0.660393
-0.0440181 -0.107017 -0.203395 0.469826 -0.608111 -0.639893
-0.199616 -0.106469 -0.0952485 -0.763424 -0.23452 0.601817
-0.00498728 -0.0402274 -0.136996 0.667994 0.343422 -0.660186
0.0756544 -0.00740536 -0.0367738 -0.433166 -0.0309841 -0.900781
-0.0926855 -0.00266012 0.0530536 0.536876 0.0426022 0.842585
-0.334342 0.118538 -0.251927 -0.818392 -0.0146959 -0.574472
-0.183167 0.158594 -0.126495 0.572016 0.307995 0.760222
-0.214429 0.10439 -0.0487149 -0.0269781 0.996651 0.0771915
-0.421304 0.106207 -0.193979 -0.76679 -0.175682 0.617388
-0.0734214 -0.0887894 -0.221633 0.441774 0.521486 -0.729992
-0.294888 0.154369 -0.180416 -0.36772 0.825197 0.428757
-0.255295 0.097452 -0.0395904 -0.63523 -0.401241 0.659915
0.192456 -0.176469 0.150965 0.00901507 -0.118838 0.992873
-0.271482 -0.0716008 -0.411554 0.675476 0.337816 -0.655449
0.115573 -0.0212107 0.207102 0.351322 -0.929558 -0.111777
-0.164861 0.10761 -0.218936 0.85736 -0.000332131 -0.514717
0.413023 -0.126254 0.288743 0.832476 -0.53921 0.12742
-0.373051 0.0808571 -0.290952 0.530421 -0.157243 0.833024
-0.225813 -0.081061 -0.293061 -0.225482 0.836406 0.499583
-0.0223432 0.0832469 -0.0614381 -0.861894 0.0692397 -0.502339
-0.138861 0.0691865 -0.20447 0.778234 0.137646 -0.612703
0.314687 0.11478 0.212138 0.464511 -0.769653 -0.438023
-0.133601 -0.0856199 -0.0237766 -0.603015 -0.384243 0.699092
0.109726 -0.00635383 -0.000448479 0.59396 0.441611 -0.672451
-0.0229559 0.116496 -0.00214535 0.689847 -0.12488 0.713103
0.120333 -0.15178 0.197215 -0.740051 -0.324175 0.589266
0.338174 0.143016 0.295882 -0.19348 0.883459 0.426692
0.432721 -0.141549 0.252853 0.377555 -0.843386 -0.382298
-0.242468 -0.113309 -0.138631 -0.648527 -0.359623 0.670883
-0.322929 0.104223 -0.154353 -0.199516 0.929736 0.309492
-0.0344476 0.0942654 0.132589 -0.196929 0.931849 0.304757
-0.0879563 0.0261058 -0.173553 0.61088 0.423547 -0.668905
0.220288 0.0979301 0.249608 0.194151 -0.947712 -0.253274
-0.0117548 0.0880619 0.102165 0.577831 0.0505363 0.814591
-0.111998 0.0160664 0.0717183 -0.562324 -0.419453 0.712636
0.120784 -0.143442 0.207813 -0.214334 0.930244 0.297837
-0.0449363 0.0792846 -0.041391 -0.796417 0.0365029 -0.603645
-0.273475 0.074283 -0.247137 0.20383 -0.952869 -0.224709
0.0759468 -0.0725961 0.163528 0.839436 0.0157641 0.54323
-0.078262 -0.013493 -0.179208 -0.828457 0.0971847 -0.551557
-0.252162 -0.073276 -0.313173 -0.146456 0.961721 0.23161
0.310012 -0.177434 0.371592 -0.762493 -0.182475 0.620731
-0.0678683 0.0681499 0.046048 0.862857 -0.099537 0.49555
-0.0240675 0.0864245 -0.00800784 0.76148 -0.12332 0.636349
0.203968 0.0808516 0.396091 -0.213088 0.958143 0.191194
0.0955315 0.00469515 0.255067 -0.741377 -0.260471 0.618478
-0.264496 0.153613 -0.168261 -0.197926 0.934063 0.29724
-0.256247 -0.0914586 -0.255393 -0.281672 0.885334 0.369926
-0.40966 0.038092 -0.220335 -0.531882 -0.462536 0.709339
0.14236 0.0490341 0.247616 -0.582393 0.79952 0.146925
0.166695 -0.00703605 0.321192 -0.670589 -0.328061 0.665347
0.0538234 0.0653737 0.165979 -0.866979 0.0606392 -0.494642
-0.249073 -0.117474 -0.28554 0.187401 -0.902969 -0.386688
0.166923 -0.0149386 0.0429859 0.413072 0.524261 -0.744663
0.32071 -0.164738 0.226043 0.200797 -0.915398 -0.348894
0.294964 0.120915 0.325484 -0.142258 0.957361 0.251441
0.24937 -0.0641705 0.114162 -0.523378 0.830909 -0.188853
0.273097 0.00751527 0.176167 0.637614 0.379625 -0.670323
0.147348 -0.158009 0.0714645 0.249435 -0.878726 -0.406968
-0.211602 -0.0193028 -0.27129 -0.723997 0.0669583 -0.686546
0.214728 0.0799076 0.14969 0.856163 0.217971 -0.46848
-0.26643 -0.14997 -0.220436 0.25386 -0.910134 -0.327432
0.022159 0.0546186 0.00668786 -0.706724 0.136308 -0.694234
0.088178 0.0313922 0.0323319 -0.00310118 0.99153 0.129843
-0.325418 0.164819 -0.380742 -0.720168 0.0628229 -0.69095
0.176314 -0.180849 0.17452 0.0747571 -0.804349 -0.589435
0.399452 -0.145774 0.294349 0.58503 -0.0273687 0.81055
-0.330627 0.115074 -0.373777 0.786556 0.207151 -0.581737
0.237463 -0.0847583 0.224901 0.529909 -0.159614 0.832898
0.209194 0.00536696 0.30247 0.209018 -0.899779 -0.383027
-0.411877 0.109668 -0.186533 0.123691 -0.99096 -0.0519483
-0.199502 0.108536 -0.159055 0.0511174 0.989981 0.131624
-0.165812 -0.0228204 -0.234123 0.815481 0.141885 0.561123
-0.39665 0.142467 -0.291642 -0.858786 -0.0496674 -0.509921
0.320782 -0.196885 0.346419 0.0830125 -0.985874 0.145473
0.294952 0.0582338 0.222593 0.581331 0.416778 -0.698821
0.362773 0.095189 0.35472 0.180276 -0.947379 -0.264524
-0.0989227 -0.0448274 -0.176929 -0.503978 0.586919 -0.633666
-0.280781 -0.154257 -0.236001 0.266616 -0.876448 -0.400942
-0.324335 -0.108929 -0.307045 0.389406 0.432281 -0.813324
0.0824082 0.109126 0.143367 -0.296653 0.858984 0.417304
0.112731 0.0406072 0.280294 -0.584454 0.745822 -0.31963
0.357899 -0.118209 0.27652 -0.7418 -0.368087 0.560575
-0.316672 -0.141603 -0.279818 0.282854 -0.872892 -0.39756
0.391053 -0.160398 0.258559 0.313747 -0.947452 0.0624262
0.0542553 0.021613 0.0540881 -0.281387 0.704086 0.651986
0.334049 0.123509 0.285419 0.746469 0.187846 -0.638355
-0.282342 0.0598598 -0.203383 0.187209 -0.962183 -0.19788
-0.299345 0.141094 -0.135055 -0.27928 0.884731 0.373168
-0.0913023 0.046869 -0.165073 0.687943 0.279002 -0.669994
-0.0482215 -0.0746972 -0.0127138 0.628674 -0.269243 0.729574
0.0709747 0.116452 0.0271514 0.676001 -0.126406 0.725978
-0.0199379 -0.0371428 -0.155242 0.729764 0.272584 -0.62701
0.0804366 -0.159019 0.0788423 0.139299 -0.783506 -0.60557
-0.184107 -0.0957664 -0.318973 0.107764 -0.97897 -0.173216
0.019995 -0.0161545 0.148755 -0.300681 0.900188 0.315043
0.120264 -0.0992544 -0.0208039 -0.447624 -0.639885 -0.624645
0.112855 -0.0288145 0.253886 -0.0809644 -0.846988 -0.52541
-0.369232 0.0503831 -0.268826 0.123355 -0.991324 -0.045386
0.24571 -0.139617 0.214391 -0.183998 0.970552 0.155476
0.179865 0.00486288 0.295594 0.208599 -0.929165 -0.305188
-0.0953833 -0.117893 -0.222707 0.235156 -0.964437 -0.120681
-0.333755 0.194987 -0.335757 0.656736 0.353094 -0.66635
-0.159858 0.13151 -0.0483713 -0.236452 0.900964 0.363806
0.276292 -0.0417837 0.141635 0.560557 0.45817 -0.689823
0.0539137 -0.0367274 0.201614 -0.705866 -0.180073 0.685075
0.351671 0.0618906 0.271687 0.73519 0.264832 -0.623987
-0.334021 0.0774181 -0.258753 -0.374491 0.204561 -0.904385
0.0945022 -0.0562465 0.156659 0.709958 -0.23313 0.664538
0.264773 0.0591647 0.368686 0.904734 0.25575 -0.340658
0.167766 0.0536855 0.315023 -0.323894 0.837337 0.440409
0.0159568 -0.0834674 0.143307 -0.629647 -0.377637 0.678921
-0.0398403 -0.0203137 -0.159638 0.628718 0.438868 -0.641956
0.214787 0.0646491 0.342787 -0.219614 0.861118 0.458526
0.206257 -0.145624 0.0795839 0.231326 -0.92537 -0.300298
0.356374 -0.127081 0.177656 0.682923 0.308416 -0.66219
0.249296 -0.107811 0.220434 0.72852 -0.0680287 0.681638
0.00388223 0.0168226 -0.0415847 0.608544 0.0613324 0.791147
0.315938 0.10885 0.364577 -0.784016 -0.562518 0.262473
0.0256539 -0.125074 0.121285 -0.775069 -0.116886 0.620972
-0.352698 0.0445499 -0.18234 0.182575 -0.918514 -0.350711
-0.114291 -0.0484616 0.0127218 -0.752899 -0.125895 0.645982
-0.0109511 0.0959191 -0.0247104 0.64846 -0.165885 0.742955
-0.0835971 0.105275 0.0115048 -0.838907 -0.0669707 -0.540139
-0.157163 -0.120885 -0.232622 0.0125499 -0.982438 -0.186165
0.174488 -0.0973741 0.109476 0.286426 0.649712 0.704155
0.300542 -0.193418 0.289319 -0.183151 -0.967085 -0.176643
-0.348671 0.111464 -0.346129 -0.626935 0.122957 -0.769307
-0.28574 0.142698 -0.265085 -0.331497 0.846661 0.416264
-0.27601 0.0451189 -0.0908386 -0.74381 -0.212651 0.633661
-0.129688 0.0980761 -0.069426 0.373953 -0.210189 0.903316
0.278199 0.0426548 0.234193 0.318747 -0.86178 -0.394632
-0.445589 0.0493505 -0.259259 0.306592 -0.685639 -0.660227
0.248598 -0.159183 0.271117 -0.364539 0.789914 0.493099
0.28621 0.131388 0.297554 -0.184735 0.940205 0.286158
-0.0363664 0.0451596 -0.118585 0.723884 0.131952 -0.677185
-0.0229368 0.0613115 0.0648376 -0.867496 -0.03254 -0.496378
-0.168962 0.163574 -0.138937 0.596358 0.361982 0.716468
-0.011477 -0.0688493 0.0504616 -0.882333 0.0142198 -0.470411
-0.227598 0.133696 -0.163248 0.731169 -0.257458 0.63175
0.372986 0.113875 0.317649 0.697307 0.284006 -0.658106
-0.0181177 -0.108024 -0.120098 0.646584 -0.757936 -0.0863873
0.172142 -0.17134 0.239155 -0.460096 -0.685185 0.564653
-0.270775 0.119943 -0.109566 0.772744 -0.388051 0.502278
-0.013629 0.00130676 -0.112588 0.321057 0.482503 -0.814932
0.267844 0.0968341 0.394312 -0.256884 0.909485 0.326874
0.0204489 -0.0566961 -0.08361 0.586614 -0.596945 0.547303
-0.117955 0.052337 0.0686655 -0.82575 -0.107574 0.553683
0.289342 -0.105502 0.172626 0.60079 -0.0741628 0.79596
-0.404416 -0.145023 -0.317401 0.188341 -0.958384 -0.214541
-0.00489159 0.030564 -0.098283 0.84036 0.0959826 -0.533463
0.186674 0.039965 0.109731 0.763553 0.00818652 -0.645693
-0.0825149 -0.0609251 -0.217184 0.451766 0.514069 -0.729137
0.0774392 0.016123 0.133649 -0.915645 0.00669487 -0.401933
-0.0603949 -0.0686586 0.00830427 0.823662 -0.306078 0.477386
0.0190799 -0.144886 0.0804237 -0.321614 -0.705324 -0.631729
-0.16728 0.12104 -0.215823 0.744111 0.101445 -0.660309
-0.0817099 0.0251024 -0.0447318 -0.199501 0.933047 0.299371
-0.0549593 0.0412957 -0.137262 0.461974 0.538356 -0.704807
0.174704 -0.00712076 0.0673295 0.768481 0.138579 -0.624686
-0.186611 -0.0787325 -0.17535 -0.100888 0.903823 0.415842
-0.138214 -0.140346 -0.0521187 -0.630595 -0.40073 0.664654
-0.0801345 -0.113454 -0.189273 0.272883 -0.859077 -0.433037
0.0826461 0.0226991 0.11457 -0.942305 0.224889 -0.247963
0.258483 0.0671012 0.446444 -0.202923 0.927374 0.314324
0.0107594 -0.00785228 0.105679 -0.358698 0.865263 0.350221
0.225706 0.040449 0.132916 0.513686 0.350979 -0.782905
-0.294575 0.0961255 -0.0939271 -0.186977 0.940089 0.285082
-0.0550671 0.0726185 0.112387 0.585421 -0.635994 -0.502786
-0.0477166 0.0914882 0.100773 -0.486521 0.158961 -0.859086
-0.0562223 -0.0446051 -0.19025 0.138178 0.708635 -0.691913
0.330621 0.089478 0.312101 0.0364296 0.998733 0.034729
-0.345763 -0.117506 -0.36423 0.0234178 -0.982546 -0.18454
0.245376 0.100514 0.344184 -0.276346 0.878206 0.390368
-0.207858 -0.00842264 -0.204805 0.861906 -0.183345 0.472761
0.166541 -0.011449 0.20998 -0.0470255 -0.797259 -0.601803
0.274043 0.0591691 0.443984 0.564806 -0.15103 0.811286
-0.327168 0.0448623 -0.19826 0.14489 -0.9704 -0.193214
-0.343582 0.110684 -0.115875 -0.791349 -0.230616 0.566201
-0.294838 -0.0182738 -0.183108 -0.595416 0.144864 -0.79025
-0.0469947 0.0933932 -0.0341775 0.293491 0.931853 -0.213336
0.123447 -0.0237716 0.010953 0.43889 0.61193 -0.657965
0.0389579 -0.132496 0.125599 -0.659736 -0.350694 0.664652
-0.201643 0.105467 -0.0119253 -0.264657 0.890595 0.36986
0.0654909 -0.13215 0.1571 -0.437581 -0.73653 0.515797
0.031303 0.0181917 -0.0738631 0.878779 -0.00849507 -0.477153
-0.153362 0.0924749 -0.0315694 0.721554 -0.0735522 0.68844
-0.257026 0.140869 -0.120166 -0.203438 0.910203 0.360755
0.249242 0.0392238 0.145845 0.649511 0.365279 -0.666864
-0.022457 0.00195173 -0.0145303 0.726663 -0.063915 0.684014
-0.124767 0.000715292 -0.000598641 -0.206204 0.954235 0.216598
0.318721 0.000452863 0.359395 -0.133157 0.0797698 -0.98788
0.261836 -0.139639 0.247534 -0.077168 0.985617 0.150344
0.201668 -0.143322 0.0644669 0.121701 -0.989224 -0.0813946
0.00161896 -0.0436827 -0.124133 0.597984 0.434031 -0.673819
-0.034097 0.0506751 -0.0493735 -0.408295 0.147697 -0.900822
0.0698621 -0.0943266 0.000698036 -0.370415 -0.388186 -0.843863
-0.203905 0.0162136 -0.192296 0.703313 -0.612557 0.360728
0.203295 0.129977 0.235949 0.022012 0.974644 0.222675
-0.111223 -0.12535 -0.184798 0.149142 -0.981922 0.116557
0.0676977 0.0523302 -0.0176054 0.629579 0.400218 -0.665924
-0.0344804 0.0994014 0.0207589 0.831143 -0.175334 0.527692
-0.243999 -0.147063 -0.242624 -0.465029 0.0378833 -0.884484
0.0350995 0.0563698 0.0547168 0.729359 -0.0618016 0.681334
-0.0664518 0.123386 0.0102723 -0.252837 0.852322 0.457844
-0.283465 -0.154356 -0.20975 0.193172 -0.920018 -0.340956
-0.112444 -0.150944 -0.0623839 0.443968 -0.891401 0.0910901
0.151187 0.100178 0.0918193 0.753293 0.0382065 -0.656575
-0.218045 0.162682 -0.232624 0.19875 -0.933044 -0.299879
0.373979 -0.129187 0.290708 0.299888 0.869126 0.393304
0.0309331 -0.136267 0.0707384 -0.307813 -0.843814 -0.439579
0.205316 0.0514068 0.396253 -0.639061 -0.385513 0.665568
-0.00675336 0.0311013 -0.0193551 0.695638 -0.0670692 0.715254
-0.118058 -0.0609786 -0.166814 -0.626744 0.689464 -0.363086
-0.222573 -0.0575789 -0.355184 0.62508 0.42911 -0.652027
0.0989904 -0.132379 0.0346078 -0.0693944 -0.751585 -0.655976
0.347845 0.107305 0.264291 -0.267938 -0.95763 -0.105614
0.0700364 0.141148 0.0312821 0.829589 -0.0639834 0.554697
-0.173744 -0.00841155 -0.0942424 -0.47177 -0.552666 -0.687018
-0.108345 0.0972356 -0.178156 0.675268 0.33183 -0.658712
-0.293731 0.17048 -0.214598 -0.175884 0.723262 0.6678
-0.020416 -0.0897234 -0.0856342 0.637163 -0.673318 0.375054
0.126861 0.120505 0.22361 -0.525392 0.849261 0.0521415
0.268758 0.108753 0.234126 0.0773839 -0.969364 -0.233121
0.10857 -0.192749 0.167356 -0.646919 -0.383297 0.659227
-0.254076 0.105692 -0.304475 0.192936 -0.926672 -0.322575
0.300035 0.069739 0.413807 0.805976 -0.0533751 0.589537
0.333773 -0.146858 0.326084 -0.339216 0.854794 0.392759
0.319742 0.132383 0.32409 -0.237192 0.897276 0.372339
0.23525 0.118519 0.161151 0.181445 -0.945157 -0.27158
-0.398607 0.0624923 -0.283472 0.0290341 -0.91478 -0.402907
0.1246 0.0523925 0.311962 -0.538944 -0.449737 0.712233
-0.262432 0.163826 -0.30252 0.317884 -0.818859 -0.477932
-0.230858 -0.148313 -0.150301 -0.712474 -0.303531 0.632653
0.219378 -0.00671013 0.344384 -0.173258 -0.984622 -0.022403
-0.308315 0.0287794 -0.155636 -0.64109 -0.12557 -0.757123
0.164398 0.0368466 0.0733498 0.542819 0.451308 -0.708286
0.0174904 0.0284083 -0.0576188 0.406846 0.247022 0.879464
-0.242581 0.0971759 -0.292621 0.610709 0.40136 -0.682601
0.281063 -0.141621 0.0965226 0.673931 0.337725 -0.657084
-0.388166 0.0831236 -0.178442 -0.708687 -0.317685 0.629951
-0.163084 -0.0370525 -0.235427 0.395296 0.646932 0.652089
-0.420586 0.138717 -0.275287 -0.520914 0.136127 -0.842685
-0.413174 0.148437 -0.286657 -0.710869 0.0101294 -0.703251
0.34401 0.124795 0.334356 -0.228268 0.846318 0.481289
-0.0698797 0.0125067 0.0395392 0.744283 -0.0646575 0.664728
-0.334533 -0.0826317 -0.291586 -0.353695 0.262584 0.897747
0.0209415 -0.098729 0.131879 -0.641151 -0.408209 0.64984
-0.0939248 0.0329198 -0.0753338 -0.485438 0.792237 0.369743
-0.184222 0.128562 -0.227685 0.55284 0.492164 -0.672416
0.261835 -0.175008 0.333623 -0.486138 -0.533285 0.692298
-0.44914 0.115171 -0.209015 -0.452887 -0.553621 0.698854
0.208918 0.00748239 0.17143 -0.273577 -0.884222 -0.378559
0.277304 -0.176521 0.252622 0.209782 -0.951225 -0.226191
0.0827779 0.0658923 0.131007 -0.817989 0.180538 -0.546169
-0.154347 0.126516 -0.184188 -0.325522 0.929654 0.172565
-0.261665 0.16475 -0.323226 0.545094 0.42549 -0.722378
0.209076 -0.14995 0.122819 0.180142 -0.967008 -0.180123
-0.0254627 -0.0586867 -0.167327 0.633573 0.389043 -0.668753
-0.0642368 0.0611567 0.115503 -0.641303 -0.381958 0.665461
-0.15483 -0.0672363 -0.0353496 -0.66492 -0.272052 0.695607
-0.377428 -0.107361 -0.297747 -0.30374 0.880222 0.364624
0.24294 0.0807117 0.411661 -0.230512 0.903174 0.362134
0.194252 0.0937952 0.20933 -0.853985 0.392068 -0.342042
-0.316312 0.0464583 -0.189624 0.209579 -0.954613 -0.211638
-0.285167 -0.10791 -0.241363 -0.0367483 0.97397 0.223677
-0.2292 -0.102331 -0.358082 0.290408 -0.855906 -0.427888
-0.428867 0.0588587 -0.263318 -0.666919 -0.0297493 -0.744536
-0.12503 -0.107529 -0.245299 0.358379 -0.820833 -0.444744
-0.248343 0.142768 -0.230534 -0.275104 0.904529 0.3258
-0.344198 0.0880579 -0.337472 0.439414 -0.755448 -0.486018
-0.24614 0.0964174 -0.0632547 -0.854627 0.069944 -0.51451
0.0915632 0.115607 0.118437 -0.210669 0.756722 0.618862
0.380112 0.12961 0.33705 -0.37493 0.805806 0.458371
0.0419631 -0.08703 0.0163762 -0.476988 -0.43804 -0.761974
0.171274 -0.0981764 0.272447 -0.391888 -0.604557 0.693495
-0.171492 -0.13067 -0.0835492 -0.53919 -0.455362 0.708463
0.186404 0.0686258 0.382486 -0.673339 -0.152844 0.723362
-0.304469 -0.0676709 -0.178205 -0.830647 0.403618 -0.38356
0.117745 0.088527 0.107158 -0.710838 -0.055297 -0.701179
0.122423 0.118832 0.15155 -0.118609 0.956319 0.267181
-0.238971 0.153846 -0.131768 0.607254 -0.768405 0.201982
-0.329954 -0.142839 -0.30625 0.185099 -0.950073 -0.251196
-0.320487 0.175736 -0.36196 -0.150217 0.951561 0.268267
0.0397473 0.0304234 0.175208 -0.678146 -0.00695561 -0.734895
-0.112652 0.0658565 0.0853626 0.778368 -0.0885681 0.621529
0.0111778 -0.00511918 0.0265949 -0.595107 -0.107738 -0.796392
-0.000110086 -0.0422957 0.136495 -0.671173 -0.347889 0.6546
-0.0555234 -0.0386154 0.0213287 0.610497 -0.172384 0.773031
0.376116 -0.121541 0.214935 0.832848 0.194661 -0.518142
-0.399251 0.144911 -0.219942 -0.218334 0.903562 0.368654
-0.371903 0.142257 -0.187773 -0.0413014 0.965603 0.256718
-0.0694204 0.0269997 0.039741 0.735902 -0.0625877 0.674189
-0.363465 0.143042 -0.334095 -0.492365 0.214018 -0.843667
0.108925 -0.177339 0.0971018 0.128053 -0.988932 0.0749379
-0.158395 0.163812 -0.187037 -0.643915 -0.366012 0.67187
-0.0112963 0.0576779 0.113138 0.73295 -0.0609626 0.677545
-0.301464 -0.0669308 -0.411963 -0.648714 0.053747 -0.759132
-0.236739 -0.0732506 -0.379094 0.829244 0.209773 -0.518025
0.0115051 0.0715556 -0.0517558 0.657024 0.360045 -0.662334
0.130674 -0.136196 0.19573 -0.269903 0.880484 0.389744
0.172854 -0.0228792 0.308261 0.845897 -0.0359264 0.532135
0.244314 0.095524 0.258098 -0.442106 0.718857 0.536457
-0.361603 0.115824 -0.222186 -0.314554 0.870577 0.378355
-0.23307 0.139015 -0.20655 0.163294 -0.949452 -0.268095
-0.173302 -0.0801908 -0.0913368 -0.72807 0.625333 -0.280843
-0.373722 0.115978 -0.2472 0.51556 0.343992 -0.784772
0.167692 -0.162516 0.129516 -0.526534 0.430668 -0.732999
0.278742 -0.181413 0.348698 -0.724596 -0.283581 0.628127
0.094161 0.101988 0.165296 -0.201847 0.930968 0.304232
0.0274922 -0.11494 0.0531336 -0.445696 -0.581032 -0.680997
0.26765 -0.175088 0.223002 0.19517 -0.926748 -0.321008
0.177216 -0.193481 0.194726 0.16937 -0.978807 -0.115115
-0.137938 -0.122621 -0.179934 0.211711 -0.957838 -0.19423
-0.197327 -0.125834 -0.277197 0.318487 -0.877887 -0.357604
0.283874 -0.149996 0.291789 -0.528276 0.81204 0.248023
0.0553228 0.0279416 0.235222 -0.0752984 -0.520505 0.850532
-0.189378 0.126072 -0.1886 0.181364 0.655421 0.733165
-0.116567 -0.0639794 -0.195765 -0.38006 0.850801 0.362895
0.285248 0.111385 0.21799 -0.266062 0.888977 0.372733
0.0414606 0.074574 0.248056 -0.22775 0.921087 0.315799
0.302085 0.0851131 0.299241 -0.234323 0.873304 0.427121
-0.0868621 -0.102889 -0.238353 0.762689 0.00734996 -0.646724
-0.329414 0.129585 -0.204997 0.270366 -0.834493 -0.480128
-0.164551 -0.125127 -0.0612793 -0.576122 -0.490178 0.654071
-0.030017 -0.100425 -0.166349 0.459016 -0.848081 -0.264694
-0.128376 -0.0175723 0.0186051 -0.646521 -0.368019 0.668261
-0.136303 -0.0269741 0.01437 -0.71914 -0.230479 0.655529
-0.289258 -0.1048 -0.369594 0.306836 -0.878095 -0.367153
0.0386575 -0.101136 0.034208 -0.487796 -0.477226 -0.730965
-0.383225 -0.0922884 -0.332106 -0.17159 0.957406 0.232229
-0.330825 0.1436 -0.360633 0.675041 0.330641 -0.659542
0.332559 0.00805788 0.379232 0.786199 0.0331654 0.617083
0.195424 0.084225 0.191071 -0.42984 0.897166 -0.101644
-0.455293 0.1428 -0.23308 -0.197928 0.932131 0.303243
0.203881 0.124219 0.193351 -0.466211 -0.514492 -0.719684
-0.159927 0.169096 -0.210883 -0.920747 -0.149946 -0.360196
-0.221441 0.0745689 -0.24676 -0.747021 0.0636528 -0.661746
-0.3871 0.170036 -0.31418 -0.841541 0.0250203 -0.539614
0.185759 -0.0845797 0.223935 -0.744704 0.251771 -0.618084
0.296152 -0.000237551 0.421092 0.497857 -0.0136096 0.867153
0.211653 -0.00744211 0.186967 -0.785882 -0.592614 -0.17663
-0.191623 0.0942666 -0.24576 0.621029 0.465987 -0.630222
0.29707 -0.132578 0.125368 0.589043 0.366319 -0.720305
0.262077 -0.00106539 0.208493 0.583619 -0.0614336 0.8097
0.127059 -0.170267 0.123599 0.320136 -0.795777 -0.514054
0.19209 -0.0503089 0.224656 -0.701066 -0.39621 -0.592895
-0.138217 0.0383514 -0.154915 -0.0593285 -0.879533 -0.472126
0.0831219 0.0937992 0.124967 -0.653612 0.0942771 -0.750935
-0.340755 -0.103568 -0.332948 0.990165 0.100082 -0.0977565
-0.249952 0.0179191 -0.219783 -0.754971 0.117436 -0.645157
0.226826 -0.0912873 0.150708 -0.525169 0.795123 -0.303279
-0.322599 0.160322 -0.21732 -0.125613 0.949973 0.285958
0.0575756 -0.113959 0.151426 -0.683469 -0.32142 0.655408
-0.355027 0.144392 -0.288941 0.207651 -0.925662 -0.316276
-0.15332 -0.0155183 -0.103414 -0.56056 -0.314021 -0.766266
0.0777646 0.0953855 0.194009 -0.21146 0.88967 0.404688
0.0411491 0.116107 0.0144223 -0.686474 -0.594209 0.419128
0.155496 -0.187951 0.187937 0.124449 -0.98957 -0.0725532
0.0438193 0.0949906 0.184487 -0.164994 0.980021 0.111072
0.309941 0.104588 0.239156 0.234845 -0.924218 -0.301113
-0.301149 0.0975524 -0.0800422 -0.581123 -0.499344 0.642614
0.0759657 -0.0436359 -0.0286705 -0.572155 -0.324294 -0.753308
-0.125703 -0.100162 -0.275083 0.181365 -0.9405 -0.287344
0.315431 -0.130283 0.245369 -0.383745 0.920934 0.0679774
0.149225 0.130698 0.133837 -0.173325 0.965423 0.194723
-0.288282 0.108849 -0.102663 0.568451 -0.510131 0.645468
0.179229 0.00476876 0.179184 -0.0378632 -0.701215 -0.711944
0.166843 -0.17474 0.104894 0.413895 -0.850328 -0.325013
0.193771 -0.10363 0.200736 -0.78958 0.468955 -0.395783
-0.25853 -0.14342 -0.171413 -0.813626 -0.149802 0.561758
0.120326 0.079485 0.212283 0.527497 0.113791 0.841902
0.349862 0.12004 0.298416 0.793956 0.113581 -0.597272
0.147937 0.104066 0.285863 -0.174518 0.865641 0.469264
0.0482439 0.100263 0.0153135 -0.544732 0.78228 0.302167
0.0793122 -0.032171 0.197921 0.62214 -0.744223 0.243052
0.155503 -0.00759711 0.085765 0.622574 -0.373767 0.687532
0.225781 0.110143 0.167809 0.731248 -0.0987794 0.674922
0.185838 -0.108351 0.0175006 0.681326 0.318159 -0.659219
0.180857 0.00929194 0.346066 -0.623081 -0.419305 0.660267
0.0784479 0.0754749 0.144104 -0.709981 0.0986761 -0.697273
0.249844 -0.0994509 0.0881801 0.618002 0.416164 -0.666994
-0.277018 -0.069064 -0.148105 -0.335106 -0.535305 0.77534
-0.24895 -0.158755 -0.168349 -0.601203 -0.406119 0.688202
-0.283934 0.186213 -0.286892 0.670582 0.334514 -0.662133
-0.141713 0.0108409 -0.131006 -0.440873 -0.751191 -0.491267
0.173705 0.05804 0.104634 0.66521 0.346463 -0.661407
-0.264852 -0.114316 -0.210297 -0.802828 -0.00138514 -0.596209
0.314284 0.11472 0.34599 -0.156209 0.969054 0.191135
0.189845 0.123754 0.255635 -0.223937 0.944441 0.240591
-0.199766 -0.0552665 -0.210817 0.43576 0.465599 0.77028
-0.330332 0.153476 -0.320698 -0.203063 0.932157 0.299749
0.258831 -0.124846 0.0853667 0.656724 0.354804 -0.665453
-0.372804 0.145164 -0.314955 -0.80101 0.0250329 -0.598127
-0.0326639 -0.0473991 -0.0196792 0.718572 -0.324456 0.615129
-0.130792 0.0533952 -0.17544 -0.0120631 -0.889208 -0.457343
0.0495525 0.0186367 0.0423866 -0.263539 0.804951 0.531602
0.0392037 0.136483 0.0411648 -0.205622 0.932046 0.298344
-0.0193311 0.0942273 0.0641254 -0.818111 0.0890842 -0.568119
-0.261298 -0.159551 -0.191932 -0.720766 -0.305307 0.622321
0.386857 -0.118728 0.248471 -0.107295 0.992173 0.0638768
0.162224 -0.0355019 0.0315397 0.767879 0.23425 -0.596229
0.376062 0.112806 0.272746 0.736185 0.197866 -0.64721
-0.310463 0.119441 -0.176331 0.196509 -0.931218 -0.306947
-0.149921 0.0553386 -0.238893 0.776922 -0.0539925 -0.627278
-0.00230274 -0.0600472 -0.0600471 0.378943 -0.487034 0.786893
0.119869 0.0895036 0.316704 -0.188511 0.956628 0.222095
-0.26147 0.130125 -0.135155 0.695858 -0.334626 0.635458
0.269177 0.0337472 0.333176 0.907115 0.143288 0.395742
0.217779 -0.14133 0.0506621 0.193204 -0.952579 -0.235087
-0.453411 0.109298 -0.228165 -0.645636 -0.368661 0.668763
0.124646 -0.141756 0.0329705 0.0063463 -0.839951 -0.542625
0.0578001 0.0166347 0.156142 -0.73779 0.05827 -0.672511
0.124268 -0.129845 0.17398 0.0363122 0.975948 0.21496
0.0444999 -0.179576 0.110365 -0.0469676 -0.835635 -0.547273
-0.299528 -0.0652398 -0.379141 -0.0384625 0.993426 0.107818
0.387761 0.0918624 0.331614 0.835166 -0.0358251 0.54883
-0.198057 0.163795 -0.119556 0.0341245 0.854685 0.518024
-0.153604 -0.101257 -0.301145 0.187013 -0.972688 -0.137493
0.404304 -0.130833 0.224634 0.713855 0.265717 -0.647924
-0.272445 -0.0930936 -0.401943 0.373717 -0.800565 -0.468435
-0.3922 0.144406 -0.259292 0.950947 0.0609534 0.303291
0.225179 0.117226 0.291315 -0.257318 0.80116 0.540305
-0.265867 0.161438 -0.262487 0.200386 -0.900227 -0.386572
-0.123949 0.0476042 0.0419573 -0.643361 0.111828 -0.757352
0.157256 0.142676 0.204039 -0.360043 0.92831 0.092785
0.31827 -0.18078 0.270975 0.372648 -0.782054 -0.499524
-0.26731 -0.0688626 -0.326323 0.217575 0.95836 0.184951
-0.225492 -0.0864272 -0.266052 -0.201004 0.935887 0.289331
0.154945 -0.132833 0.213175 -0.549251 0.835388 -0.0211999
-0.0133462 -0.0944259 0.0596973 -0.522292 -0.398372 -0.753997
0.123017 -0.112844 0.000650774 -0.252782 -0.550408 -0.795709
-0.272343 -0.056564 -0.206132 -0.715465 -0.00946782 -0.698584
-0.103029 -0.138587 -0.125804 0.359345 -0.887554 -0.288305
-0.212122 -0.0963781 -0.15402 -0.0225697 0.905704 0.42331
0.342958 0.0553955 0.355595 0.764434 -0.0966731 0.637412
0.245099 0.115798 0.22806 0.181712 -0.897319 -0.402244
0.262463 -0.0551665 0.122345 -0.590902 0.455622 -0.665766
0.304533 -0.0694181 0.156921 0.613419 -0.318093 0.722865
-0.326647 -0.0563749 -0.352641 0.305438 -0.238831 0.921774
0.0564014 0.026522 0.148669 -0.938675 0.0522726 -0.340817
-0.265005 -0.14885 -0.245288 0.21164 -0.913929 -0.346327
0.241024 0.121521 0.200758 0.683391 0.280165 -0.674155
0.269593 0.017039 0.439554 -0.564118 -0.553451 0.61275
-0.169218 0.030744 -0.0300377 0.799524 0.129599 0.586486
-0.218099 -0.0820196 -0.365266 0.746099 0.205353 -0.633377
0.240687 0.0598448 0.367213 -0.212476 0.928252 0.305291
-0.31631 0.0562183 -0.206589 0.272383 -0.888125 -0.370192
-0.163485 -0.158888 -0.124262 0.178965 -0.944893 -0.274133
-0.143776 -0.154012 -0.0964405 0.245998 -0.942827 -0.224861
-0.259599 0.0286549 -0.215445 -0.718131 0.0676579 -0.692612
0.261468 -0.0276973 0.15313 -0.791776 0.017468 -0.610562
-0.198849 0.158472 -0.189511 0.777011 -0.335417 0.53268
0.195537 0.104461 0.230892 0.167317 -0.941336 -0.293072
0.0792922 -0.124515 0.0302442 -0.311422 -0.552871 -0.772884
0.184972 -0.190277 0.241593 -0.569497 -0.389727 0.723731
-0.0983191 0.0695262 -0.103935 0.55269 -0.0130434 0.833285
0.233024 0.117895 0.311399 -0.143928 0.957498 0.249963
-0.42507 0.0859355 -0.268831 -0.693017 0.051847 -0.719054
-0.321413 0.147718 -0.178187 -0.33497 0.822537 0.459596
0.0522805 0.0682418 0.0323912 0.605123 -0.0162918 0.795965
0.169503 -0.0671871 0.0907631 0.295767 0.431436 0.852282
-0.130367 -0.0705264 -0.268478 0.833692 0.172621 -0.524557
0.290548 0.0973152 0.334301 0.240199 -0.413188 0.878396
-0.142672 0.00169076 -0.115608 -0.63458 -0.512969 -0.578076
-0.30001 0.0616443 -0.224755 0.187678 -0.937493 -0.293058
-0.378934 0.0962359 -0.2587 0.73682 0.383614 -0.55672
0.232676 -0.00573993 0.233338 0.708354 -0.0655031 0.702812
0.0763795 -0.178244 0.141679 -0.590864 -0.518078 0.618446
0.36282 -0.16096 0.303482 -0.629031 -0.0795787 -0.773296
-0.36208 0.164013 -0.339539 -0.800748 0.0412441 -0.59758
-0.0523738 -0.121035 -0.0896704 0.44142 -0.827583 0.346778
0.276398 0.0258993 0.284192 0.135777 -0.933002 -0.333274
-0.272671 -0.0915734 -0.28159 -0.122245 0.951995 0.280646
-0.348502 0.0586766 -0.23298 0.0452831 -0.99416 0.0979529
-0.280228 -0.0786117 -0.201106 -0.739396 0.0111584 -0.673178
0.128928 0.109583 0.204881 0.790481 -0.336146 0.512002
-0.202072 0.145024 -0.203192 -0.250953 0.962766 0.100522
-0.0133496 0.107466 0.0884334 -0.103025 0.955412 0.276721
-0.325067 0.201933 -0.324164 0.657786 0.353355 -0.665176
0.18395 -0.0486788 0.296209 0.82774 -0.0552145 0.558389
0.248302 -0.0041348 0.214087 0.854251 -0.0925446 0.511557
0.045416 0.044216 -0.013716 -0.578036 0.441685 -0.68614
-0.0590469 0.0296827 -0.0597009 -0.423205 0.798231 0.428631
0.278003 0.136055 0.26183 -0.168169 0.949604 0.264522
0.0127525 0.0559577 0.197551 -0.754157 0.307111 -0.580457
0.243229 -0.163638 0.145773 0.230117 -0.914949 -0.331534
-0.07628 -0.135156 -0.0682442 0.640169 -0.768134 -0.0124087
0.0357381 0.135784 0.0169996 -0.610586 0.115812 -0.783436
0.23862 0.0319928 0.249843 0.203975 -0.938923 -0.27716
0.124126 -0.186897 0.15071 0.0850378 -0.969973 -0.22786
0.243631 -0.189795 0.250509 0.135362 -0.981189 -0.137644
0.0918771 -0.0253136 -0.028156 0.694377 0.312179 -0.648371
0.237215 0.0879364 0.172495 0.671117 0.336411 -0.660628
0.0358862 0.124385 0.0774308 0.761879 -0.0434864 0.646257
0.0766621 -0.119654 0.174809 -0.633883 -0.397878 0.663239
0.335244 0.0696312 0.257313 0.613747 0.426027 -0.664693
-0.381324 0.162239 -0.272666 0.440816 -0.22284 0.869496
0.364782 -0.145288 0.272138 -0.863492 -0.334029 0.377897
-0.281787 0.162283 -0.329097 0.246265 -0.914515 -0.320961
0.090454 -0.00483617 0.243999 -0.650014 -0.358495 0.670047
0.0405966 -0.150992 0.120213 -0.746614 -0.19743 0.635287
-0.156737 0.0495796 -0.0501264 0.721868 -0.0456906 0.690521
0.132669 -0.0225554 0.116228 0.786682 -0.374529 0.490775
0.00187413 -0.056926 -0.0690615 0.705583 -0.480142 0.521169
0.355538 0.0795118 0.293843 0.63856 0.367161 -0.676338
-0.263944 -0.0118644 -0.126832 0.60666 -0.738912 0.293211
-0.0680757 0.119761 0.0294894 -0.0149993 0.984241 -0.176198
0.0561185 0.0187733 -0.00750776 -0.76898 0.0332748 -0.638407
-0.224966 -0.0640176 -0.264674 -0.448144 -0.0391169 -0.893105
-0.341686 0.129127 -0.354673 -0.693608 0.0549735 -0.718252
0.168833 0.0738816 0.18086 0.211548 0.740447 0.637955
-0.164846 -0.102007 -0.317061 0.692089 0.211872 -0.690017
0.153853 -0.0418014 0.0829103 0.655145 -0.271681 0.704964
0.248206 0.123952 0.280754 -0.22226 0.914081 0.3392
-0.266843 0.131213 -0.308196 0.841416 0.195574 -0.503756
0.146062 -0.164281 0.0981221 -0.0555028 -0.998449 0.00442416
-0.139546 0.0322572 -0.144443 -0.0850245 -0.755188 -0.649971
0.143181 0.0591583 0.270983 -0.143347 0.978109 0.150843
0.204415 0.136872 0.177441 -0.464312 0.809856 0.358535
-0.266852 -0.0256592 -0.15762 0.774946 -0.315933 0.547398
-0.205396 -0.137398 -0.220536 0.285298 -0.857347 -0.42844
0.260885 0.00364821 0.361711 0.0965888 -0.983475 -0.153124
0.00280734 -0.080682 0.0489648 -0.648073 -0.50434 -0.570652
-0.38737 -0.114412 -0.284173 -0.830468 -0.0551384 0.554331
0.0457774 -0.127411 0.0580207 -0.31442 -0.609544 -0.727733
-0.166314 -0.144458 -0.17582 0.294003 -0.90411 -0.310078
0.286561 0.079847 0.39221 0.0522449 0.293384 -0.954566
-0.0798914 0.111524 0.0418663 -0.207692 0.95156 0.226711
-0.185368 0.0278977 -0.189612 0.508513 -0.853748 0.111938
0.166787 0.0365105 0.350434 -0.742669 -0.270987 0.61238
0.273743 -0.0158342 0.156462 0.643658 0.428156 -0.63434
-0.163837 0.0262706 -0.124086 -0.083028 -0.89768 -0.432754
-0.322058 0.057474 -0.137952 -0.701962 -0.189633 0.686504
0.00975575 0.0493813 -0.0401515 0.729009 -0.0651957 0.681392
0.150945 0.0955317 0.183831 0.560192 0.267065 0.784131
0.105555 -0.065669 0.142987 0.521246 -0.0362874 0.852635
0.154964 0.0915 0.323319 -0.190022 0.948574 0.253178
0.22341 -0.151861 0.259551 -0.257347 0.918985 0.29873
-0.188207 0.0160888 -0.217967 0.910365 -0.409714 -0.0580501
-0.334014 -0.108716 -0.383769 -0.670385 0.024848 -0.741597
-0.163736 0.048216 -0.210408 0.491451 -0.85934 0.141458
-0.34896 0.188244 -0.310789 -0.142779 0.961853 0.233351
0.12874 -0.0119727 0.192639 0.355809 -0.924273 -0.138274
-0.0404722 0.0553546 -0.108234 -0.280348 0.876423 0.391519
-0.0535965 0.0469015 0.0997252 -0.596533 -0.0365591 -0.801755
-0.192584 -0.152539 -0.103762 -0.653319 -0.365647 0.66293
-0.0380182 0.137869 -0.0130605 -0.197155 0.933247 0.300301
0.00814315 -0.0754058 -0.118202 0.672295 -0.684854 0.281061
-0.026534 0.14543 -0.0375757 -0.0963521 0.974119 0.204469
-0.3007 0.0987705 -0.347264 0.223666 -0.908904 -0.351947
0.173742 -0.0868493 0.0275716 0.551074 0.458641 -0.697112
0.00109535 0.0565403 0.0885509 0.785018 -0.109574 0.609704
-0.21564 0.144786 -0.182288 0.613109 -0.0564573 0.787978
-0.187956 -0.00448708 -0.223887 0.420162 -0.261825 0.868857
-0.421438 0.0718335 -0.216288 -0.517581 -0.466147 0.717507
-0.19086 -0.125495 -0.244669 0.186051 -0.916599 -0.353881
0.228427 -0.00421516 0.16795 -0.0185389 -0.618824 -0.785311
0.181881 -0.0642945 0.0798199 0.548859 0.507875 0.66394
-0.132004 -0.073804 -0.168675 -0.476487 0.873583 -0.0990591
-0.0774716 0.0287507 -0.0763342 -0.194461 0.928068 0.317608
-0.225966 0.101517 -0.132793 -0.0104506 0.825426 0.564413
0.0350681 -0.0648187 0.166861 -0.581528 -0.37708 0.720858
0.101585 -0.152462 0.180105 -0.687324 -0.330085 0.647016
-0.308099 0.0850186 -0.31196 0.433 -0.725091 -0.535494
-0.382441 0.108044 -0.321519 -0.67086 -0.0120725 -0.741485
0.124384 0.063192 0.0949353 -0.725096 0.0643603 -0.685634
-0.360708 0.0934977 -0.144863 -0.856234 0.0482121 0.514333
0.254297 0.00326692 0.14927 0.672186 0.299306 -0.677187
-0.100059 -0.0487342 -0.237908 0.685537 0.332554 -0.647647
0.391239 0.10581 0.293829 0.248112 -0.802128 -0.543168
0.209594 -0.140188 0.257288 0.649376 -0.0844972 0.755758
0.318126 -0.12417 0.264304 0.522688 -0.333481 0.784594
0.315974 0.01969 0.363479 -0.294061 0.0407253 -0.954919
0.020784 -0.0904165 0.0372796 -0.519502 -0.404933 -0.752428
-0.101986 0.0406646 -0.101228 -0.110876 0.97883 0.172039
0.2829 -0.153007 0.13271 0.314865 -0.769395 -0.55578
0.212548 0.0976305 0.190233 -0.790181 0.612852 0.00511351
-0.161127 0.0482959 -0.17597 0.120696 -0.990971 -0.0583922
-0.207206 -0.0101442 -0.0559814 -0.594005 -0.396828 0.699775
-0.353444 -0.122869 -0.320369 0.173114 -0.956834 -0.233453
-0.0767534 -0.110097 0.00372695 0.593358 -0.305096 0.744877
0.0901535 -0.031271 0.167223 0.74324 -0.569666 0.35082
-0.187633 0.161558 -0.245969 0.784245 -0.05891 0.617649
-0.31241 -0.00749726 -0.145064 -0.70906 -0.238325 0.663653
-0.0255925 0.00789321 0.109396 0.783699 -0.11423 0.610546
-0.253633 -0.106455 -0.321467 0.264802 -0.964246 -0.010443
-0.135479 -0.092468 -0.299561 0.634296 0.366051 -0.680937
-0.0375232 -0.0429989 -0.170346 0.652739 0.36639 -0.663091
-0.239433 -0.0571718 -0.341259 -0.121775 0.857323 0.500169
0.0307584 0.0515185 0.193706 -0.805857 0.114054 -0.581022
0.184524 -0.104977 0.28772 0.619484 -0.0416207 0.783905
0.207426 0.033284 0.118346 0.75355 0.265855 -0.601235
-0.146493 -0.0921828 -0.0349355 -0.61841 -0.403437 0.674395
-0.401128 0.129773 -0.275877 -0.198122 0.952986 0.229271
-0.311278 -0.133135 -0.211645 -0.811949 -0.147636 0.564751
-0.349833 -0.140719 -0.26931 -0.60042 -0.462191 0.652591
-0.164314 0.110266 -0.0299691 0.860754 -0.0698128 0.504211
-0.221619 0.00887932 -0.18538 0.799897 -0.561193 0.212666
-0.348261 0.0558938 -0.161962 -0.65638 -0.355479 0.665432
0.0765463 -0.00182257 -0.0273882 0.553132 0.59013 -0.588041
-0.185858 -0.0196055 -0.290596 -0.758636 0.0635748 -0.648406
0.255767 -0.0623238 0.15246 -0.788554 0.348392 -0.506759
-0.239876 -0.137784 -0.158243 -0.733051 -0.0284551 0.679579
0.318016 -0.143531 0.168639 0.193542 -0.931218 -0.308827
-0.287886 0.0656304 -0.0783381 -0.649823 -0.370417 0.663718
0.150834 -0.0497563 0.0147738 0.68708 0.295193 -0.663915
0.364262 -0.105603 0.204155 -0.321289 0.851807 0.41376
-0.279916 -0.0380153 -0.126334 -0.64138 -0.379366 0.666868
0.271017 0.014181 0.345807 0.992852 0.116596 -0.0254843
-0.00265218 -0.0786635 -0.091476 0.678368 -0.658916 0.325033
-0.160565 -0.044088 -0.287651 0.5372 0.517633 -0.665937
0.018174 0.0106162 -0.0902776 0.743613 0.189143 -0.641299
-0.184955 0.0429603 -0.0155033 0.695027 -0.0287314 0.71841
-0.153347 -0.0738999 -0.192134 -0.230792 0.864452 0.446608
0.127154 -0.0768877 -0.0132295 0.428451 0.50263 -0.750861
0.0413873 0.0444147 0.229648 -0.828371 -0.0962026 0.551858
-0.308741 0.151316 -0.296661 -0.21187 0.956013 0.202857
0.245224 -0.0906455 0.208559 0.70087 -0.0521089 0.711383
-0.083497 0.0920352 0.0587842 0.694361 -0.0692285 0.716289
-0.13104 -0.160915 -0.0554214 0.336854 -0.941439 0.0149215
0.180534 0.0298307 0.360127 -0.723075 -0.298579 0.622907
-0.339725 0.08365 -0.138543 -0.72809 -0.316707 0.607932
0.251361 -0.0147462 0.235102 0.418962 -0.145231 0.896314
0.329816 -0.111755 0.201325 -0.216312 0.917483 0.333817
-0.0357992 0.00261995 0.00216895 0.743209 -0.0299302 0.66839
-0.278779 0.0916042 -0.109789 0.703284 0.399022 0.588365
-0.279925 -0.0501383 -0.397849 -0.0574446 0.996089 0.0671297
