ply
format ascii 1.0
comment Created by Open3D
element vertex 829
property double x
property double y
property double z
property double nx
property double ny
property double nz
end_header
-0.0848717 0.29377 0.380349 -0.83783 -0.479445 -0.261101
-0.376648 -0.218228 -0.106232 -0.708957 -0.674005 -0.207596
0.0469932 -0.25945 -0.326928 0.592683 0.73079 0.338634
-0.484552 -0.149237 0.0532582 0.77845 0.505928 0.371555
-0.343107 -0.0121301 0.127101 0.663322 -0.383686 -0.642487
0.0665197 -0.363971 -0.37037 0.30433 -0.757952 0.576968
-0.262078 0.186166 0.338659 -0.733274 0.188321 0.653333
0.0254759 -0.282905 -0.330764 -0.0275254 0.715343 0.698231
0.0140487 -0.230865 -0.378428 -0.273661 0.753331 -0.597998
0.0196774 0.335212 0.498741 0.233629 -0.740866 0.62971
-0.0990017 0.332753 0.467242 -0.612925 0.115032 0.781723
-0.360906 -0.213325 -0.112279 0.75275 0.474455 0.456355
0.0913441 -0.342232 -0.447206 0.907425 -0.224774 -0.355044
-0.374776 -0.215095 -0.0763492 0.732934 0.554969 0.393468
0.08812 -0.269265 -0.37266 0.694228 0.567562 0.44263
-0.40021 -0.209983 -0.0410545 0.393084 -0.79889 0.455258
-0.0429551 0.430477 0.440106 -0.206442 0.526076 0.825001
-0.384757 -0.0706137 0.10269 0.384644 0.670703 0.634197
-0.103498 0.381002 0.448079 -0.746161 0.212543 0.630927
-0.438865 0.00371059 0.162422 0.705283 -0.210001 -0.677108
-0.319092 -0.107488 -0.0468727 0.671895 0.498261 0.54799
-0.0551191 -0.39273 -0.439773 0.744208 0.561302 0.36207
-0.207843 -0.150213 -0.143053 0.583837 0.595412 0.551924
-0.0923656 -0.312707 -0.43871 -0.889837 -0.408784 0.202697
-0.0169307 0.414248 0.413136 -0.397102 0.719093 -0.570276
0.0238968 0.439733 0.41742 0.550729 0.455183 0.699647
-0.507127 -0.0690193 0.100782 0.0659544 0.574432 0.815891
-0.0628807 -0.409124 -0.425993 -0.724705 -0.55875 -0.403238
-0.510592 -0.0457297 0.129305 -0.7688 0.41625 0.485471
-0.535008 -0.0522686 0.110251 -0.740777 0.248757 0.623995
-0.037033 -0.221862 -0.291738 -0.652165 -0.580559 -0.487476
-0.382096 -0.137804 0.0952945 0.37199 -0.772411 0.514785
0.00833364 -0.337305 -0.313067 0.200552 -0.735999 0.646594
-0.0413913 0.233304 0.396444 -0.555683 -0.670177 -0.492015
-0.150896 -0.198627 -0.18035 -0.642259 -0.58886 -0.49066
0.0830149 -0.354866 -0.459059 0.78034 -0.185775 -0.597125
-0.145161 -0.171139 -0.19895 -0.24217 0.744985 -0.621572
-0.466512 -0.140031 -0.020403 -0.18476 0.704821 -0.684902
-0.355812 -0.0171912 0.142044 -0.558163 0.331247 0.760743
-0.264069 -0.251351 -0.22412 0.757291 0.516852 0.399216
-0.193142 -0.307994 -0.286555 0.61571 0.60684 0.50264
-0.288213 0.15425 0.324416 -0.702108 0.17385 0.690522
-0.478542 -0.140925 0.127882 0.263408 -0.748753 0.608264
-0.197172 -0.33186 -0.275852 -0.777911 -0.403106 -0.482037
-0.382822 -0.0360273 0.0458136 0.826448 0.562871 -0.0126548
-0.242017 -0.288896 -0.224139 0.696131 0.594297 0.402757
-0.0844393 0.35821 0.475146 -0.727898 0.294097 0.619412
-0.0060479 0.437888 0.434632 0.0382175 0.714526 0.698565
-0.439347 -0.0751683 0.0477981 -0.12945 0.708716 -0.693516
-0.33028 0.095535 0.264419 0.744179 -0.258826 -0.615797
-0.317314 -0.00159427 0.148962 0.648859 -0.379247 -0.659662
-0.0346724 0.238044 0.374337 -0.30669 -0.54672 -0.779127
-0.0761402 -0.371928 -0.465415 -0.759564 -0.548322 -0.349864
-0.340007 -0.11168 -0.0210606 0.513739 0.730984 0.449149
-0.26447 0.0631812 0.162323 0.625764 -0.351537 -0.696305
-0.306686 -0.225298 -0.192794 0.711293 0.578385 0.399415
0.00560295 0.228214 0.373033 0.00915915 -0.670129 -0.742188
-0.00877217 0.306386 0.308999 0.00664487 -0.499261 -0.866426
-0.44883 -0.0087389 0.19458 -0.738703 0.219146 0.637411
0.00101319 0.281678 0.435694 0.252959 -0.74526 0.616927
-0.235634 0.207823 0.362235 -0.746891 0.418084 0.517069
-0.110345 0.362378 0.447249 -0.738939 0.337026 0.583423
-0.0876611 0.385829 0.458246 -0.658308 0.323283 0.679794
0.0523759 -0.374183 -0.489958 0.48562 -0.373188 -0.790509
-0.00532381 0.341577 0.51026 0.235294 -0.744553 0.624722
-0.0314056 -0.258596 -0.255808 -0.623104 -0.657233 -0.424012
-0.350088 -0.14042 0.00108405 -0.670193 -0.554766 -0.493027
0.0773699 0.285628 0.355162 0.757814 -0.391967 -0.521613
0.0348271 -0.371621 -0.502553 0.293333 -0.581624 -0.758728
-0.0571056 -0.237164 -0.253694 -0.666635 -0.631219 -0.396434
-0.372143 -0.0875287 0.0529788 0.72837 -0.225135 -0.647142
-0.0539925 0.203913 0.280709 0.646957 -0.219998 -0.730101
-0.334575 0.0236809 0.140212 -0.638581 0.18952 0.745853
-0.131891 0.139054 0.266054 -0.627839 0.354634 0.692859
0.0144546 0.402414 0.387036 -0.457061 0.780705 -0.42614
-0.156121 -0.318985 -0.344131 0.734388 0.561385 0.381472
0.0464442 0.37776 0.487149 0.331622 -0.735718 0.590546
0.0863313 -0.270547 -0.454774 0.986484 0.135625 -0.0919526
-0.478548 -0.0898181 0.0897872 0.915481 0.377058 0.140437
0.0376369 0.335016 0.318355 0.637913 -0.367927 -0.676533
-0.0259816 0.401129 0.401966 -0.214444 0.726141 -0.653248
0.103233 -0.307042 -0.363449 0.871111 0.435035 0.227836
0.106779 -0.338095 -0.449299 0.904259 0.111084 -0.412281
-0.191949 -0.176422 -0.159815 -0.612998 -0.626726 -0.48109
-0.0148634 0.3767 0.507445 0.31666 -0.793245 0.520085
-0.126711 0.282011 0.4352 0.466873 -0.73568 0.490719
-0.161856 0.154904 0.229864 -0.620145 0.423016 0.660664
-0.0477138 -0.321727 -0.472069 -0.250095 0.745018 -0.618386
-0.27882 0.0470886 0.158254 0.624609 -0.43148 -0.650913
-0.297595 0.148648 0.30553 -0.718025 0.179167 0.672562
-0.307425 -0.146298 -0.0152064 0.614492 0.689445 0.38349
-0.143406 0.151322 0.22921 0.619484 -0.305479 -0.723134
-0.521938 -0.128023 0.0382641 -0.735769 -0.562553 -0.377064
-0.312446 -0.248168 -0.190619 -0.662521 -0.637245 -0.393681
-0.188712 0.0946652 0.23384 -0.631393 0.263829 0.729204
-0.302462 -0.129025 -0.0476014 0.619872 0.614894 0.487507
-0.496791 -0.0649955 0.0957474 0.603667 0.671781 0.429297
-0.414617 -0.0350686 0.0812286 -0.29091 0.755055 -0.587591
-0.418919 -0.0809393 0.0436924 -0.605156 -0.643699 -0.468443
-0.355697 -0.104507 0.0803764 0.933721 0.111923 -0.340057
-0.0801197 0.311262 0.468194 -0.869104 -0.00444276 0.49461
-0.438329 -0.0453374 0.0414525 -0.967911 -0.22014 0.121187
-0.255922 -0.281061 -0.213182 0.763656 0.431557 0.480196
-0.386019 0.0907708 0.218822 -0.303126 0.769645 -0.561927
-0.0023273 0.361195 0.337916 -0.25976 0.746326 -0.612799
-0.539682 -0.113373 0.122298 -0.920607 0.01819 0.390067
-0.0834096 0.280514 0.446119 -0.972963 -0.178459 0.146613
-0.0586503 0.228798 0.285232 -0.594871 0.306797 0.742969
0.0731341 -0.262168 -0.357252 0.641402 0.618948 0.453328
-0.139346 -0.354801 -0.36638 -0.773539 -0.549138 -0.316363
-0.481522 -0.146887 -0.00947237 -0.717153 -0.595777 -0.361582
-0.311908 -0.233186 -0.203922 -0.28899 0.773159 -0.564544
0.099953 -0.322365 -0.466563 0.915039 -0.0972402 -0.391469
-0.0685943 0.403885 0.445634 -0.517256 0.416401 0.7477
-0.358053 -0.133047 0.0869518 0.74015 -0.466877 -0.483946
-0.225707 0.0551238 0.207356 0.310655 -0.74444 0.591018
-0.425939 -0.0208245 0.0531557 -0.388384 0.746144 -0.540765
0.00230931 -0.401544 -0.463363 0.0355876 0.748803 0.661837
-0.0955728 0.155576 0.271437 0.639231 -0.389472 -0.663095
-0.420677 0.025299 0.183066 0.753741 -0.272469 -0.598027
-0.0642132 0.234473 0.261965 -0.11111 0.760833 -0.639365
-0.395931 0.0383276 0.216718 0.743771 -0.268222 -0.61226
-0.302632 0.0531283 0.135215 -0.182272 0.73907 -0.6485
-0.261839 -0.137011 -0.094159 0.612585 0.639058 0.465128
-0.0435571 0.291118 0.4673 0.26783 -0.747882 0.607404
0.0418539 -0.286769 -0.326747 -0.560677 -0.687868 -0.460955
-0.0138329 0.24217 0.324131 -0.62654 0.365624 0.688307
-0.0216377 0.286915 0.456028 0.130188 -0.681635 0.720017
-0.4482 -0.0638382 0.0686854 -0.915906 -0.0637682 0.396296
-0.171791 0.286092 0.377775 0.653179 -0.158205 -0.740492
-0.14454 -0.332382 -0.386623 -0.747025 -0.632392 -0.205024
-0.0664179 -0.248068 -0.217484 0.298276 -0.769168 0.565166
-0.385592 0.0248978 0.231452 0.758731 -0.280603 -0.587868
-0.108864 0.311847 0.459929 -0.736457 0.229391 0.636404
-0.0521533 -0.412226 -0.376182 0.243667 -0.744001 0.622165
-0.410491 -0.134259 0.0981533 -0.845276 -0.48144 -0.231785
-0.413456 -0.11987 0.093008 -0.882669 -0.460859 0.0922159
-0.495752 -0.0795554 0.156622 0.235878 -0.748164 0.620171
-0.361184 0.109732 0.231863 -0.223181 0.73807 -0.636744
0.119666 -0.314293 -0.386298 0.925144 0.35651 -0.130418
-0.525369 -0.114856 0.0269783 -0.351186 0.814669 -0.461501
-0.0102028 -0.427191 -0.413283 0.346083 -0.760054 0.550041
-0.115038 -0.205427 -0.215279 -0.629329 -0.624976 -0.461899
-0.286378 0.174472 0.312176 -0.718203 0.19502 0.667945
-0.323032 0.0850425 0.283698 0.358757 -0.759024 0.543301
0.0516513 0.408145 0.450974 0.545007 0.693049 0.471858
-0.404818 -0.126497 0.0825825 -0.654738 -0.478326 -0.585255
0.0113525 -0.27156 -0.436047 -0.279257 0.755628 -0.592488
-0.155538 -0.212342 -0.155344 -0.62071 -0.61655 -0.48434
-0.0715636 -0.310249 -0.440109 -0.193338 0.643838 -0.740333
-0.0090688 -0.427369 -0.434942 -0.377131 -0.655541 -0.654247
0.0972197 -0.273505 -0.386597 0.846149 0.479727 0.232149
-0.17153 -0.339416 -0.329157 -0.74804 -0.586329 -0.310894
-0.190963 -0.320108 -0.308994 -0.73537 -0.562137 -0.378463
-0.0728806 0.224965 0.27123 -0.603416 0.294869 0.740906
-0.0448404 0.266852 0.353645 -0.438176 -0.555534 -0.706671
-0.0274091 -0.312585 -0.320371 -0.445957 0.405951 0.797701
-0.416356 -0.0718653 0.0336812 -0.528352 -0.643314 -0.554068
-0.471165 -0.111239 0.0892959 0.926451 -0.226113 -0.300933
-0.201068 -0.285498 -0.308966 -0.249673 0.743515 -0.620362
-0.222878 0.102904 0.180426 0.647063 -0.386334 -0.65731
-0.363226 0.108931 0.244934 -0.689495 0.184507 0.700396
-0.283228 -0.169563 -0.0390099 0.409003 -0.725683 0.553264
0.0640815 0.373135 0.47389 0.369589 -0.731093 0.573505
0.0194708 -0.315394 -0.48111 -0.2365 0.721452 -0.650826
0.102084 -0.324634 -0.388157 0.939827 0.341625 -0.00425251
-0.238577 -0.160436 -0.119243 -0.599047 -0.676193 -0.428843
-0.228476 -0.322836 -0.246361 0.216451 -0.725807 0.652958
-0.273864 -0.272925 -0.221968 -0.761009 -0.498804 -0.414802
-0.0127001 0.234941 0.298089 0.566623 -0.33883 -0.751088
-0.551457 -0.0965556 0.0580016 -0.324666 0.73134 -0.599778
-0.284842 0.0166586 0.188417 0.295001 -0.742117 0.601861
-0.060171 -0.363726 -0.459324 -0.0855271 0.698361 -0.710617
0.0338837 -0.270623 -0.296098 0.276525 -0.747339 0.604167
-0.160857 0.116411 0.249758 -0.621766 0.352822 0.699231
-0.12054 -0.34188 -0.405502 -0.699524 -0.590407 -0.402598
-0.206957 -0.314719 -0.249843 0.732466 0.517657 0.442181
-0.310554 0.0395466 0.133826 0.615679 -0.277895 -0.73737
-0.386786 -0.107255 0.00425327 -0.595134 -0.633461 -0.494513
0.00280725 -0.359989 -0.337314 0.33659 -0.729269 0.595712
-0.4685 -0.024797 0.173251 -0.768291 0.380972 0.514382
-0.160644 -0.185677 -0.156951 0.623932 0.618565 0.477584
-0.369975 0.0966905 0.222293 -0.245475 0.739378 -0.626946
-0.00925244 0.244428 0.361132 -0.141174 -0.645015 -0.751017
-0.274079 -0.15146 -0.0584101 0.54558 0.675696 0.495759
-0.200604 0.0836966 0.208248 0.618962 -0.34303 -0.706552
-0.342458 -0.139218 0.0126945 0.635572 0.567793 0.523125
-0.407199 0.0536837 0.194954 0.742772 -0.294991 -0.601058
-0.0354529 0.258107 0.355961 -0.334664 -0.662486 -0.670158
-0.226473 -0.306276 -0.277722 -0.780899 -0.393041 -0.485505
0.0378912 -0.238592 -0.373417 0.432975 0.663341 0.610337
0.0490086 -0.365073 -0.366963 0.201657 -0.726276 0.657159
0.0257945 0.383714 0.496353 0.271779 0.657841 0.702411
0.0196946 -0.398367 -0.487879 0.100833 -0.568318 -0.816608
0.066939 0.362673 0.354491 0.936479 0.0214652 -0.350066
-0.0388431 -0.268879 -0.351911 -0.428442 0.444329 0.786771
-0.40916 0.053184 0.212838 -0.750177 0.303366 0.587541
0.103199 -0.2873 -0.399383 0.920657 0.366264 0.135061
-0.0765772 0.25076 0.421927 -0.90836 -0.360339 -0.212222
-0.348961 0.110805 0.257568 -0.773161 0.40187 0.490635
0.0404307 0.425469 0.41745 0.68741 0.566561 0.454397
0.0815451 -0.302989 -0.347455 0.683412 0.570783 0.455142
0.0708862 -0.267456 -0.383876 0.70789 0.614218 0.348752
-0.0269073 -0.32798 -0.48303 -0.173418 0.750218 -0.638043
-0.237965 -0.312121 -0.238039 -0.700575 -0.588153 -0.404067
-0.0609022 -0.216147 -0.278552 -0.665494 -0.531608 -0.523937
-0.0610443 0.309046 0.498524 0.264816 -0.755822 0.598837
-0.186297 0.138447 0.196482 -0.262062 0.747362 -0.610552
-0.0299623 0.322858 0.498233 0.168354 -0.685648 0.708197
-0.369089 -0.191795 -0.125681 -0.234715 0.698495 -0.676028
-0.335438 -0.239946 -0.107304 0.374974 -0.725079 0.577629
-0.303535 -0.245048 -0.159729 0.721336 0.526894 0.449506
-0.0210245 -0.255964 -0.396105 -0.275167 0.76784 -0.578537
-0.244368 -0.273335 -0.241604 0.725356 0.606356 0.325869
-0.405301 -0.198339 -0.0748052 -0.832357 -0.416176 -0.366032
-0.0236738 0.339753 0.321006 -0.314229 0.751129 -0.580573
-0.556103 -0.0981822 0.0758131 -0.941493 -0.319463 0.107395
-0.514635 -0.115589 0.063971 -0.339895 -0.630744 -0.697591
-0.380629 0.082063 0.234588 -0.74747 0.29029 0.597512
-0.0662183 0.373348 0.465509 0.620645 -0.382702 -0.684352
-0.253948 0.0338334 0.194906 0.12574 -0.729295 0.672546
-0.456247 -0.180827 -0.000216252 -0.738105 -0.559176 -0.377521
-0.177468 0.100129 0.249311 -0.613638 0.22522 0.756785
0.0581795 -0.275026 -0.457039 -0.235119 0.724514 -0.647918
-0.0325611 -0.220013 -0.283366 0.619721 0.61464 0.48802
-0.373952 -0.103068 0.00575112 0.635506 0.640227 0.431556
-0.0533776 -0.227966 -0.277717 -0.63053 -0.505159 -0.589276
0.00260247 -0.324909 -0.295181 -0.208529 0.638008 0.741257
-0.427533 -0.0673018 0.101818 -0.630492 0.289096 0.720349
-0.386521 -0.119131 0.0168125 -0.58137 -0.681496 -0.444491
-0.0948208 -0.2289 -0.189237 0.281583 -0.794296 0.538335
0.0622318 -0.270355 -0.329972 0.669678 0.615099 0.416156
-0.0469992 0.251102 0.37807 -0.594534 -0.607276 -0.527015
-0.400918 -0.0296608 0.0292879 -0.16591 0.6847 -0.70969
-0.0089207 0.309179 0.471422 0.210958 -0.707512 0.67448
-0.0839353 0.391456 0.414063 -0.262737 0.74941 -0.607745
-0.533004 -0.100323 0.0643503 0.695908 0.596243 0.400259
-0.237717 0.0614538 0.187694 0.632426 -0.389423 -0.669618
0.0392367 0.250852 0.38833 0.306424 -0.748654 0.587896
-0.229426 0.103898 0.198751 -0.630168 0.387949 0.672595
0.0239382 0.407977 0.478632 0.401129 0.677763 0.616225
-0.33065 -0.150166 -0.0236542 -0.619285 -0.61432 -0.488975
-0.342605 -0.222246 -0.139834 0.719344 0.585445 0.373897
-0.355895 -0.123047 -0.0161941 -0.573231 -0.655712 -0.491373
-0.207384 0.100087 0.215266 -0.624595 0.427239 0.653719
-0.150805 0.315396 0.409644 -0.705557 0.102877 0.701146
-0.448243 -0.16283 -0.00525205 0.738626 0.558052 0.378165
-0.192017 0.116942 0.197289 0.616009 -0.304384 -0.726555
0.00581344 -0.436229 -0.4359 -0.174685 -0.673522 -0.718229
-0.116675 -0.194436 -0.199123 0.63449 0.623932 0.456214
-0.217921 0.0850646 0.193233 0.585037 -0.207172 -0.784099
-0.209832 -0.302168 -0.313622 -0.76011 -0.503984 -0.410163
0.11433 -0.319927 -0.417295 0.977059 0.174176 -0.122552
-0.0579325 0.392522 0.458803 0.467407 -0.498846 -0.729852
-0.00356254 -0.239836 -0.381324 -0.202192 0.741104 -0.640221
0.0291677 -0.350848 -0.504088 0.267766 -0.58555 -0.765136
0.0429152 0.409187 0.429268 0.695463 0.586683 0.414892
-0.400472 -0.0845727 0.0198683 0.610506 0.632404 0.47681
0.105434 -0.3376 -0.362165 0.935094 0.305381 0.179841
0.0123796 -0.289388 -0.44984 -0.393845 0.733213 -0.554333
-0.538052 -0.126653 0.0811229 -0.795172 -0.591989 -0.131343
-0.0641237 -0.375678 -0.477762 -0.195236 0.73683 -0.647275
0.0182068 -0.32585 -0.496788 -0.265275 0.74846 -0.607814
0.0659029 -0.296985 -0.336379 0.589961 0.602341 0.53771
-0.0345727 0.368216 0.506062 0.36567 -0.738395 0.56662
-0.306237 0.0105115 0.14662 0.619279 -0.235707 -0.748956
-0.327101 -0.233458 -0.136419 0.737439 0.591874 0.325376
-0.376698 -0.125383 0.0034222 -0.683759 -0.645432 -0.340428
-0.411987 -0.0305529 0.0954195 -0.601875 0.299836 0.740165
-0.209009 0.0966113 0.191734 0.639742 -0.265259 -0.721366
-0.00277153 -0.296979 -0.318175 -0.17054 0.498753 0.849801
-0.126374 0.190741 0.246711 -0.650973 0.387742 0.652603
-0.338723 -0.108906 -0.0395529 -0.368719 0.742018 -0.559871
-0.17199 -0.327783 -0.301686 0.669429 0.63354 0.387933
-0.331499 -0.118454 -0.0339124 0.727566 0.575935 0.372755
-0.496853 -0.156316 0.0682134 0.437066 -0.751625 0.493998
-0.520581 -0.0556878 0.0524119 -0.235348 0.74162 -0.62818
0.0723059 -0.288875 -0.356514 -0.643277 -0.579198 -0.500724
-0.0711358 0.269926 0.378549 -0.747542 -0.579795 -0.324066
0.107073 -0.351398 -0.447029 0.870921 0.000255351 -0.491423
-0.0710432 -0.381084 -0.41568 0.731531 0.579402 0.359382
-0.0202536 -0.296639 -0.327136 -0.307268 0.593871 0.743575
-0.3735 -0.135361 0.077668 0.308359 -0.432831 -0.847096
-0.0630311 0.328518 0.486392 -0.651951 0.257228 0.713298
-0.291393 -0.230816 -0.209359 0.684303 0.617926 0.387165
-0.38555 -0.103853 0.127512 0.0610902 0.570528 0.819003
-0.481014 -0.143263 0.0859934 0.350503 -0.42964 -0.8322
-0.18186 0.148567 0.208124 -0.299349 0.741813 -0.600087
0.0119153 -0.284737 -0.327071 0.00857411 0.593126 0.805064
-0.0841334 -0.213893 -0.218145 0.604932 0.618775 0.501174
-0.497499 -0.0680834 0.149985 -0.695749 0.199958 0.689892
-0.387363 -0.0373481 0.0671104 0.641954 0.608047 0.467091
-0.202291 0.273424 0.372834 -0.706654 0.214932 0.674124
-0.0775155 -0.357242 -0.41029 -0.89875 -0.437805 0.0239806
-0.367552 0.0511575 0.24031 0.761209 -0.127584 -0.635833
-0.418048 -0.112318 0.0479224 -0.523493 -0.545577 -0.654447
0.0714421 -0.398439 -0.412288 0.202554 -0.732557 0.649871
-0.502179 -0.0448557 0.14157 -0.723514 0.209299 0.657815
0.0785272 0.297131 0.427362 0.242992 -0.72394 0.645651
-0.370892 0.0742958 0.221937 0.747337 -0.325452 -0.579282
-0.0159019 -0.414602 -0.453438 -0.282862 -0.592651 -0.754158
-0.404457 -0.0746492 0.124295 -0.659037 0.506019 0.556431
-0.311545 -0.148081 -0.040627 -0.526089 -0.662153 -0.533651
0.0547754 -0.27695 -0.313758 0.570421 0.647039 0.505925
-0.537094 -0.0797158 0.0433147 -0.613552 -0.693193 -0.378203
0.00205606 -0.225423 -0.318438 0.445582 0.671061 0.592566
-0.362932 -0.126898 -0.000166191 -0.577746 -0.583757 -0.570471
-0.22434 -0.269925 -0.276767 0.787785 0.465418 0.403462
-0.275459 -0.285706 -0.203222 -0.740441 -0.543101 -0.395965
0.0414918 -0.341715 -0.501117 0.449485 -0.382693 -0.807161
-0.477098 -0.163481 0.0445903 0.26067 -0.74454 0.614582
-0.0521523 0.366662 0.499555 -0.305173 0.392422 0.867684
0.062808 0.308829 0.355649 0.787935 -0.195613 -0.583861
0.0828366 -0.360965 -0.369221 0.211039 -0.726271 0.654212
-0.331775 0.0366005 0.13108 -0.315022 0.771494 -0.552773
0.0750692 0.30436 0.368926 -0.863789 0.270906 0.424828
0.082556 0.382159 0.426945 0.813333 0.567317 0.128994
-0.00522004 0.253927 0.412582 0.244221 -0.747042 0.618291
-0.0574947 -0.285329 -0.419599 -0.201742 0.752235 -0.62725
0.0314025 -0.266121 -0.436081 -0.114765 0.753907 -0.64688
-0.497293 -0.141123 0.0778288 0.099378 -0.71141 -0.695716
0.0680384 0.369655 0.438096 0.779184 0.541254 0.316095
-0.409346 -0.186139 -0.0450497 0.742172 0.576212 0.342287
-0.0416363 0.243049 0.290334 -0.616532 0.258631 0.743639
0.0112662 -0.23301 -0.335646 -0.0649647 0.748475 -0.659974
-0.248799 0.175064 0.331559 0.676473 -0.0212436 -0.736161
0.100617 -0.317941 -0.396826 -0.9752 -0.221052 0.0109791
-0.231941 -0.275856 -0.263379 0.692695 0.601735 0.397605
-0.432293 -0.197994 -0.0230031 -0.744855 -0.549688 -0.378198
-0.169148 -0.196694 -0.129362 0.625468 0.625938 0.465823
-0.520864 -0.0585069 0.125246 -0.744648 0.407017 0.528996
-0.523944 -0.130712 0.0905596 0.736887 0.653809 0.171847
-0.183423 0.261742 0.396631 -0.707442 0.252086 0.660287
0.00572493 0.379855 0.362481 -0.228845 0.722644 -0.652239
-0.409642 0.00408078 0.211372 0.748186 -0.138846 -0.648799
0.0858809 0.338179 0.440695 0.930327 0.244259 0.273548
0.0609797 -0.348572 -0.481782 -0.618529 0.287686 0.731203
-0.244425 0.0935991 0.191068 -0.627056 0.386829 0.676139
-0.00034264 -0.243607 -0.286169 0.576624 0.631967 0.517806
-0.393995 -0.141447 0.0861988 0.319378 -0.753684 0.57442
-0.0779777 0.22511 0.251906 -0.0997111 0.749685 -0.65424
-0.500603 -0.156735 0.119101 0.279725 -0.749347 0.600194
-0.300385 0.136303 0.287789 0.75756 -0.277199 -0.590985
-0.442457 -0.195254 -0.0121989 -0.73079 -0.551797 -0.401829
-0.283002 -0.244827 -0.207229 0.71296 0.581573 0.391741
0.10778 -0.346441 -0.393487 0.943716 0.253067 -0.212974
-0.0697957 -0.321791 -0.459549 -0.2124 0.726473 -0.653546
0.0530698 0.392907 0.432405 -0.747662 -0.60524 -0.273286
-0.183091 -0.156561 -0.15873 0.620348 0.673489 0.401971
-0.149514 -0.173384 -0.181758 0.732539 0.579913 0.356493
-0.13185 0.291733 0.451195 -0.658243 0.19322 0.727586
-0.288592 0.186233 0.301034 -0.752932 0.312265 0.579296
-0.420858 -0.125946 0.0689847 0.214413 -0.731602 0.647137
-0.0902174 0.371127 0.435132 -0.840843 0.218422 0.495252
0.0219288 -0.256642 -0.297892 0.629389 0.626367 0.459928
-0.265479 0.20952 0.323685 -0.732559 0.328284 0.596312
0.0454428 -0.250098 -0.342256 0.678457 0.62796 0.381264
-0.261243 0.18864 0.315599 0.755807 -0.311823 -0.57578
-0.0465564 -0.411086 -0.449569 -0.533082 -0.617225 -0.578668
-0.134782 -0.211385 -0.158116 0.621538 0.612059 0.488953
-0.327673 0.092812 0.29367 -0.688875 0.202372 0.696058
-0.0964037 0.347756 0.435886 -0.855253 -0.045361 0.516222
-0.405069 -0.107115 0.0603765 -0.424505 -0.668646 -0.610498
-0.0732273 0.281498 0.359137 -0.58718 -0.665653 -0.460571
-0.042048 -0.316922 -0.324442 -0.580934 0.32433 0.746543
-0.0178696 -0.422533 -0.40005 0.311621 -0.759968 0.570386
-0.0876864 -0.316895 -0.448529 -0.105114 0.686987 -0.719027
-0.00467578 -0.293475 -0.452792 -0.260924 0.744304 -0.61476
-0.0590776 -0.261116 -0.389846 -0.329126 0.779388 -0.533133
-0.0436752 0.232231 0.296127 -0.627083 0.464188 0.625537
-0.503558 -0.163426 0.11373 0.238215 -0.734145 0.635834
-0.427457 -0.0911118 0.0301987 -0.620221 -0.628433 -0.469466
-0.377912 -0.013158 0.122786 -0.731527 0.440932 0.520046
-0.183051 0.24665 0.378215 0.744116 -0.257837 -0.616289
-0.411483 -0.103628 0.0301689 -0.627458 -0.614771 -0.477863
-0.0462609 0.413987 0.42185 -0.351866 0.755381 -0.552802
-0.0237681 0.373856 0.368206 -0.173132 0.727051 -0.664396
-0.469678 -0.179828 0.0156594 -0.783349 -0.452094 -0.426586
0.0234902 -0.405023 -0.40175 0.192247 -0.723496 0.663019
0.0265269 0.259013 0.321955 0.688554 -0.379933 -0.617692
-0.0656749 0.400677 0.414589 -0.214013 0.69768 -0.683697
-0.435244 0.00799236 0.202478 -0.749223 0.268962 0.605247
0.0388268 0.257387 0.341542 0.377804 -0.731808 0.567205
-0.395184 -0.0876914 0.113469 -0.180192 0.613372 0.768964
-0.0109027 -0.251373 -0.296322 -0.680206 -0.516493 -0.520149
-0.185543 0.0822588 0.228949 0.293718 -0.759301 0.580682
-0.443393 -0.183759 -0.0250789 -0.769828 -0.503108 -0.392743
-0.0347576 0.277787 0.341126 -0.26715 -0.668217 -0.694346
-0.00615805 0.42484 0.469156 0.105173 0.616258 0.78049
-0.0377167 0.251985 0.368354 -0.399847 -0.664238 -0.631593
-0.0327595 0.318139 0.300093 -0.0625641 -0.622615 -0.780023
0.0118581 0.374941 0.348894 -0.179101 0.706301 -0.684881
-0.159763 -0.340669 -0.349996 -0.743168 -0.546194 -0.386489
0.107489 -0.30175 -0.432029 0.99799 0.0321214 -0.0546212
-0.519145 -0.150348 0.126504 0.247716 -0.740474 0.624768
-0.311993 -0.246113 -0.140513 0.737 0.546052 0.398319
-0.522331 -0.100078 0.0462046 0.74208 0.543762 0.39197
-0.241321 -0.306916 -0.221182 0.345699 -0.718083 0.604027
0.076593 -0.324255 -0.473323 0.82536 0.0419567 -0.563046
-0.363028 -0.110153 -0.0302738 -0.591183 -0.536243 -0.60245
-0.287506 -0.15469 -0.0407793 0.656915 0.572703 0.490381
-0.327727 -0.005327 0.160235 -0.592831 0.235876 0.770009
-0.0222431 -0.235725 -0.292161 -0.627737 -0.613812 -0.478728
-0.163721 -0.185026 -0.184353 -0.677868 -0.593819 -0.433444
-0.286178 0.0778048 0.159071 -0.628238 0.383702 0.676824
-0.0928629 -0.360732 -0.44369 -0.235865 0.737076 -0.633314
0.089999 -0.259473 -0.40297 0.830186 0.522065 0.19555
-0.0895613 0.385659 0.399808 -0.272051 0.750466 -0.60232
-0.0692776 0.28043 0.464884 0.242232 -0.745126 0.621378
-0.104248 -0.193324 -0.243033 -0.6285 -0.595861 -0.499938
-0.394411 0.0417496 0.237932 -0.752302 0.260653 0.605063
0.0492774 0.42316 0.440615 -0.22529 0.714289 -0.662597
-0.231855 0.0978176 0.170613 0.600094 -0.22032 -0.76899
-0.489082 -0.0776068 0.0475136 0.772283 -0.176105 -0.610382
-0.073886 -0.367201 -0.422451 -0.892427 -0.428169 -0.142288
-0.218704 -0.301182 -0.242281 0.733193 0.566006 0.376915
-0.0101766 0.320538 0.300495 0.136401 -0.498676 -0.855989
-0.00426241 -0.257728 -0.406439 -0.209581 0.704428 -0.678127
0.0100353 0.286639 0.315108 -0.609347 0.446295 0.655376
-0.273581 0.162082 0.335655 -0.713708 0.201574 0.670812
-0.470983 -0.123837 0.140824 0.55447 0.680008 0.479742
-0.0573865 -0.322387 -0.34472 -0.756433 0.185333 0.627265
-0.0912358 0.341468 0.474808 -0.73041 0.242466 0.638523
-0.0142249 0.252291 0.28963 0.669561 -0.489371 -0.558752
-0.0756276 0.366258 0.485986 -0.605741 0.401724 0.686801
-0.0518849 -0.252097 -0.233168 -0.590039 -0.526318 -0.612245
-0.362751 -0.199071 -0.139886 -0.189383 0.746564 -0.63779
0.0374303 -0.260156 -0.346898 -0.634822 -0.565002 -0.527042
-0.232094 -0.30522 -0.259511 -0.723243 -0.578957 -0.376468
-0.0180696 0.27991 0.338548 -0.135296 -0.645684 -0.751523
-0.435047 -0.0561463 0.0598041 -0.948217 -0.054355 0.312937
-0.228398 -0.168675 -0.122521 -0.579564 -0.611011 -0.539232
-0.512312 -0.148838 0.0633422 -0.700446 -0.592872 -0.397339
-0.421524 -0.0160147 0.20095 0.744606 -0.263993 -0.613083
-0.260188 0.0709667 0.18526 -0.682267 0.484948 0.547117
-0.437823 -0.170047 -0.0591214 -0.723465 -0.600179 -0.34115
-0.53224 -0.111064 0.107509 -0.933028 0.123934 0.337786
-0.37506 -0.0900804 0.118088 0.30335 0.668713 0.678824
0.0517073 -0.412543 -0.449472 0.303999 -0.59482 -0.74416
-0.0642556 0.263855 0.439364 0.257612 -0.74797 0.6117
-0.177892 -0.18618 -0.166096 -0.674803 -0.642582 -0.362945
-0.127158 -0.346349 -0.362115 0.699895 0.626182 0.343573
0.0109094 0.282536 0.300846 0.628461 -0.367232 -0.685695
0.0606563 -0.284247 -0.321272 0.653305 0.544303 0.526238
-0.346355 -0.00779388 0.149413 -0.554072 0.305222 0.774496
-0.295323 -0.125286 -0.0826268 -0.120588 0.728611 -0.674229
0.00511253 0.316798 0.305589 0.272203 -0.602663 -0.750135
0.118831 -0.340523 -0.407315 0.220011 -0.717151 0.661279
-0.327231 -0.218542 -0.156654 0.74239 0.556556 0.372965
-0.379421 -0.202725 -0.121274 -0.863004 -0.372743 -0.341009
0.0573501 0.335481 0.335642 0.822934 -0.254611 -0.507891
-0.286156 -0.282563 -0.177534 0.340549 -0.814774 0.469223
-0.173748 -0.172387 -0.152492 0.652515 0.566422 0.503378
-0.0506721 0.322689 0.499177 -0.659389 0.440646 0.609129
-0.416064 -0.209694 -0.0362652 0.158375 -0.753769 0.637769
0.00749117 0.247104 0.362693 0.0688281 -0.625973 -0.776801
-0.244427 0.20442 0.326069 0.735098 -0.210167 -0.644563
0.0471691 0.295427 0.433844 0.327028 -0.745976 0.580149
0.0521479 -0.245502 -0.414746 -0.209938 0.730962 -0.649323
-0.197375 0.0966433 0.20572 0.609251 -0.341965 -0.715453
0.0610023 -0.326073 -0.317012 0.209012 -0.703589 0.679174
0.0759482 -0.270372 -0.463076 -0.192714 0.745231 -0.638351
-0.0967381 -0.199187 -0.222883 0.565779 0.594389 0.571486
-0.212832 0.124229 0.197382 -0.659109 0.437537 0.611667
-0.155425 0.134467 0.222517 0.694448 -0.443432 -0.566666
-0.14027 0.313418 0.408417 0.7952 -0.333748 -0.506231
-0.100304 0.323332 0.403141 -0.937222 -0.3208 0.136757
0.0175304 0.262499 0.413593 0.381535 -0.752268 0.537145
0.0277351 -0.330195 -0.311398 0.424181 -0.741313 0.52012
-0.0771818 0.342829 0.467895 0.755486 -0.398283 -0.520203
-0.211657 -0.198417 -0.109281 -0.643445 -0.55328 -0.529018
-0.0208183 0.24203 0.308795 -0.633339 0.328953 0.700479
-0.176624 -0.207219 -0.13729 -0.608317 -0.438943 -0.661272
-0.264936 -0.268099 -0.243388 -0.743265 -0.56069 -0.364945
-0.0141163 -0.249825 -0.355531 -0.18784 0.561699 0.805736
-0.304992 -0.137246 -0.0323165 0.544807 0.628717 0.554887
-0.291919 -0.241608 -0.194337 0.697126 0.600318 0.391961
-0.209785 0.257101 0.347914 -0.361654 0.746663 -0.558302
-0.372311 -0.0294306 0.132085 -0.646308 0.395492 0.652589
-0.176157 -0.311126 -0.320085 0.739788 0.561329 0.370976
-0.143542 0.310026 0.419673 -0.745748 0.261826 0.612624
-0.0647218 -0.374476 -0.44972 0.709586 0.523569 0.471554
-0.0109823 0.319046 0.484269 0.305853 -0.78482 0.538991
0.103801 -0.369092 -0.418749 0.892858 -0.240652 -0.380645
-0.396624 -0.063921 0.13088 -0.63829 0.394892 0.660792
0.0182821 -0.298821 -0.462074 -0.297282 0.748843 -0.592333
-0.402411 -0.173714 -0.081705 0.730946 0.565076 0.382632
-0.470883 -0.114412 0.125903 0.710788 0.578368 0.400339
-0.389659 -0.087449 0.00252668 0.615345 0.629684 0.474182
-0.0195904 -0.411098 -0.391197 0.191941 -0.719713 0.667212
-0.0225563 0.276383 0.292478 -0.155602 0.720318 -0.675966
-0.129481 -0.188695 -0.197875 0.657643 0.506796 0.557372
-0.0958655 0.3121 0.352803 -0.706424 -0.673443 -0.217805
0.0756406 -0.253042 -0.437503 -0.336002 0.761328 -0.554511
-0.508394 -0.0850023 0.0348342 0.280507 -0.447992 -0.848893
-0.38299 -0.0466996 0.131131 -0.605268 0.298779 0.737822
-0.357969 -0.148063 0.0160195 -0.674404 -0.571897 -0.467025
0.00730179 0.244432 0.395182 0.291932 -0.759592 0.581201
-0.493303 -0.0319909 0.146896 -0.734162 0.211276 0.645266
-0.442793 -0.0413766 0.0288291 -0.183025 0.724515 -0.664515
-0.304079 0.104921 0.298996 0.3665 -0.759495 0.537443
0.0859449 0.355617 0.358105 0.94994 0.0612292 -0.306374
-0.301888 -0.248085 -0.207928 -0.720424 -0.478648 -0.501881
0.100419 -0.323783 -0.417155 0.902473 0.280293 -0.327076
-0.0335063 0.391531 0.474226 -0.208465 0.578311 0.788732
-0.488426 -0.0641055 0.168302 0.205399 -0.732013 0.649591
-0.431305 -0.17899 -0.060125 -0.76912 -0.514969 -0.378498
-0.255751 0.0560154 0.197735 -0.518245 0.200671 0.831356
0.00422443 0.280891 0.332707 0.143657 -0.500989 -0.853448
-0.0105476 0.403808 0.486408 -0.0864467 0.627155 0.774083
-0.0501608 0.411645 0.473606 -0.384815 0.606283 0.695945
-0.21372 0.250372 0.36986 -0.765962 0.370621 0.525302
-0.0490075 -0.218717 -0.259223 0.636459 0.597555 0.487698
0.00405646 0.267049 0.300761 0.634649 -0.382505 -0.671498
0.0804913 -0.25928 -0.421018 0.930578 0.33835 0.139798
0.0370587 -0.396809 -0.394765 0.172782 -0.668933 0.722963
-0.13597 0.188915 0.23426 -0.614169 0.319679 0.721528
-0.0875164 -0.323849 -0.418174 -0.97629 -0.2137 -0.03449
-0.245465 0.0753808 0.169821 0.627541 -0.366258 -0.687057
-0.0986011 0.368509 0.383866 -0.342738 0.733069 -0.587486
-0.540531 -0.0994451 0.11631 -0.84566 0.00341991 0.53371
-0.128987 0.146775 0.241114 0.621536 -0.346431 -0.702622
-0.0319414 -0.432363 -0.409443 0.300763 -0.774026 0.557158
-0.0109404 -0.405764 -0.478792 -0.256484 -0.613825 -0.746616
-0.0375555 0.232158 0.278851 0.619623 -0.259803 -0.740655
-0.505853 -0.115467 0.0363091 0.7011 0.444506 0.557561
-0.357141 -0.109262 0.112542 0.859607 0.500466 0.102998
-0.337024 -0.151215 -0.00670102 -0.758398 -0.492038 -0.427471
0.044965 -0.400713 -0.460443 0.262471 -0.592563 -0.761563
-0.252436 0.0626533 0.172517 0.645511 -0.430525 -0.630844
-0.0539572 -0.314343 -0.453879 -0.378462 0.75582 -0.534325
-0.512578 -0.0614943 0.0380207 -0.22027 0.745392 -0.629183
-0.0593102 -0.380505 -0.338796 0.258674 -0.74653 0.613009
0.0415498 -0.257784 -0.42927 -0.35032 0.766929 -0.537676
-0.371976 -0.046942 0.14279 -0.643745 0.367945 0.670976
-0.534296 -0.0707944 0.112507 -0.792346 0.334468 0.510214
-0.227849 0.193942 0.348244 0.74856 -0.295945 -0.593358
-0.481401 -0.0761859 0.0811619 0.925057 0.365747 0.102463
-0.162584 -0.36016 -0.321632 -0.690481 -0.662844 -0.289611
-0.051741 -0.234549 -0.237502 0.54591 0.611758 0.572481
0.0236914 0.394839 0.458985 0.539581 0.559738 0.628924
-0.136676 -0.344155 -0.38454 -0.690605 -0.666825 -0.280016
0.0274356 0.262249 0.403551 0.262325 -0.748918 0.60853
-0.0603913 -0.368541 -0.329157 -0.831873 -0.157016 0.532291
-0.161021 0.279668 0.390153 0.750322 -0.275229 -0.601055
-0.0444279 0.194083 0.295904 0.660071 -0.495281 -0.564803
-0.0110755 -0.26127 -0.281715 -0.626465 -0.590309 -0.508997
0.0744915 0.32309 0.368066 -0.846601 -0.0587983 0.528971
-0.0878814 -0.286963 -0.392065 -0.878355 0.120444 0.462585
-0.0707181 -0.342456 -0.367982 -0.877633 -0.0740779 0.473574
0.0798622 -0.25281 -0.386902 -0.221841 0.745663 -0.62831
0.0380619 -0.380111 -0.374898 0.266368 -0.750019 0.605409
-0.115501 0.347442 0.41992 -0.326607 0.756526 -0.566565
-0.067588 -0.224016 -0.259847 -0.633941 -0.590554 -0.499364
-0.0601009 0.180321 0.290962 0.615819 -0.351549 -0.70511
-0.207267 0.24778 0.378018 -0.736399 0.100729 0.669007
-0.281801 -0.241823 -0.223875 -0.259051 0.745194 -0.614475
-0.393518 -0.0571288 0.0896778 0.0928463 0.631873 0.769491
0.0133253 -0.380444 -0.503686 0.203451 -0.686106 -0.698474
0.0567575 -0.312147 -0.310294 0.378866 0.648433 0.6603
-0.0201144 -0.227508 -0.285474 0.461135 0.717354 0.522262
-0.272386 0.191772 0.298623 0.751897 -0.277724 -0.59793
0.0155209 0.43404 0.427232 0.404876 0.662174 0.630557
0.0941396 0.358752 0.41484 0.936359 0.349193 -0.0360102
-0.398532 -0.110866 0.0470477 0.617829 0.58172 0.529045
-0.356148 -0.203528 -0.127247 0.702886 0.618783 0.350797
0.00328664 0.412132 0.457606 -0.281661 -0.63706 -0.717511
0.00524833 -0.337623 -0.504298 -0.202208 0.723478 -0.660069
-0.133014 0.302277 0.445626 -0.817252 0.263492 0.512514
-0.0486254 -0.382409 -0.484676 -0.533295 -0.628493 -0.56621
-0.327465 0.00889065 0.131394 0.622935 -0.408652 -0.66705
-0.403067 -0.199018 -0.0454851 0.734685 0.601962 0.312859
-0.477433 -0.126406 0.0824714 0.634528 -0.347817 -0.690215
-0.436382 -0.0599126 0.0942582 -0.794264 0.162556 0.585423
-0.358512 -0.0352243 0.150915 -0.623458 0.354473 0.696885
-0.163828 -0.208295 -0.133633 0.340188 -0.728018 0.595199
0.0972669 0.342174 0.418741 0.965002 0.259646 -0.0368157
0.0503742 0.282964 0.420319 0.171649 -0.636732 0.751737
-0.0256204 0.256755 0.419365 0.331514 -0.736044 0.590202
0.0048176 0.343466 0.509387 0.244351 -0.741898 0.624404
-0.0216029 0.412128 0.480396 -0.0297291 0.589257 0.807399
-0.0281112 -0.247626 -0.283234 -0.679453 -0.58737 -0.439706
-0.385083 0.0681769 0.203999 0.734652 -0.21756 -0.642615
-0.0985012 0.312246 0.425053 -0.960502 -0.211022 0.181397
-0.130464 0.149345 0.257526 -0.612054 0.256525 0.748054
-0.135418 -0.371196 -0.355502 -0.802854 -0.476502 -0.358288
-0.340922 0.134754 0.255002 -0.367373 0.780151 -0.506361
-0.390397 -0.206777 -0.0566248 0.73768 0.56083 0.375896
-0.246428 -0.188691 -0.0795974 -0.695625 -0.608974 -0.381126
0.0446741 0.411931 0.377643 -0.256095 0.748446 -0.611755
0.0199271 0.398125 0.371812 -0.25992 0.760755 -0.594722
-0.0998887 0.330957 0.424467 -0.952677 -0.103679 0.285757
-0.0898205 -0.378798 -0.385431 0.73377 0.557276 0.388621
0.0567458 0.404121 0.414213 -0.817164 -0.496682 -0.292491
-0.0108019 -0.236502 -0.368937 -0.0329468 0.561637 0.826727
-0.414775 -0.111698 0.104165 -0.947381 -0.0599302 0.314449
-0.0172335 -0.389897 -0.368921 0.202034 -0.723112 0.660523
0.0330514 -0.23848 -0.399577 -0.303307 0.753493 -0.583312
-0.407704 -0.075351 0.029868 -0.128689 -0.660719 -0.739519
-0.219279 0.208819 0.374615 -0.689163 0.212456 0.692761
-0.0118976 -0.344157 -0.31467 0.236277 -0.747249 0.621121
-0.0666262 0.192848 0.272895 0.627178 -0.40771 -0.663642
-0.413329 0.0198012 0.218918 -0.765871 0.122393 0.631238
-0.482564 -0.0906828 0.110708 0.694927 0.560761 0.450137
-0.0224517 0.259878 0.346846 -0.111671 -0.425715 -0.89794
0.0896952 0.353382 0.375846 0.928819 0.258875 -0.265103
-0.0439479 0.334497 0.326591 -0.248676 0.742266 -0.622255
-0.0684087 -0.204106 -0.247981 0.745229 0.461061 0.481722
0.0692758 -0.356439 -0.468312 0.709557 -0.273796 -0.64928
0.0313659 0.425179 0.450994 0.451843 0.638939 0.622572
-0.318058 0.0122492 0.159837 -0.627406 0.361369 0.689764
-0.0396344 -0.418422 -0.444334 0.208979 -0.721445 0.660185
-0.358494 -0.0953952 0.10782 0.803369 0.4847 0.345924
-0.396254 0.0749615 0.214396 -0.751918 0.117699 0.648665
-0.0848325 -0.330126 -0.398984 -0.903149 -0.280313 0.325187
-0.00451064 -0.344666 -0.509602 0.0266148 -0.674056 -0.7382
-0.201356 -0.196077 -0.124004 -0.59422 -0.624502 -0.506852
-0.212708 -0.156288 -0.152245 -0.708666 -0.577076 -0.405927
-0.00850937 0.288019 0.447191 0.362828 -0.734275 0.573755
0.0173194 -0.421877 -0.46472 0.200196 -0.726387 0.657483
-0.47356 -0.0151426 0.143118 0.71181 -0.367651 -0.598463
-0.400337 0.0671226 0.197066 -0.1839 0.728458 -0.659947
-0.271691 0.172299 0.306297 0.728156 -0.179557 -0.661474
-0.0327813 -0.324635 -0.318811 -0.504795 0.334851 0.795649
-0.430307 -0.0786319 0.0584514 0.898634 0.368938 0.237365
-0.165735 -0.191229 -0.1404 0.593232 0.611815 0.52322
0.0272889 -0.407964 -0.458972 0.188873 -0.667923 -0.719866
-0.0748982 -0.406751 -0.40965 -0.738592 -0.57736 -0.348048
-0.23596 -0.142581 -0.118894 0.613449 0.619294 0.490056
-0.343253 -0.25214 -0.118683 -0.654235 -0.648028 -0.389918
-0.518439 -0.0590684 0.100767 0.730502 -0.327002 -0.59953
-0.332697 -0.134936 -0.00171935 0.61702 0.599836 0.509394
-0.172545 0.291404 0.396084 -0.753361 0.273896 0.597853
-0.0497777 -0.375817 -0.461339 -0.58976 -0.646758 -0.483619
-0.0273977 0.257367 0.298433 -0.650504 0.416306 0.635243
-0.0602131 0.247082 0.391555 -0.661051 -0.587925 -0.466213
0.0723819 0.356083 0.368889 0.917485 0.115075 -0.38076
-0.0147441 -0.227506 -0.319969 -0.341334 0.76814 -0.541713
-0.423642 -0.0978768 0.0709106 -0.887993 -0.374447 -0.26694
-0.388643 -0.0184731 0.0386406 -0.300907 0.764397 -0.570221
-0.0739477 -0.349704 -0.452041 -0.834577 -0.456346 -0.308591
0.00815268 0.351808 0.509508 0.115257 0.691067 0.713542
-0.0732707 0.169688 0.27892 0.28665 -0.73793 0.610975
-0.00653328 -0.43768 -0.426761 0.11933 -0.724618 0.678741
-0.380831 -0.0351009 0.122303 -0.655621 0.376419 0.654576
-0.213903 -0.311055 -0.278948 -0.734548 -0.570378 -0.367571
-0.299568 -0.279824 -0.162219 0.205744 -0.725555 0.656688
-0.399751 -0.0987368 0.000207563 -0.636354 -0.661162 -0.39739
-0.433077 0.0484042 0.187369 -0.726475 0.203068 0.656504
-0.425052 -0.0484833 0.0724897 0.661259 -0.268384 -0.700505
0.0472386 -0.268191 -0.354229 0.377023 0.751815 0.540951
0.0784503 -0.398658 -0.441198 0.634639 -0.36265 -0.682436
-0.0831506 0.38217 0.444881 -0.68624 0.255917 0.680868
0.0389703 -0.269184 -0.328174 -0.551265 -0.652586 -0.519844
-0.0047649 -0.305947 -0.46217 -0.224418 0.732597 -0.642603
-0.0695594 0.317605 0.311742 -0.453193 -0.5809 -0.676145
-0.0506206 0.325109 0.31437 -0.309204 0.737755 -0.600092
-0.0219008 -0.233042 -0.378273 -0.196215 0.72348 -0.661873
-0.473553 -0.150132 -0.0224332 -0.740154 -0.546708 -0.391514
-0.223423 -0.15127 -0.137087 -0.258339 0.799098 -0.542865
0.077353 -0.308785 -0.4807 0.849666 -0.0692953 -0.522749
-0.366847 -0.119196 0.0767208 0.698342 -0.168918 -0.695546
0.0433084 0.3833 0.349661 -0.236653 0.728429 -0.642951
0.0575638 0.348484 0.490313 0.469215 0.680356 0.562985
-0.240038 0.0547797 0.208869 -0.63723 0.372395 0.67473
-0.511071 -0.085122 0.124107 0.704294 -0.145293 -0.694881
-0.435947 -0.0118658 0.207595 -0.713979 0.171286 0.678893
0.00244759 0.379423 0.480721 0.0371211 0.735092 0.676951
0.0498533 -0.25598 -0.369613 -0.614112 -0.628255 -0.477663
-0.055114 0.301949 0.323207 -0.52379 -0.627622 -0.575964
-0.079706 -0.230136 -0.231128 -0.637398 -0.592483 -0.492633
-0.541229 -0.0774461 0.0549299 -0.857051 -0.48901 -0.162274
-0.243343 0.202936 0.351239 -0.745998 0.259685 0.61323
-0.490465 -0.067108 0.0401792 0.763679 -0.197831 -0.614538
-0.0992144 0.189384 0.245408 0.626651 -0.359176 -0.691594
-0.24355 0.177502 0.36063 0.351072 -0.741918 0.571232
0.0831171 -0.382128 -0.439474 0.775264 -0.152088 -0.613054
-0.273345 -0.132142 -0.0740212 0.617061 0.617391 0.487919
-0.254622 -0.185974 -0.0690057 -0.618415 -0.621612 -0.480792
0.0503274 0.396638 0.35246 -0.210278 0.702095 -0.680328
-0.0309778 -0.254836 -0.360544 -0.35025 0.500671 0.791615
-0.278582 -0.173296 -0.0523472 -0.641334 -0.594422 -0.485133
-0.0531763 0.394586 0.399014 -0.284445 0.739168 -0.610509
0.00707233 0.39899 0.488398 0.136508 0.672319 0.727567
-0.00383301 -0.249192 -0.398306 -0.39375 0.742548 -0.541833
0.0781423 -0.285363 -0.336427 0.719779 0.586266 0.371767
0.0797645 -0.372752 -0.453986 0.743615 -0.326288 -0.583587
-0.309686 -0.271498 -0.155445 0.302337 -0.73421 0.607887
-0.305658 -0.257805 -0.145471 0.59231 0.66201 0.459252
-0.348971 0.0979543 0.246077 0.722463 -0.212603 -0.657911
-0.377003 -0.202406 -0.0916636 0.574049 0.68192 0.453269
-0.323988 -0.250123 -0.120504 0.222963 -0.678291 0.700149
-0.118386 -0.345105 -0.382022 0.732083 0.561062 0.386348
-0.317168 0.0252778 0.152503 -0.620353 0.447866 0.643877
-0.0421885 -0.270125 -0.410343 -0.271587 0.74733 -0.606414
-0.116151 0.188573 0.232362 -0.277471 0.746498 -0.604773
0.0443157 -0.41987 -0.427787 0.306018 -0.760807 0.572299
-0.415002 -0.091786 0.0517364 0.615358 0.6439 0.454673
-0.0811667 -0.210319 -0.262283 -0.606126 -0.581002 -0.543183
-0.303548 0.174448 0.288963 -0.210683 0.721692 -0.659374
-0.513481 -0.100322 0.133319 0.730656 -0.355781 -0.582719
0.0353385 -0.246155 -0.35924 -0.62724 -0.574231 -0.526145
0.0264409 -0.435004 -0.440279 0.254525 -0.746013 0.615372
-0.0651792 0.259658 0.38296 -0.579116 -0.663669 -0.473465
0.0864847 -0.277809 -0.433507 0.957668 0.283576 -0.0495681
-0.308924 0.107873 0.280612 0.758181 -0.198615 -0.621059
-0.0639101 -0.381555 -0.425183 -0.814179 -0.559824 -0.15398
0.0182638 -0.265165 -0.346614 0.165118 0.491228 0.855238
-0.427656 -0.0467951 0.0904138 -0.626694 0.405196 0.665636
0.000778001 0.299813 0.315492 0.0859425 -0.573912 -0.814395
-0.0554021 0.238051 0.406069 0.252583 -0.745106 0.617267
-0.335097 -0.0242627 0.160236 0.334888 -0.755355 0.563284
-0.0520979 -0.296612 -0.346998 -0.675547 0.227981 0.701185
0.0589676 0.321704 0.322398 0.687547 -0.252038 -0.680997
-0.142699 -0.221985 -0.165257 -0.434845 -0.629111 -0.644306
-0.116674 -0.364638 -0.39323 -0.824496 -0.419903 -0.379325
-0.39886 -0.0368883 0.115057 -0.604494 0.330004 0.725041
-0.149144 -0.34828 -0.355411 -0.742588 -0.555664 -0.3739
-0.316898 0.0522862 0.138562 -0.197435 0.734345 -0.649428
-0.0719457 -0.387898 -0.368322 -0.943129 -0.301406 0.140225
0.0733085 -0.278723 -0.367941 0.684925 0.605522 0.405241
0.0219182 0.289337 0.306882 0.596825 -0.31573 -0.737641
-0.0211423 -0.241778 -0.265064 0.61453 0.646172 0.452563
-0.334247 0.103302 0.280135 -0.704874 0.214497 0.676124
-0.263731 -0.267117 -0.262505 -0.384907 0.713846 -0.585039
-0.18761 0.132809 0.214352 -0.627831 0.332075 0.703957
-0.0796053 -0.214957 -0.246596 -0.633905 -0.644062 -0.428192
0.0628396 0.408169 0.384151 0.944894 0.312557 0.0973883
-0.381202 -0.130067 0.0501487 0.593613 0.570047 0.56804
-0.117187 0.202529 0.242962 -0.170811 0.738361 -0.652416
-0.404432 0.0320816 0.226645 -0.742508 0.15523 0.651602
-0.443002 -0.0768839 0.0767399 -0.945153 -0.220242 0.241202
-0.471274 -0.0421475 0.177814 -0.731332 0.160305 0.662915
-0.511687 -0.0737788 0.135553 -0.788688 0.357919 0.499865
-0.228593 0.223455 0.332053 0.745461 -0.275304 -0.607038
-0.436723 -0.104666 0.0851468 -0.960604 -0.245572 0.130136
-0.389736 -0.0709524 0.114926 0.595375 -0.339309 -0.728284
0.0544355 -0.337284 -0.494778 0.61575 -0.407398 -0.674447
-0.259662 -0.161345 -0.0637979 0.64766 0.617814 0.445917
-0.42585 -0.0823215 0.0771652 0.853287 0.4841 -0.193777
-0.0143576 0.231916 0.321463 -0.595909 0.260108 0.759761
-0.345921 -0.0310418 0.136967 0.598123 -0.283743 -0.749492
-0.0236735 0.209532 0.314922 0.210116 -0.753401 0.623087
-0.533779 -0.0733481 0.095878 0.759621 -0.284968 -0.58461
0.014387 0.295327 0.323975 0.242311 -0.477534 -0.84454
-0.0313531 0.418938 0.472443 -0.147255 0.585382 0.797273
-0.0972092 0.195779 0.271234 -0.658507 0.377328 0.651146
0.0777392 -0.39752 -0.46474 0.362113 -0.836116 0.412049
-0.0529138 -0.405008 -0.412141 -0.773932 -0.554096 -0.306606
-0.118548 0.143434 0.272762 0.231197 -0.735426 0.636943
-0.0894059 0.287663 0.417323 -0.895659 -0.439376 0.0688754
0.0698754 -0.386292 -0.394238 0.254723 -0.745738 0.615622
-0.387864 -0.0313547 0.0975193 0.631055 -0.366271 -0.683824
-0.249958 -0.145797 -0.124539 -0.682372 -0.598364 -0.419916
-0.327219 0.117554 0.282315 -0.574116 0.162088 0.80257
-0.141725 0.275242 0.419458 0.746411 -0.259014 -0.613011
0.0625645 -0.294612 -0.480881 -0.224986 0.748051 -0.62434
-0.297392 0.165904 0.277829 0.751971 -0.271183 -0.600833
-0.109112 0.333689 0.373769 -0.939705 -0.340582 -0.030972
-0.153911 0.318149 0.396598 -0.19987 0.709992 -0.67525
-0.0264922 -0.355616 -0.315293 0.265057 -0.747873 0.60863
-0.18447 -0.189593 -0.15038 -0.629128 -0.607419 -0.485016
-0.345723 -0.100077 -0.0293193 -0.201246 0.747864 -0.632614
-0.489227 -0.142269 0.0357715 0.793179 0.524321 0.309766
-0.424444 -0.183712 -0.0245274 0.757133 0.528115 0.384505
0.033712 -0.415069 -0.415586 0.188856 -0.672988 0.715137
-0.528666 -0.128697 0.057159 -0.672209 -0.585686 -0.452888
0.00237141 0.255931 0.352122 0.063297 -0.586353 -0.807579
0.0715644 0.265097 0.38202 0.67922 -0.269569 -0.682636
-0.0283436 0.264281 0.276503 -0.220637 0.727544 -0.649614
0.0591778 0.25169 0.376819 0.302122 -0.761824 0.573015
-0.196494 0.263401 0.384742 -0.734703 0.208447 0.645571
-0.477959 -0.123558 0.000817785 -0.309516 0.746975 -0.588412
-0.00499866 0.345739 0.323857 -0.120978 0.70096 -0.702865
-0.0229588 -0.278851 -0.421961 -0.277765 0.748616 -0.602014
-0.195163 0.267271 0.359388 0.754254 -0.275637 -0.595924
-0.227398 0.0658456 0.212475 -0.646998 0.397887 0.650446
-0.0661822 0.347802 0.347548 -0.301621 0.794734 -0.52671
-0.13385 0.329274 0.429976 -0.76913 0.278101 0.575411
-0.508036 -0.131006 0.0201655 -0.821001 -0.42959 -0.376046
-0.322758 -0.229946 -0.193519 -0.798019 -0.527335 -0.291691
-0.466046 -0.110623 0.0999766 0.915716 0.373538 -0.148098
-0.258374 0.200278 0.332393 -0.697418 0.182025 0.693163
-0.520792 -0.0439163 0.0612568 -0.354127 0.747726 -0.561694
0.0968274 -0.34532 -0.427589 -0.934428 0.00768408 0.356069
-0.51709 -0.0911387 0.114693 -0.550778 0.299028 0.779247
-0.332652 0.074761 0.268292 0.759415 -0.274745 -0.589749
-0.0514203 -0.333927 -0.335681 -0.778395 0.271931 0.565823
-0.307957 -0.264637 -0.174826 -0.791132 -0.50831 -0.340192
-0.145209 -0.188596 -0.170672 0.62242 0.580591 0.524889
0.0643313 0.306399 0.332616 0.659385 -0.29953 -0.68956
-0.395361 -0.045034 0.0794878 0.364227 0.622071 0.693085
-0.21643 0.19327 0.361738 0.781443 -0.315145 -0.538545
-0.101715 -0.343752 -0.421686 0.685974 0.569177 0.453296
-0.0769973 0.3495 0.485413 -0.632205 0.218098 0.743471
-0.107525 0.345019 0.363038 -0.382378 0.725648 -0.572034
-0.0536013 0.278831 0.346425 -0.441834 -0.691416 -0.571601
-0.256792 0.168557 0.345685 -0.798107 0.38701 0.461787
0.0432462 -0.353981 -0.342595 0.322155 -0.761523 0.562404
-0.473156 -0.152054 0.0987704 0.629006 -0.201516 -0.750828
-0.165815 0.239544 0.407637 0.375932 -0.77 0.515534
-0.035097 -0.365 -0.32659 0.296087 -0.773083 0.560959
-0.436726 -0.178944 -0.00247283 0.779481 0.485915 0.395343
0.0583956 -0.386373 -0.48614 0.418755 -0.219274 -0.881228
0.0410716 -0.229672 -0.394331 -0.339819 0.749285 -0.568414
0.0916868 -0.361455 -0.435809 0.868828 -0.224794 -0.441141
-0.35177 -0.203179 -0.144664 0.78843 0.521754 0.325809
-0.385808 -0.0536777 0.111977 0.633757 -0.29438 -0.715326
-0.217042 -0.298087 -0.255039 0.721102 0.596246 0.35285
0.0361704 -0.264033 -0.312388 0.510505 0.680961 0.52505
-0.16203 0.271185 0.415406 -0.745331 0.183989 0.640804
-0.385039 -0.217727 -0.0924676 -0.689841 -0.61187 -0.386955
-0.440675 -0.0230896 0.197676 0.261301 -0.75376 0.602966
0.109297 -0.299123 -0.380531 0.889088 0.43483 0.142986
-0.12545 -0.205002 -0.180779 0.604501 0.648484 0.462652
-0.346119 0.0809786 0.276184 -0.737148 0.213088 0.641254
-0.375285 -0.0539271 0.0681819 0.787745 0.396484 0.471443
-0.370097 -0.101619 0.0655494 0.770589 -0.242719 -0.589304
-0.117081 -0.355182 -0.408487 -0.73728 -0.505072 -0.448688
-0.50584 -0.133809 0.145784 0.194319 -0.724215 0.661629
-0.0144513 0.351375 0.50351 -0.184895 0.663947 0.72456
-0.479834 -0.163483 0.0153024 -0.792579 -0.513029 -0.329575
-0.0380852 0.384513 0.499833 -0.264081 0.522108 0.810965
-0.00819694 0.259849 0.311779 -0.626312 0.364706 0.689001
-0.0174462 -0.266191 -0.41844 -0.228504 0.730585 -0.643452
-0.552957 -0.0758506 0.0849943 -0.355981 0.720012 -0.595701
0.0257423 -0.235503 -0.329451 0.621693 0.612422 0.4883
-0.0916182 0.299916 0.441822 -0.955523 -0.174914 0.237448
0.0849489 0.300315 0.397764 0.920157 0.0426137 -0.389224
