ply
format ascii 1.0
comment Created by Open3D
element vertex 128
property double x
property double y
property double z
property double nx
property double ny
property double nz
end_header
-0.326368 -0.529299 0.120171 -0.822215 -0.332837 0.461717
0.12462 -0.114818 -0.474392 -0.263414 -0.496586 -0.827052
-0.498449 0.245393 0.146088 -0.414356 0.90617 -0.0846438
-0.332419 -0.378404 -0.160151 -0.158215 -0.645582 -0.747123
0.421119 0.0263075 -0.314032 0.822216 0.332836 -0.461716
-0.0127154 0.12953 -0.0127594 0.351568 -0.934936 -0.0479016
0.0854944 -0.410662 -0.0248669 0.305253 -0.942531 -0.135853
0.605762 -0.314276 -0.230739 0.822214 0.332837 -0.461719
-0.202072 -0.531212 0.210316 0.373442 -0.927646 -0.00369447
-0.197095 -0.12636 0.586981 0.456247 0.0995922 0.884263
0.517681 -0.103467 -0.235626 0.822214 0.332837 -0.461719
-0.552052 -0.284228 -0.143457 -0.379771 -0.283422 -0.880594
-0.404241 0.151164 0.472021 -0.822213 -0.332838 0.461719
-0.172077 -0.176822 0.0320896 -0.0383253 0.841735 0.538529
-0.0292303 -0.100899 -0.071943 0.0749584 0.740816 0.667513
-0.0212505 -0.130142 0.096627 -0.522831 0.762285 -0.381535
0.288877 0.249396 -0.388708 0.822214 0.332837 -0.461718
0.437829 -0.257166 -0.281241 0.255903 -0.940759 -0.222456
0.0233019 0.394296 -0.576696 -0.822214 -0.332837 0.461718
-0.283048 -0.0276546 0.249681 -0.0749584 -0.740816 -0.667513
-0.415199 0.00191088 -0.234762 -0.536282 0.181226 -0.824354
0.167802 0.452198 0.074184 -0.0946787 0.879878 0.465673
-0.122258 -0.0729185 0.211965 -0.487863 -0.00572904 -0.872901
0.327249 -0.293655 0.0488655 0.497834 -0.813766 0.29991
-0.109935 0.133341 -0.404364 -0.545121 0.22713 -0.807004
0.191784 0.07479 -0.687475 0.822214 0.332837 -0.461719
0.360594 -0.30336 -0.125942 0.373443 -0.927646 -0.00369268
-0.109678 -0.0195105 0.525651 0.400432 0.238238 0.884815
-0.472315 -0.280917 0.0393231 -0.822213 -0.332838 0.461719
0.272871 -0.0979082 -0.635498 -0.300383 -0.435292 -0.8487
0.655396 -0.161133 0.148528 -0.822214 -0.332837 0.461719
0.651396 -0.213817 -0.0770598 0.822214 0.332837 -0.461719
0.276423 0.0251373 0.32253 0.487863 0.00573119 0.872902
-0.572513 -0.0484246 0.0284903 -0.822214 -0.332837 0.461719
0.316631 0.0201084 -0.188911 -0.255904 0.940759 0.222456
0.0216225 0.0453628 0.116291 -0.312342 -0.414302 -0.854866
0.192912 0.317561 -0.51046 0.822214 0.332837 -0.461718
0.246456 0.482394 -0.296289 0.822214 0.332837 -0.461719
-0.577131 -0.0891088 -0.148777 -0.52611 0.134874 -0.839653
-0.321066 -0.21825 0.0910678 0.0749564 0.740818 0.66751
0.133361 0.569925 -0.340137 -0.483461 0.836505 -0.257925
-0.11253 0.127201 0.463106 0.263413 0.496588 0.827051
-0.383866 0.245903 -0.0744157 -0.522831 0.762285 -0.381536
0.0775677 0.47756 -0.0741003 -0.328818 0.939902 0.0919938
-0.275724 -0.193264 0.282927 -0.566755 0.403973 -0.718049
0.569031 0.111003 0.0104194 0.822214 0.332836 -0.461719
0.23562 0.650381 -0.194489 0.822214 0.332837 -0.461719
-0.271972 0.338501 0.0366826 -0.394389 0.918049 -0.0405255
-0.415569 -0.0434071 0.311587 -0.822212 -0.332839 0.461721
0.240708 0.722942 0.0264956 -0.296785 0.942899 0.151198
-0.413707 -0.0410955 0.15856 0.497833 -0.813767 0.299909
0.264551 0.202691 0.291615 0.335672 0.371563 0.865601
0.151461 -0.370491 0.129474 0.483461 -0.836505 0.257924
0.193268 0.173292 -0.189703 0.542633 -0.703226 0.459372
-0.335512 -0.37233 0.217041 -0.822213 -0.332837 0.46172
0.377678 0.428889 -0.101182 0.822215 0.332836 -0.461717
-0.269481 0.0146973 -0.32427 -0.514629 0.0881859 -0.852866
0.139614 -0.251406 -0.360336 -0.0467417 -0.768977 -0.637565
-0.0517949 -0.470329 0.113395 0.373442 -0.927646 -0.00369447
0.166086 -0.0439689 -0.0882865 -0.305252 0.942531 0.135855
0.15836 0.150576 -0.0308619 0.00997129 -0.8195 -0.572993
0.474292 0.246761 -0.0604248 0.822214 0.332837 -0.461719
0.040405 0.028922 -0.141821 0.472641 0.052731 0.879676
-0.1327 0.0790089 0.0735033 0.305253 -0.942531 -0.135854
-0.17662 -0.0365975 -0.0437287 0.514629 -0.0881834 0.852866
0.0245468 0.333463 -0.403066 -0.565915 0.564798 -0.60062
-0.0915922 0.4117 -0.0605409 -0.394389 0.91805 -0.0405252
0.320378 -0.224864 -0.494004 -0.822213 -0.332837 0.461719
-0.156805 0.350538 0.189781 -0.17727 0.9206 0.347953
0.110143 0.194794 0.351496 0.288237 0.456011 0.842006
-0.0130464 -0.159823 -0.403523 -0.263414 -0.496586 -0.827052
0.364879 0.259855 -0.219912 0.351569 -0.934936 -0.0478998
-0.213857 0.322503 -0.154342 -0.522831 0.762285 -0.381536
0.2378 -0.352833 -0.0638462 0.351569 -0.934936 -0.0479007
-0.0598429 -0.281073 -0.301584 -0.130765 -0.679041 -0.72236
-0.189572 -0.328638 -0.233386 -0.130765 -0.679041 -0.72236
0.109342 0.345571 0.228216 0.07496 0.740814 0.667514
0.553171 0.309243 0.125081 0.822214 0.332837 -0.461719
0.0762106 0.316582 -0.718984 0.822214 0.332838 -0.461718
-0.333187 0.310178 0.165459 -0.305252 0.942531 0.135855
0.33732 0.424584 0.114925 0.0749601 0.740814 0.667514
0.138258 -0.189235 0.363771 0.563435 -0.360998 0.743116
-0.162364 0.278248 0.326172 -0.00997095 0.819499 0.572993
0.324387 0.60627 -0.0682131 0.822214 0.332837 -0.461718
0.409136 0.603463 0.134818 0.300383 0.435292 0.848699
0.406978 0.279809 0.20295 0.312342 0.414303 0.854866
-0.613269 0.104873 0.0664198 -0.822214 -0.332837 0.461719
0.0568845 0.442452 -0.282763 -0.497833 0.813767 -0.299909
-0.391157 0.256903 0.318123 -0.17727 0.9206 0.347953
-0.0452555 0.408396 0.0894831 -0.230244 0.936362 0.264981
-0.505433 0.067194 0.231289 -0.822214 -0.332837 0.461718
-0.125809 -0.301705 0.509352 0.563435 -0.360998 0.743116
0.46159 -0.403565 -0.371357 -0.822215 -0.332837 0.461717
0.282048 -0.226452 0.214532 0.562177 -0.601736 0.567336
0.0739423 0.211291 -0.506632 -0.545121 0.227129 -0.807004
0.357082 -0.0395864 -0.475567 0.822214 0.332837 -0.461719
-0.397384 -0.19025 -0.239697 -0.400432 -0.238239 -0.884814
0.144741 0.0451962 0.390716 0.438717 0.14621 0.886651
0.265012 0.107954 -0.533166 0.822214 0.332837 -0.461719
-0.245396 -0.377495 0.373795 -0.822214 -0.332837 0.461719
-0.248284 0.057409 0.548249 0.263413 0.496588 0.827051
0.556247 -0.000683987 -0.0928568 0.822214 0.332837 -0.461719
0.0132006 0.0177524 -0.479246 -0.438716 -0.146212 -0.886651
0.597903 0.224496 0.262377 0.300383 0.435292 0.8487
-0.0849772 0.330142 -0.298215 -0.557042 0.637179 -0.532642
-0.00313659 -0.324314 0.391491 0.568245 -0.526456 0.632409
0.409346 -0.0833391 0.209674 0.563435 -0.360999 0.743115
0.464114 -0.178201 0.0834696 0.550522 -0.671036 0.496625
-0.509562 0.181394 -0.0271476 -0.542633 0.703226 -0.459372
-0.230863 -0.474124 -0.045576 0.0946786 -0.879878 -0.465673
-0.164202 -0.116287 -0.364776 -0.379771 -0.283422 -0.880594
0.0243609 -0.119599 0.461331 0.514629 -0.0881859 0.852866
0.650744 -0.055302 0.0360485 0.822214 0.332837 -0.461719
-0.280569 -0.190647 0.445852 -0.822214 -0.332837 0.461719
0.386435 0.139386 -0.0976049 -0.472641 -0.0527296 -0.879676
0.687076 0.00779312 0.320843 0.485678 0.0127142 0.874045
-0.0582909 -0.436617 0.298488 0.510968 -0.789006 0.341147
-0.256927 0.172387 -0.280031 -0.568666 0.445943 -0.691197
0.116767 0.515634 -0.485112 -0.483461 0.836505 -0.257925
-0.449656 -0.462684 -0.0594219 -0.10299 -0.710812 -0.695801
0.245148 -0.315781 -0.236732 0.17727 -0.9206 -0.347952
0.074639 -0.359344 -0.200088 0.122536 -0.89569 -0.427463
-0.0564423 -0.434475 -0.0763467 0.17727 -0.9206 -0.347952
0.446984 -0.152769 -0.397062 0.822215 0.332836 -0.461717
0.58201 0.0550446 0.173678 -0.822213 -0.332838 0.461718
0.415282 -0.32741 -0.568192 -0.300383 -0.435292 -0.8487
0.508412 0.469887 0.161178 0.822214 0.332837 -0.461719
-0.280359 0.0139454 0.0865573 0.497833 -0.813768 0.299907
