ply
format ascii 1.0
comment Created by Open3D
element vertex 128
property double x
property double y
property double z
property double nx
property double ny
property double nz
end_header
-0.168185 0.186262 0.140474 -0.450922 0.874297 -0.17965
0.0210158 -0.348511 -0.013145 -0.763428 -0.511169 0.394821
0.0721838 0.337565 -0.169123 0.576262 0.790403 0.207808
-0.0257901 0.390575 -0.093806 0.318838 0.884747 0.339949
0.398019 -0.0928584 0.0720928 0.708474 -0.632412 0.313239
-0.162599 0.147092 0.0178218 -0.68108 0.676916 -0.279133
0.0376234 -0.175694 0.152567 0.367524 -0.901097 0.230108
-0.0138382 -0.0634227 0.269445 -0.660338 0.348993 0.66495
0.228247 -0.336217 -0.0397513 0.731777 -0.61953 0.284051
-0.0555092 -0.247132 -0.241049 -0.561045 -0.794656 -0.23184
0.0655726 0.257374 -0.252408 0.38121 -0.0652096 -0.922186
0.272124 -0.237078 -0.148786 0.347752 -0.0152659 -0.937462
0.0874119 -0.0788516 -0.163089 -0.0119848 0.730645 -0.682653
-0.201954 0.350098 -0.387657 -0.25753 0.948503 -0.184448
0.0641745 0.127014 0.286028 0.684862 0.547982 0.480291
-0.319618 0.194103 -0.291815 -0.797833 -0.525959 -0.294669
-0.293075 0.121067 -0.245114 -0.689296 0.63994 -0.339629
-0.204708 0.139523 0.0907142 -0.689266 0.647532 -0.324983
-0.105487 -0.0959836 0.228628 -0.264697 0.579305 0.770935
0.0419267 -0.130341 0.284538 0.583818 -0.680204 0.443259
0.248249 -0.31783 -0.156493 0.398586 -0.0569773 -0.915359
0.373303 -0.362619 -0.00597669 0.42267 -0.889409 0.174075
-0.165136 0.178889 0.213224 -0.440609 0.236348 0.866027
0.162636 0.0162404 0.145574 0.913519 0.102142 0.393764
-0.0957935 -0.103389 0.236921 -0.308526 0.519807 0.796626
0.0807304 -0.394061 -0.066582 -0.517201 -0.837757 -0.17512
0.0251285 -0.249181 0.00606444 -0.414865 0.148835 0.897627
-0.0724931 -0.0256636 0.102751 0.65449 0.722766 0.221928
-0.0151501 -0.0101032 -0.0744298 0.921314 0.134764 0.364717
-0.239682 -0.112382 -0.195533 -0.645642 -0.731968 -0.217644
-0.0841055 0.127105 0.231446 -0.369027 -0.445412 0.815737
0.349654 -0.377 -0.0699933 -0.142518 -0.983515 0.111299
0.397627 0.0449123 -0.0146282 0.602714 0.768135 0.216112
-0.0315983 -0.29401 -0.0277846 -0.684687 -0.429039 0.589176
-0.264055 -0.0879578 -0.219709 -0.589833 -0.78648 -0.183156
-0.27082 0.274981 -0.413477 0.446399 -0.141609 -0.883558
0.467905 -0.00999922 -0.0642684 0.879976 0.365715 0.303141
0.0428156 -0.277165 -0.233654 0.298784 0.0230573 -0.954042
0.39932 -0.226986 0.126009 0.924932 0.1552 0.347008
-0.130696 0.121157 -0.328034 0.391076 -0.0453613 -0.91924
-0.101425 -0.0666162 -0.301104 0.378165 -0.0460726 -0.924591
-0.250002 0.130324 -0.123378 -0.376997 0.0509074 0.924814
0.12658 -0.348459 -0.199988 0.322749 -0.0242732 -0.946173
0.128749 -0.248498 0.0473573 -0.44502 0.185032 0.876197
-0.246664 0.316973 -0.150019 -0.312741 -0.669627 0.673641
0.0271476 -0.326379 0.00787796 -0.546728 -0.195466 0.814175
-0.271265 0.0274048 -0.383117 0.458108 -0.158009 -0.87474
-0.286785 0.1147 -0.272743 -0.737775 0.621037 -0.264577
0.0418951 -0.189088 0.074036 0.291121 -0.933922 0.207459
-0.177523 -0.176455 -0.136383 -0.632913 -0.769234 -0.0877519
-0.334899 0.210918 -0.27684 -0.878741 -0.313985 -0.359483
-0.0346776 0.303795 -0.302003 0.420283 -0.10718 -0.901041
0.136181 -0.0251788 0.200659 0.909911 -0.167159 0.37963
-0.103759 -0.239628 -0.119815 -0.610151 -0.770423 -0.184836
0.206405 0.225467 -0.189733 0.390647 -0.0940554 -0.915723
0.431377 -0.244895 0.0569367 0.920569 0.0568742 0.386416
-0.208916 0.0391139 -0.103894 -0.430258 0.078134 0.899318
-0.147017 0.195453 -0.314274 -0.719176 0.63445 -0.2833
0.348399 -0.110833 0.10471 0.325381 -0.468636 0.821284
-0.362502 0.00869144 -0.194037 -0.962415 -0.240306 0.126529
-0.201287 0.0410214 -0.353474 0.395004 -0.0337097 -0.918061
0.113244 0.115472 -0.208545 0.270452 -0.478491 -0.835405
-0.27528 0.0191018 -0.38622 0.456088 -0.107445 -0.883425
-0.1336 0.326422 -0.310113 0.596838 0.77552 0.205798
0.119956 -0.306897 -0.203128 0.295699 0.00545167 -0.955266
-0.217791 0.125884 0.0978368 -0.740164 0.580909 -0.338676
-0.220436 0.186759 -0.225499 0.0566011 0.998199 0.0198666
0.113682 0.0338654 -0.1475 -0.422468 -0.568172 -0.706188
-0.0081696 -0.0134371 -0.229235 0.889642 -0.031586 -0.455564
-0.0506885 0.281938 -0.052298 -0.403236 0.0951683 0.910134
-0.141853 -0.116019 -0.312261 0.395887 -0.0652397 -0.915979
0.15843 -0.173264 -0.189695 0.327256 0.00889622 -0.944894
-0.167049 0.32992 -0.223732 0.609954 0.766944 0.199381
0.0616982 -0.353348 -0.173103 -0.599614 -0.776667 -0.193008
-0.0724168 0.196158 0.0074911 -0.262982 0.951624 -0.15891
-0.000350959 0.319415 -0.0393518 -0.0850877 0.349703 0.932989
-0.122425 0.0300615 -0.315321 0.389732 -0.0463483 -0.919761
-0.177806 -0.122013 0.013517 -0.700525 -0.658581 -0.27484
-0.26296 0.237555 -0.227458 0.924731 -0.157239 0.346625
0.120184 0.0497231 0.238133 0.916936 0.193549 0.348951
0.0733723 -0.392035 -0.0546531 -0.542073 -0.820538 -0.181311
-0.199759 0.28984 -0.137096 -0.707158 -0.48895 0.510741
-0.052477 -0.195889 0.166589 0.0107316 -0.997353 0.0719123
-0.0925177 -0.00662998 0.121316 0.792137 0.338006 0.508203
-0.246725 -0.0918609 0.143472 -0.754394 -0.553479 -0.352918
0.0146372 0.0414655 -0.00609657 -0.255119 -0.966351 -0.0328732
-0.253391 0.323876 -0.371781 -0.700486 0.625341 -0.343902
-0.193358 0.224713 -0.173583 -0.934397 0.1122 -0.338103
0.246947 0.0168453 -0.162789 0.283488 -0.0328534 -0.958413
0.161713 0.120576 0.0416978 -0.418121 0.130438 0.898978
0.0402904 -0.362695 -0.0712471 -0.608597 -0.740272 -0.285668
-0.218309 0.239356 -0.330316 0.86513 -0.313554 0.39145
-0.0585824 0.309068 -0.0563463 -0.381202 0.0694979 0.921876
0.00124971 -0.033522 -0.0900411 0.729948 0.629315 0.266719
-0.16748 0.295795 -0.36152 0.423578 -0.0880687 -0.901568
-0.228693 0.318499 -0.399711 0.427588 -0.102241 -0.898173
-0.00772657 0.00157621 -0.232613 0.863799 -0.0950411 -0.494792
0.188543 -0.0202647 0.0729529 0.930406 -0.103782 0.351532
0.21479 -0.159152 0.0747948 0.0805083 -0.532535 0.842571
0.105588 0.125403 0.179371 0.728441 0.632864 0.262408
0.389786 -0.0919305 0.0823519 0.7124 -0.649673 0.265349
0.160697 -0.0320779 0.140367 0.899411 -0.147066 0.411621
0.183231 0.194639 -0.196613 0.368963 -0.0335417 -0.928839
-0.231769 -0.10402 -0.257781 -0.653956 -0.735512 -0.177099
-0.099094 -0.245163 -0.113392 -0.565315 -0.796722 -0.213668
0.0802968 -0.393228 -0.0784267 -0.511118 -0.84637 -0.149724
-0.0338937 -0.0459647 0.228078 -0.721866 0.566848 0.39698
0.0126681 -0.194276 0.0946628 0.194726 -0.96819 0.157129
-0.203643 -0.152174 -0.154698 -0.613583 -0.766774 -0.18861
-0.121558 0.237021 -0.336394 0.448124 -0.108926 -0.887311
-0.0571973 0.124455 -0.295003 0.408166 -0.0864397 -0.908806
0.0511229 0.186798 0.108616 0.432521 0.89621 0.0986578
0.111798 -0.3897 -0.186383 -0.592689 -0.778497 -0.20655
-0.276787 0.133351 -0.135459 -0.37435 0.051442 0.92586
0.116235 0.162139 -0.224624 0.363254 -0.118264 -0.924154
0.0819657 0.200686 -0.24179 0.38723 -0.0715799 -0.919201
-0.229243 0.0960883 -0.372555 0.42351 -0.0353901 -0.9052
-0.0123823 0.139747 0.276516 -0.481065 -0.120465 0.868369
0.327849 -0.0941211 0.115374 -0.0947494 -0.185497 0.978066
0.153099 0.23541 -0.0197854 0.565323 0.770959 0.293311
-0.182845 0.168142 -0.357651 0.375916 -0.0481326 -0.925403
-0.188428 0.352607 -0.264776 0.326155 0.940451 0.0957889
-0.0190545 -0.281462 -0.216123 -0.608862 -0.765643 -0.207554
-0.29395 0.128925 -0.151568 -0.595254 -0.796308 -0.107541
-0.161147 -0.163617 0.0980854 -0.525424 -0.831531 -0.180237
0.188675 -0.33931 0.0334923 0.50406 -0.5722 0.646924
0.166221 0.138081 -0.199355 0.319142 -0.152768 -0.935313
-0.19655 -0.0396261 0.196366 0.0791254 0.205495 0.975454
