ply
format ascii 1.0
comment Created by Open3D
element vertex 833
property double x
property double y
property double z
property double nx
property double ny
property double nz
end_header
0.384362 -0.257294 -0.111413 0.772455 -0.536708 -0.339496
0.0960586 0.381697 0.419698 -0.232582 0.97244 0.016292
0.177921 0.402351 0.355543 -0.232582 0.97244 0.016292
0.373428 -0.25083 -0.146511 0.772455 -0.536708 -0.339496
0.45915 0.0958683 0.128452 0.859836 0.213423 -0.463824
0.343467 -0.265193 0.416336 0.454522 0.0938697 0.885776
0.329332 -0.284048 -0.175358 0.232582 -0.97244 -0.0162919
0.460688 -0.240271 0.0353383 0.772455 -0.536708 -0.339496
-0.0340895 -0.279718 -0.364356 0.301008 -0.849431 -0.433429
0.234291 0.416659 0.306296 -0.232582 0.97244 0.016292
-0.0487424 0.355785 -0.100817 -0.232582 0.97244 0.016292
-0.330198 -0.218714 0.0540723 -0.859835 -0.213421 0.463827
0.221423 0.0375478 -0.318691 0.286599 0.0845353 -0.954314
0.313906 0.431327 0.357692 0.454522 0.0938697 0.885776
-0.0818168 -0.383739 -0.0945186 0.232582 -0.97244 -0.0162919
0.316895 -0.0501295 -0.0737458 0.013118 0.898911 0.437934
0.440339 0.292723 0.307503 0.454522 0.0938697 0.885776
0.0722554 -0.226171 -0.348573 0.596605 -0.651828 -0.46817
0.111475 0.0900588 0.497732 0.454522 0.0938697 0.885776
-0.071166 0.126141 0.184662 0.232582 -0.97244 -0.0162921
0.140718 -0.340408 0.495993 0.232582 -0.97244 -0.0162919
0.377263 0.357664 0.0971108 0.859835 0.213421 -0.463827
-0.0790113 0.211562 0.5826 0.454522 0.0938697 0.885776
0.0980358 0.257834 0.486848 0.454522 0.0938697 0.885776
-0.433901 0.225305 0.0644642 -0.886939 -0.0440249 0.459784
0.0365729 0.150887 0.151683 0.162242 -0.975569 -0.148127
0.414889 0.113778 0.339526 0.454522 0.0938697 0.885776
-0.356426 0.279386 0.06684 -0.232582 0.97244 0.016292
-0.338542 0.125846 -0.360392 -0.716894 0.408533 -0.564946
-0.189066 0.313209 0.437242 -0.232582 0.97244 0.016292
0.266552 0.428565 0.0150769 0.443534 0.838531 -0.316455
-0.0662567 -0.0269129 0.592549 -0.111638 -0.043334 0.992804
0.296764 0.434307 0.144785 -0.232582 0.97244 0.016292
0.33979 0.148897 0.37434 0.454522 0.0938697 0.885776
0.103331 -0.34188 0.050132 0.232582 -0.97244 -0.0162919
0.4141 0.453758 0.28863 0.443534 0.838531 -0.316455
0.440066 -0.261409 0.0541723 0.232582 -0.97244 -0.0162919
0.297782 0.0194571 -0.205849 0.859833 0.213422 -0.463829
-0.216482 0.313896 0.00483609 -0.232582 0.97244 0.016292
-0.0685177 0.346592 0.165572 -0.232582 0.97244 0.016292
-0.432385 0.108265 0.0144624 -0.909004 -0.223306 0.351918
0.0716263 -0.253724 -0.301581 0.533975 -0.757237 -0.376117
-0.070326 0.00935278 0.593488 -0.0164164 -0.0206742 0.999651
-0.409007 -0.0448991 -0.295878 -0.941952 -0.062449 -0.329889
-0.003122 -0.271052 0.588792 -0.0164164 -0.0206742 0.999651
-0.0650977 -0.322541 -0.247726 0.113526 -0.984138 -0.136324
0.279072 0.0740889 0.172059 -0.43587 -0.166278 -0.884516
0.114197 0.388976 0.244155 -0.232582 0.97244 0.016292
0.0397056 0.367291 0.475078 -0.232582 0.97244 0.016292
0.499857 -0.207191 0.0721646 0.772455 -0.536708 -0.339496
-0.335895 -0.252828 0.0278139 -0.859835 -0.213421 0.463827
0.296235 -0.0719331 0.0578161 -0.337547 0.919206 -0.202784
-0.00254069 0.120332 0.553029 0.454522 0.0938697 0.885776
-0.0304476 0.355731 0.163589 -0.232582 0.97244 0.016292
0.0690179 0.0609053 0.272394 -0.356779 -0.398691 -0.84484
0.0748742 -0.0938449 0.243123 -0.479648 0.649001 -0.590538
-0.199459 -0.157223 0.172052 0.138658 0.776697 0.614423
0.0199478 -0.299391 0.585585 0.334676 0.0642949 0.940137
-0.352003 0.163782 -0.240365 -0.787932 0.615038 -0.0298531
-0.075171 0.0188069 0.353127 -0.374542 -0.353735 -0.857082
0.41704 -0.180429 -0.0767428 0.859835 0.213421 -0.463827
-0.252599 -0.0926148 0.145134 0.391371 0.307905 0.867193
-0.0385496 -0.159578 0.589628 -0.217465 -0.0683245 0.973674
-0.304839 -0.336206 0.0470201 -0.859834 -0.213421 0.463828
-0.197749 -0.309816 -0.146321 -0.361776 -0.926725 0.101485
-0.366615 -0.166367 -0.13662 -0.841555 -0.478108 0.25139
-0.0247776 -0.243205 -0.415389 0.318351 -0.743001 -0.588729
0.299992 -0.291375 -0.156908 0.232582 -0.97244 -0.0162919
-0.0937042 0.344006 -0.0396091 -0.232582 0.97244 0.016292
-0.269762 -0.240571 -0.362446 -0.539812 -0.610002 -0.580086
-0.321036 -0.362157 -0.0207372 -0.936145 -0.219297 -0.27485
0.196014 -0.321222 0.140262 0.232582 -0.97244 -0.0162919
0.0410068 0.309916 0.510592 0.454522 0.0938697 0.885776
-0.117018 0.226377 -0.396647 0.0257714 0.854976 -0.518027
0.414016 0.42471 0.211541 0.443534 0.838531 -0.316455
0.315676 -0.217208 -0.281574 0.859835 0.213421 -0.463828
-0.399861 0.269966 0.00903052 -0.232582 0.97244 0.016292
0.261657 -0.0648665 0.437086 0.454522 0.0938697 0.885776
-0.163841 0.318754 0.466352 -0.232582 0.97244 0.016292
0.0726271 0.387707 -0.273531 -0.232582 0.97244 0.016292
-0.244623 0.0345108 0.163428 0.494688 -0.57307 0.653357
-0.173406 0.0756595 0.331382 -0.0638732 -0.856346 -0.512437
0.270032 0.0732967 -0.147507 0.933346 0.20011 0.298029
0.177245 0.406464 0.100397 -0.232582 0.97244 0.016292
-0.412451 0.08984 0.0435673 -0.859835 -0.213421 0.463827
0.329141 0.427566 0.100151 0.443534 0.838531 -0.316455
-0.336371 -0.230591 -0.257943 -0.706143 -0.704886 -0.0670655
0.377769 0.0827385 0.120786 -0.460178 -0.0695982 -0.885094
-0.296514 -0.179096 0.134745 -0.859835 -0.213421 0.463828
-0.339971 0.0141697 0.143111 -0.859835 -0.213421 0.463827
0.191721 -0.0795408 -0.00938249 0.0385431 0.878721 0.475776
0.541087 -0.188217 0.149629 0.859835 0.213421 -0.463827
-0.402351 0.207804 0.11657 -0.859835 -0.213421 0.463827
-0.334282 0.0870009 0.18717 -0.859834 -0.213419 0.463828
0.470843 0.267779 0.265083 0.92939 0.217287 0.298363
0.210756 0.41014 0.359388 -0.232582 0.97244 0.016292
-0.0292401 0.350564 0.489265 -0.232582 0.97244 0.016292
0.292585 0.216229 -0.0222888 0.276682 -0.958262 0.0719828
0.334911 0.441128 0.282179 -0.232582 0.97244 0.016292
0.0896585 0.388507 -0.0781228 -0.232582 0.97244 0.016292
-0.129322 -0.0168273 -0.493989 -0.367483 -0.0698074 -0.927407
-0.403943 -0.114834 -0.261358 -0.950233 -0.28886 -0.116697
-0.195641 -0.322043 0.255966 -0.859835 -0.213421 0.463827
-0.190751 0.0912849 0.290583 0.113233 -0.965533 -0.23436
-0.341313 0.225359 -0.0873451 -0.454521 -0.0938693 -0.885776
0.0478869 -0.211383 -0.39627 0.569706 -0.609126 -0.551725
-0.273164 -0.047622 -0.418712 -0.42428 -0.0940984 -0.900629
-0.135229 -0.392653 0.303187 -0.385514 -0.875737 0.290626
-0.0920386 0.2555 -0.336672 0.0670109 0.929007 -0.363945
0.103334 -0.180795 -0.36342 0.668407 -0.534283 -0.517469
-0.226702 -0.0764206 -0.438134 -0.454108 -0.0131989 -0.890849
0.365153 0.448177 0.293215 -0.232582 0.97244 0.016292
0.284469 0.427622 0.368246 -0.232582 0.97244 0.016292
0.374664 0.427423 0.163576 0.443534 0.838531 -0.316455
-0.182822 0.322109 -0.00482618 -0.232582 0.97244 0.016292
0.31526 0.436921 0.252766 -0.232582 0.97244 0.016292
0.128607 0.00714284 -0.400979 0.76324 0.117971 -0.635253
0.244165 0.121151 0.16834 -0.298359 -0.527171 -0.795659
-0.226878 -0.278725 0.217993 -0.859834 -0.213421 0.463828
-0.29622 0.217873 -0.210906 -0.629742 0.776744 0.00971785
0.514075 -0.248231 0.324107 0.232582 -0.97244 -0.0162919
-0.377966 -0.0427033 -0.347603 -0.746217 -0.0844715 -0.660322
-0.364294 -0.0842361 0.0527437 -0.859835 -0.213421 0.463827
-0.0701302 0.3521 -0.186177 -0.232582 0.97244 0.016292
0.517662 -0.0284629 0.179712 0.859835 0.213421 -0.463827
0.0577884 0.113208 0.00348431 0.494688 -0.573068 0.653358
-0.0348546 -0.320025 -0.233471 0.198118 -0.963141 -0.181957
-0.276147 -0.381931 0.0791689 -0.859835 -0.213421 0.463827
0.0295804 -0.294218 -0.259241 0.358395 -0.893185 -0.271614
0.179551 0.399534 -0.183787 0.443534 0.838531 -0.316455
0.0190702 -0.369368 0.487946 0.232582 -0.97244 -0.0162919
-0.192556 0.0457705 0.133881 0.494688 -0.57307 0.653357
0.386337 0.0934826 0.356328 0.454522 0.0938697 0.885776
-0.236354 -0.152148 0.175798 0.103545 0.648472 0.754163
-0.406015 0.00400331 -0.148573 -0.963351 0.0859111 0.254115
0.217932 0.0352967 0.207286 -0.470632 -0.0209366 -0.882081
0.182469 -0.321818 -0.0175451 0.232582 -0.97244 -0.0162919
-0.0986203 -0.0676899 0.552857 -0.859835 -0.213421 0.463828
-0.28535 0.0434405 -0.420853 -0.506728 -0.0126422 -0.862013
0.0765387 -0.157376 0.54188 0.454522 0.0938697 0.885776
0.230664 -0.194715 -0.336328 -0.454533 -0.0938726 -0.885769
0.0662672 -0.0293883 0.286357 -0.500526 0.173016 -0.848256
-0.270106 -0.282638 -0.256413 -0.515162 -0.855043 -0.0592364
-0.209754 -0.0173952 0.116418 0.49488 -0.124871 0.859942
0.43386 -0.238832 -0.0279762 0.772455 -0.536708 -0.339496
-0.223495 -0.0756518 0.126578 0.422073 0.21406 0.880927
-0.111304 -0.127749 0.501708 -0.859835 -0.213421 0.463828
0.341486 -0.0604775 -0.161611 0.859834 0.213421 -0.463828
0.197601 -0.314329 -0.248562 0.232582 -0.97244 -0.0162919
0.0694332 -0.0637663 0.535606 0.454522 0.0938697 0.885776
-0.0773228 0.327851 -0.233669 -0.454522 -0.0938697 -0.885776
-0.318713 -0.202776 0.0826969 -0.859835 -0.213421 0.463827
-0.258539 0.303437 0.0287085 -0.232582 0.97244 0.016292
0.236338 -0.291661 0.474112 0.454522 0.0938697 0.885776
-0.110271 -0.301745 -0.347002 0.0275444 -0.926512 -0.375255
0.351317 0.265938 0.356021 0.454522 0.0938697 0.885776
0.567742 -0.179213 0.288775 0.92939 0.217287 0.298363
0.379012 0.247567 0.343757 0.454522 0.0938697 0.885776
0.117559 -0.18389 0.523641 0.454522 0.0938697 0.885776
0.486957 0.0139854 0.313121 0.454522 0.0938697 0.885776
-0.238561 0.226716 -0.345042 -0.397383 0.850132 -0.34549
0.0688479 0.383057 -0.314524 -0.454522 -0.0938684 -0.885776
0.0554056 0.0757153 -0.454358 0.613539 0.327544 -0.718529
0.0385846 -0.356963 0.0260835 0.232582 -0.97244 -0.0162919
-0.200364 0.311937 0.351884 -0.232582 0.97244 0.016292
0.436104 0.136684 0.121132 0.319901 -0.0339112 -0.946844
0.137338 0.145542 0.47858 0.454522 0.0938697 0.885776
0.21763 -0.0453701 0.178737 -0.494688 0.573068 -0.653358
0.141014 0.0258472 0.248353 -0.460178 -0.0695982 -0.885094
-0.159933 -0.191281 -0.450622 -0.327417 -0.3408 -0.88128
0.437467 0.400782 0.228557 0.859834 0.213422 -0.463828
-0.000488348 0.130846 0.0808992 0.406759 -0.83541 0.369645
-0.00758942 -0.297714 -0.295581 0.335248 -0.890082 -0.30881
0.237642 -0.315375 0.385536 0.232582 -0.97244 -0.0162919
0.322524 -0.254512 -0.256511 0.772455 -0.536708 -0.339496
0.261824 -0.0459308 0.143936 -0.479648 0.649002 -0.590537
0.248244 0.159785 -0.233112 0.859837 0.213424 -0.463823
0.431278 -0.172941 -0.0469029 0.859835 0.213421 -0.463827
-0.342944 -0.147677 0.0631307 -0.859835 -0.213421 0.463827
-0.137249 0.334291 -0.081359 -0.232582 0.97244 0.016292
-0.157201 0.0896188 0.16025 0.421636 -0.809124 0.409318
0.262388 0.427057 0.0867671 -0.232582 0.97244 0.016292
-0.302713 -0.0288084 0.15785 -0.13079 -0.305308 0.943229
0.144135 -0.330892 -0.0232037 0.232582 -0.97244 -0.0162919
-0.103076 0.0186583 -0.503896 -0.259953 0.00701616 -0.965596
-0.209651 -0.293136 0.243295 -0.859835 -0.213421 0.463827
0.378484 0.228531 0.0660029 0.544927 -0.437405 -0.715354
0.289868 -0.303927 0.447759 0.232582 -0.97244 -0.0162919
0.310137 0.284352 -0.0610596 0.859835 0.213421 -0.463827
0.471744 -0.102285 0.0606227 0.859835 0.213421 -0.463827
0.168248 0.122246 0.465188 0.454522 0.0938697 0.885776
0.319872 -0.289771 0.0311407 0.232582 -0.97244 -0.0162919
0.330038 -0.292415 0.334085 0.232582 -0.97244 -0.0162919
-0.0578543 0.0937396 0.28548 -0.113993 -0.80527 -0.581847
-0.152092 -0.0540399 0.0871154 0.422073 0.21406 0.880927
-0.0405463 0.354553 0.0897531 -0.232582 0.97244 0.016292
-0.00281612 0.368571 -0.208329 -0.232582 0.97244 0.016292
0.0758632 0.38641 -0.149929 -0.232582 0.97244 0.016292
0.257411 -0.0666805 0.119032 -0.435464 0.780828 -0.447973
-0.221016 -0.320887 0.209458 -0.859835 -0.213421 0.463827
0.152463 -0.231596 0.510786 0.454522 0.0938697 0.885776
0.309371 0.0880156 0.154398 -0.422074 -0.214059 -0.880927
0.460729 -0.0410885 0.332416 0.454522 0.0938697 0.885776
-0.284922 0.295925 0.100465 -0.232582 0.97244 0.016292
-0.0149506 -0.309724 -0.260141 0.280014 -0.932722 -0.227203
-0.370216 -0.064418 -0.043589 -0.927521 -0.151399 0.341735
0.334143 0.0301498 0.140177 -0.504928 0.220729 -0.834462
-0.0815252 0.101938 0.593927 0.220324 0.0363652 0.974749
0.214374 0.402476 -0.127184 0.443534 0.838531 -0.316455
0.0796722 0.327966 0.488838 0.454522 0.0938697 0.885776
-0.335438 0.158262 0.217816 -0.859835 -0.213421 0.463827
0.098709 0.0376804 0.267562 -0.422074 -0.214059 -0.880927
0.119083 -0.0279819 0.506337 0.454522 0.0938697 0.885776
-0.147997 -0.0119521 0.0819075 0.488004 -0.0764182 0.86949
-0.378865 -0.084347 -0.0780605 -0.927422 -0.20179 0.314912
0.298305 -0.21732 -0.313827 0.859835 0.213421 -0.463828
-0.342851 0.200691 0.223598 -0.859835 -0.213421 0.463827
0.462721 -0.109871 0.338683 0.454522 0.0938697 0.885776
-0.396774 0.0849366 -0.20596 -0.929255 0.350853 0.115706
-0.378563 0.0475706 -0.0493898 -0.454522 -0.0938698 -0.885776
0.286382 0.00953548 0.416514 0.454522 0.0938697 0.885776
-0.239138 -0.0321134 -0.435569 -0.400796 -0.15159 -0.903539
0.444998 -0.0552411 0.0420964 0.309712 0.723114 -0.617401
0.262245 0.42482 0.218241 -0.232582 0.97244 0.016292
-0.163836 0.315692 0.542344 -0.462862 0.874518 0.144834
0.00645066 0.364508 0.166489 -0.232582 0.97244 0.016292
0.330846 0.192526 0.0725764 -0.0890428 -0.831843 -0.547822
0.259347 -0.31103 0.436038 0.232582 -0.97244 -0.0162919
-0.384997 -0.0388218 0.0352599 -0.859835 -0.213421 0.463827
0.557457 -0.215522 0.216392 0.772455 -0.536708 -0.339496
-0.0205938 0.337775 0.539249 0.454522 0.0938697 0.885776
-0.0824356 -0.104523 0.565912 -0.859835 -0.213421 0.463828
-0.381093 0.0501241 0.0834234 -0.859836 -0.213422 0.463825
-0.225604 -0.419828 0.00690935 0.232582 -0.97244 -0.0162919
0.0962754 -0.343123 0.551437 0.454522 0.0938697 0.885776
0.108705 0.0836084 -0.397375 0.696262 0.351798 -0.625665
0.295028 0.263234 -0.0987848 0.859835 0.213422 -0.463827
0.250422 -0.310737 0.291136 0.232582 -0.97244 -0.0162919
0.0502548 -0.114549 0.0667349 0.0385431 0.878721 0.475776
0.190909 -0.247208 0.492713 0.454522 0.0938697 0.885776
0.0548074 -0.196265 0.557153 0.454522 0.0938697 0.885776
-0.143977 0.0554062 0.352333 -0.186895 -0.713831 -0.674918
0.249515 0.0892567 0.181963 -0.391371 -0.307905 -0.867193
0.00862757 -0.0466027 0.316843 -0.504928 0.220727 -0.834462
-0.136838 0.330423 0.155383 -0.232582 0.97244 0.016292
0.248676 -0.00692519 -0.105997 0.298359 0.52717 0.795659
-0.120829 -0.395689 0.0618071 0.232582 -0.97244 -0.0162919
-0.0138879 -0.371686 0.155793 0.232582 -0.97244 -0.0162919
-0.0504384 0.347027 0.397738 -0.232582 0.97244 0.016292
0.0490032 0.132386 0.0339444 0.44821 -0.750589 0.485514
-0.0756311 0.175384 -0.452036 0.147445 0.658981 -0.737566
0.149905 0.329631 0.452623 0.454522 0.0938697 0.885776
0.118261 -0.323556 -0.264997 -0.454522 -0.0938699 -0.885776
0.0409802 0.233451 -0.304753 0.388606 0.811882 -0.435699
-0.045495 -0.353525 0.51621 -0.766652 -0.465058 0.44268
-0.148063 -0.184766 0.282429 -0.297727 0.947589 -0.115907
-0.119619 -0.396514 0.128374 0.232582 -0.97244 -0.0162919
-0.0876458 0.0482546 0.593247 -0.217465 -0.0683246 0.973674
0.240051 0.199751 0.0512742 0.13791 -0.971759 -0.191481
0.413837 -0.269345 0.153398 0.232582 -0.97244 -0.0162919
0.50713 -0.234649 0.132121 0.772455 -0.536708 -0.339496
-0.210721 0.160144 0.449881 -0.859835 -0.21342 0.463827
-0.108763 0.338821 0.0548894 -0.232582 0.97244 0.016292
-0.223703 -0.168386 -0.428542 -0.447905 -0.235858 -0.862411
0.0316479 0.376653 -0.198764 -0.232582 0.97244 0.016292
-0.360813 0.279639 -0.01089 -0.232582 0.97244 0.016292
-0.00419352 -0.00282635 0.00482083 0.448582 0.118084 0.885907
0.381358 0.278615 0.0683304 0.859835 0.213421 -0.463827
0.307506 0.330644 0.371645 0.454522 0.0938697 0.885776
0.00189032 -0.125193 0.265103 -0.448209 0.750591 -0.485513
-0.113826 -0.0108833 0.550808 -0.859835 -0.213421 0.463828
-0.0710332 0.345009 0.224168 -0.232582 0.97244 0.016292
0.246571 0.226125 -0.205689 0.859835 0.213421 -0.463828
-0.0903252 0.289721 -0.228193 -0.0295778 0.970825 -0.237957
0.00101502 0.0739586 -0.48902 0.376701 0.334865 -0.863691
0.0480206 -0.318938 -0.229444 -0.454522 -0.0938699 -0.885776
0.0847018 -0.164924 -0.401158 0.679358 -0.449009 -0.5804
0.212231 0.217199 -0.273453 0.859835 0.213421 -0.463828
-0.201525 -0.0252789 -0.457083 -0.50861 -0.141578 -0.849277
0.0635863 -0.0921393 -0.460495 0.618414 -0.225838 -0.752703
0.3368 -0.171898 -0.221567 0.859834 0.213423 -0.463829
0.306355 0.391885 -0.0185909 0.859835 0.213421 -0.463827
0.392312 -0.265575 -0.080234 0.772455 -0.536708 -0.339496
0.224269 -0.319196 0.422669 0.232582 -0.97244 -0.0162919
0.287266 0.0474781 -0.178764 0.906398 0.302275 0.295082
-0.363033 0.0260664 0.105834 -0.859836 -0.213422 0.463825
0.0182238 0.257442 -0.276106 0.310698 0.861777 -0.401009
0.101822 -0.3438 0.143203 0.232582 -0.97244 -0.0162919
-0.353003 -0.07145 -0.367267 -0.642626 -0.135123 -0.754171
-0.388155 0.135675 0.109698 -0.859835 -0.21342 0.463828
0.0146304 -0.00383224 0.557376 0.454522 0.0938697 0.885776
0.107712 -0.338539 -0.0867263 0.232582 -0.97244 -0.0162919
-0.0476393 0.303954 -0.246368 -0.454522 -0.0938695 -0.885776
0.066028 0.377557 0.238119 -0.232582 0.97244 0.016292
0.292552 0.434532 0.0711773 -0.232582 0.97244 0.016292
0.155148 -0.335929 0.434667 0.232582 -0.97244 -0.0162919
0.298466 -0.0168759 -0.221298 0.859835 0.213421 -0.463827
-0.164526 0.0979605 0.506902 -0.859833 -0.213422 0.46383
0.29994 -0.293833 -0.0109309 0.232582 -0.97244 -0.0162919
0.0655098 0.146158 0.515373 0.454522 0.0938697 0.885776
-0.148338 -0.225103 -0.438143 -0.243056 -0.504749 -0.828343
0.180134 0.0743047 0.218584 -0.39137 -0.307908 -0.867192
-0.10272 0.332412 0.523732 -0.232582 0.97244 0.016292
0.0405937 0.375243 0.0131113 -0.232582 0.97244 0.016292
-0.369313 0.122644 -0.147371 -0.874717 0.453977 0.169629
-0.319097 0.194309 0.264695 -0.859835 -0.213421 0.463827
-0.408863 -0.0327665 -0.155728 -0.974828 -0.0151699 0.222442
0.443746 -0.114871 0.00292897 0.859835 0.213421 -0.463827
-0.315165 0.0142237 0.172816 -0.410347 -0.432913 0.802622
0.196189 0.27075 0.435113 0.454522 0.0938697 0.885776
-0.320321 0.194224 -0.270182 -0.666753 0.737838 -0.105047
0.0176343 0.370229 -0.0153343 -0.232582 0.97244 0.016292
0.227438 0.416102 0.241694 -0.232582 0.97244 0.016292
-0.272092 0.224528 0.365736 -0.859835 -0.213421 0.463827
-0.256303 0.304625 -0.0102926 -0.232582 0.97244 0.016292
-0.13693 -0.257004 0.394731 -0.859835 -0.213421 0.463827
0.255321 0.424026 0.166798 -0.232582 0.97244 0.016292
-0.000469921 -0.363159 -0.161594 0.232582 -0.97244 -0.0162919
-0.153392 -0.174316 0.196614 -0.0377675 0.932543 0.359078
-0.18582 0.321976 -0.0397047 -0.232582 0.97244 0.016292
-0.124992 0.0598589 0.0953375 0.500372 -0.532915 0.68237
-0.177128 0.324638 -0.0745419 -0.232582 0.97244 0.016292
0.0710418 -0.29939 -0.243328 -0.454522 -0.0938688 -0.885776
0.259161 0.0655913 -0.256216 0.859835 0.213421 -0.463828
0.273958 -0.0608297 -0.286956 0.859835 0.213421 -0.463828
0.0821977 -0.0545198 -0.0117264 0.277337 0.567513 0.775251
0.458738 0.266451 0.300846 0.454522 0.0938697 0.885776
0.558182 -0.193871 0.183814 0.772455 -0.536708 -0.339496
0.413225 0.240761 0.109985 0.859834 0.213422 -0.463828
0.217765 0.108283 -0.313311 0.859835 0.213421 -0.463828
-0.285918 0.195082 0.326558 -0.859835 -0.213421 0.463827
0.119917 -0.345893 0.52644 0.232582 -0.97244 -0.0162919
-0.133553 -0.148802 0.147113 0.0890427 0.831843 0.547821
0.271839 -0.0817733 0.0318688 -0.232582 0.97244 0.0162917
0.450097 -0.261471 0.361226 0.454522 0.0938697 0.885776
0.344905 -0.0330677 0.090036 -0.470329 0.684594 -0.556885
-0.107151 -0.30727 0.426804 -0.859835 -0.213421 0.463827
-0.377343 0.126086 -0.259155 -0.852558 0.516986 -0.0766175
0.358417 -0.284133 0.244909 0.232582 -0.97244 -0.0162919
-0.128352 -0.27257 -0.399748 -0.0764621 -0.801267 -0.5934
-0.0600395 -0.154812 0.269484 -0.390871 0.859618 -0.329053
-0.253516 0.302878 0.133762 -0.232582 0.97244 0.016292
-0.172566 0.265835 -0.287666 -0.192722 0.953134 -0.233224
0.319782 -0.185454 -0.25935 0.859834 0.213421 -0.463828
-0.369238 0.0769367 0.117739 -0.859835 -0.213421 0.463827
-0.00192801 0.368257 -0.176947 -0.232582 0.97244 0.016292
-0.10988 0.140432 0.594749 -0.217465 -0.0683246 0.973674
0.433523 -0.267659 0.333793 0.232582 -0.97244 -0.0162919
0.236868 -0.309049 -0.00315344 0.232582 -0.97244 -0.0162919
0.360379 -0.0649051 0.386432 0.454522 0.0938697 0.885776
0.0268473 -0.1296 0.231726 -0.40676 0.835409 -0.369647
0.124545 0.39559 -0.00287551 -0.232582 0.97244 0.016292
-0.329328 -0.211326 -0.116578 -0.752471 -0.601842 0.267534
-0.215062 0.0787913 -0.458368 -0.438958 0.0488836 -0.897177
-0.40318 0.163215 0.0945162 -0.859835 -0.213421 0.463828
0.26683 -0.301508 -0.0254865 0.232582 -0.97244 -0.0162919
-0.0800173 -0.385894 0.0597921 0.232582 -0.97244 -0.0162919
-0.134487 -0.20249 0.424343 -0.859835 -0.213421 0.463828
0.0360375 -0.113986 -0.473444 0.494667 -0.305847 -0.813488
-0.239916 0.0849907 0.302456 -0.157988 -0.987025 0.0286743
-0.251084 -0.267513 -0.345171 -0.45835 -0.772136 -0.440138
-0.063783 0.342214 0.494476 -0.232582 0.97244 0.016292
-0.138602 0.328692 0.233489 -0.232582 0.97244 0.016292
0.40975 0.149062 0.338424 0.454522 0.0938697 0.885776
0.353623 -0.254837 -0.185239 0.772455 -0.536708 -0.339496
-0.197312 0.26149 0.521371 -0.859835 -0.213421 0.463827
0.513093 0.0125738 0.190124 0.859835 0.213421 -0.463827
0.320571 -0.0621751 -0.0429769 -0.0882767 0.956906 0.276655
0.185149 -0.0564484 -0.0417696 0.162979 0.746192 0.645473
-0.197914 -0.41286 0.149938 -0.0815934 -0.985863 0.146345
-0.224597 -0.295688 -0.126677 -0.443025 -0.885695 0.138828
0.384056 0.161753 0.0973016 0.396896 -0.221936 -0.890628
-0.0968298 -0.329598 -0.196852 -0.0165791 -0.997538 -0.0681432
0.115285 0.0327489 -0.0601914 0.460178 0.0695982 0.885094
0.122556 -0.343569 0.425391 0.232582 -0.97244 -0.0162919
-0.258724 -0.379489 0.112593 -0.859835 -0.213421 0.463827
-0.341654 -0.00185287 -0.383208 -0.605798 -0.0267769 -0.795168
-0.243953 0.201636 -0.384271 -0.424096 0.72961 -0.536481
0.506564 -0.217936 0.104413 0.772455 -0.536708 -0.339496
-0.00543226 0.196081 0.546485 0.454522 0.0938697 0.885776
0.201655 0.159355 -0.063217 0.47033 -0.684592 0.556887
-0.292835 -0.318319 0.0775035 -0.859836 -0.21342 0.463826
0.387366 0.0514661 0.360252 0.454522 0.0938697 0.885776
-0.332685 -0.231254 -0.194482 -0.701449 -0.704084 0.11061
-0.0619213 -0.360317 0.480206 -0.718511 -0.549101 0.426883
0.0265919 -0.0993741 0.275847 -0.487774 0.611797 -0.622721
0.205852 0.240092 0.433404 0.454522 0.0938697 0.885776
0.164327 -0.00391853 0.480571 0.454522 0.0938697 0.885776
-0.283875 0.296822 0.0618782 -0.232582 0.97244 0.016292
-0.229216 -0.303059 -0.215806 -0.395584 -0.918192 0.0209119
0.272123 0.187907 -0.106277 0.940526 -0.333266 0.0659164
0.144028 -0.336336 0.30022 0.232582 -0.97244 -0.0162919
0.354173 -0.284445 0.20295 0.232582 -0.97244 -0.0162919
-0.316155 -0.240166 -0.16169 -0.676518 -0.711119 0.191397
-0.086379 -0.33177 -0.159119 -0.454522 -0.093869 -0.885776
-0.0361935 0.359297 -0.131283 -0.232582 0.97244 0.016292
0.46465 0.178008 0.176443 0.859835 0.213421 -0.463827
0.572136 -0.137597 0.230479 0.859835 0.213421 -0.463827
-0.100277 0.117316 0.222895 0.162242 -0.975569 -0.148127
-0.338728 0.167016 -0.305099 -0.730052 0.639275 -0.24156
-0.365008 0.27523 0.142648 -0.386057 0.916937 0.100927
-0.236464 0.26627 -0.145482 -0.454522 -0.0938684 -0.885776
0.533831 -0.0298888 0.20903 0.859835 0.213421 -0.463827
0.394036 0.345844 0.325633 0.454522 0.0938697 0.885776
-0.153025 -0.251964 -0.417022 -0.188687 -0.665483 -0.72217
-0.0646025 -0.276233 -0.386799 0.188556 -0.837997 -0.512063
-0.240847 0.0805001 0.240066 0.337547 -0.919206 0.202784
0.177277 0.1507 0.160582 -0.113993 -0.80527 -0.581847
-0.1077 -0.219766 -0.450273 -0.107775 -0.53105 -0.840458
-0.0438113 -0.375094 -0.067943 0.232582 -0.97244 -0.0162919
-0.319084 0.12959 0.234939 -0.859835 -0.213423 0.463826
-0.149896 -0.121644 0.402122 -0.947687 0.167279 -0.27186
0.25042 -0.16864 -0.328247 0.286599 0.0845353 -0.954314
0.0281184 0.120177 0.231641 -0.0890423 -0.831844 -0.547821
0.136647 -0.299882 0.526139 0.454522 0.0938697 0.885776
-0.250831 -0.278106 -0.111639 -0.509591 -0.836868 0.199923
-0.348383 -0.108234 0.0711963 -0.859835 -0.213421 0.463827
0.355905 -0.281625 0.0593273 0.232582 -0.97244 -0.0162919
0.471854 -0.133631 0.0464034 0.859835 0.213421 -0.463827
0.308015 -0.0240759 0.408975 0.454522 0.0938697 0.885776
-0.331841 -0.176342 -0.0496354 -0.454523 -0.09387 -0.885775
-0.204375 0.203188 0.481449 -0.859835 -0.21342 0.463827
0.364384 0.364375 0.338884 0.454522 0.0938697 0.885776
-0.0885469 0.342308 0.135373 -0.232582 0.97244 0.016292
0.263096 0.0266197 -0.266853 0.859835 0.213421 -0.463828
-0.255118 0.285005 0.398477 -0.783108 0.515967 0.34716
-0.107151 0.336444 0.219788 -0.232582 0.97244 0.016292
0.0506086 0.0425965 -0.470448 0.582466 0.22261 -0.781779
-0.300407 0.278053 0.306081 -0.73774 0.59693 0.3153
0.385963 -0.277105 0.218647 0.232582 -0.97244 -0.0162919
-0.199862 0.316393 -0.169575 -0.454522 -0.0938697 -0.885776
0.479277 0.222693 0.224119 0.859835 0.213421 -0.463827
0.112194 -0.340585 0.0993467 0.232582 -0.97244 -0.0162919
0.339127 -0.206093 -0.232986 0.859835 0.213421 -0.463827
0.0375148 0.1716 0.527042 0.454522 0.0938697 0.885776
-0.147259 0.231393 -0.386349 -0.0756006 0.856107 -0.51124
-0.411781 0.0208612 -0.0169133 -0.922077 -0.215147 -0.321693
-0.157363 0.254973 -0.332645 -0.143083 0.926255 -0.348681
0.339587 -0.124101 -0.194406 0.859835 0.213421 -0.463827
-0.24885 -0.285491 -0.0806537 -0.454521 -0.0938698 -0.885776
0.219036 -0.260628 0.479702 0.454522 0.0938697 0.885776
0.364921 0.197417 0.356302 0.454522 0.0938697 0.885776
0.0861268 0.164068 0.0786101 0.297727 -0.947588 0.115908
0.10236 0.394217 -0.237639 -0.232582 0.97244 0.016292
-0.0747368 -0.167736 0.215136 -0.232582 0.97244 0.0162917
0.0288504 -0.149005 -0.462198 0.493552 -0.429714 -0.756143
0.0649944 -0.120083 0.543852 0.454522 0.0938697 0.885776
-0.117375 -0.338287 -0.142523 -0.454521 -0.0938702 -0.885776
0.0323386 -0.256573 0.575073 0.454522 0.0938697 0.885776
0.132643 -0.193853 -0.306229 0.688119 -0.575129 -0.4424
-0.339423 -0.151314 -0.357034 -0.673021 -0.302966 -0.674726
0.0133904 0.109066 0.0343795 0.479648 -0.649002 0.590538
-0.178559 0.0684176 0.467296 -0.859835 -0.213421 0.463828
-0.199974 0.108798 0.446177 -0.859834 -0.213422 0.463828
-0.0240033 -0.321862 0.572358 -0.739359 -0.187669 0.646629
0.00232566 0.245437 -0.313364 0.296184 0.855369 -0.424992
0.333913 0.443061 0.152561 -0.232582 0.97244 0.016292
0.308375 0.247633 -0.0492307 0.818458 -0.519263 -0.245953
-0.179247 0.320312 0.153465 -0.232582 0.97244 0.016292
0.303932 -0.297938 0.291092 0.232582 -0.97244 -0.0162919
0.105839 -0.287661 -0.262427 -0.454522 -0.0938698 -0.885776
-0.0450859 -0.378895 0.140751 0.232582 -0.97244 -0.0162919
0.265256 0.218631 -0.174499 0.859834 0.21342 -0.463828
0.0625233 -0.355563 0.284301 0.232582 -0.97244 -0.0162919
0.336559 -0.0444948 0.396492 0.454522 0.0938697 0.885776
0.101163 -0.345371 0.227543 0.232582 -0.97244 -0.0162919
0.400901 0.116889 0.109947 0.319901 -0.0339112 -0.946844
-0.0672043 0.34863 0.0627155 -0.232582 0.97244 0.016292
0.186731 -0.318768 -0.138753 0.232582 -0.97244 -0.0162919
0.400308 -0.00137364 0.0790127 -0.494688 0.573068 -0.653358
0.0396984 -0.0722387 0.551762 0.454522 0.0938697 0.885776
-0.162481 0.324852 0.121797 -0.232582 0.97244 0.016292
0.309273 0.322559 -0.0450802 0.859835 0.213421 -0.463827
0.368815 -0.121344 -0.138956 0.859836 0.213419 -0.463826
0.187673 0.031231 -0.329386 0.286599 0.0845353 -0.954314
-0.272605 0.289233 -0.129371 -0.454522 -0.0938697 -0.885776
0.287243 -0.159288 0.433963 0.454522 0.0938697 0.885776
-0.12364 0.331519 0.278356 -0.232582 0.97244 0.016292
-0.374625 0.239436 -0.0717434 -0.454522 -0.0938705 -0.885776
0.425028 -0.0864228 -0.0184506 0.397342 0.821038 -0.409897
-0.291875 0.165838 0.302058 -0.859835 -0.213421 0.463827
-0.087738 0.344315 0.0271256 -0.232582 0.97244 0.016292
-0.227411 -0.421145 0.0598357 0.222014 -0.974986 -0.0105991
-0.191032 -0.311902 -0.277834 -0.219935 -0.963274 -0.154052
-0.142266 0.176473 -0.451226 -0.138968 0.607421 -0.78213
-0.148661 0.0127196 -0.487874 -0.381221 -0.0383911 -0.923686
-0.430915 0.261712 0.0133549 -0.386054 0.916939 0.100925
0.147474 0.403769 -0.163741 -0.232582 0.97244 0.016292
0.292424 0.298495 -0.0873867 0.859835 0.213421 -0.463827
0.11395 0.159101 0.151001 0.0377677 -0.932543 -0.359078
-0.41285 0.123202 0.0581783 -0.859834 -0.21342 0.463829
0.196896 0.148175 -0.316257 0.286599 0.0845353 -0.954314
0.412502 0.380661 0.312468 0.454522 0.0938697 0.885776
-0.350544 -0.241233 -0.0165492 -0.947954 -0.222917 -0.227357
0.269965 0.0785753 0.417622 0.454522 0.0938697 0.885776
-0.0666882 0.279067 -0.265764 0.0581148 0.957778 -0.281573
0.109204 0.289903 0.477718 0.454522 0.0938697 0.885776
0.226331 0.420505 -0.0369477 -0.232582 0.97244 0.016292
0.164743 -0.329344 0.178597 0.232582 -0.97244 -0.0162919
-0.153149 -0.15033 0.385998 -0.951123 0.267966 -0.153488
0.0678357 0.375319 0.3975 -0.232582 0.97244 0.016292
-0.186348 -0.36427 -0.104377 -0.454521 -0.0938708 -0.885776
0.0971086 -0.24682 -0.277403 0.580562 -0.724591 -0.37137
-0.333408 0.160314 -0.0954208 -0.809103 0.550144 0.206625
0.350898 0.226285 0.0446315 0.598623 -0.484838 -0.637639
0.523359 -0.189641 0.11611 0.859835 0.213421 -0.463827
-0.285652 -0.256196 0.119405 -0.859834 -0.213422 0.463828
-0.231425 0.298852 0.423674 -0.586169 0.780283 0.218093
0.269056 0.0349553 0.422711 0.454522 0.0938697 0.885776
0.0233382 -0.358103 -0.123477 0.232582 -0.97244 -0.0162919
0.00204097 0.223319 -0.354367 0.350489 0.794944 -0.495199
-0.298378 -0.211567 -0.361488 -0.592882 -0.472254 -0.652278
-0.217433 -0.389568 0.180574 -0.766652 -0.465058 0.44268
-0.264928 -0.421292 -0.0580119 -0.454522 -0.093869 -0.885776
-0.321739 0.290076 -0.0760448 -0.232582 0.97244 0.016292
-0.156501 -0.19491 0.386913 -0.870864 -0.195718 0.450876
-0.0121278 -0.052623 -0.506627 0.190359 -0.10963 -0.975574
-0.0299797 -0.149314 0.146566 -0.0882763 0.956906 0.276656
0.0268962 0.201016 0.529373 0.454522 0.0938697 0.885776
0.247559 0.104721 0.426348 0.454522 0.0938697 0.885776
0.234927 -0.0597057 -0.0480695 0.0890427 0.831843 0.547821
0.0266318 -0.364204 0.287685 0.232582 -0.97244 -0.0162919
-0.0755075 -0.0114135 0.0424818 0.470632 0.0209366 0.882081
-0.0869841 0.340601 0.259588 -0.232582 0.97244 0.016292
-0.213279 0.213534 -0.389139 -0.33982 0.768617 -0.541987
0.212254 0.25405 -0.256454 0.859835 0.213421 -0.463827
0.11382 0.387332 0.336896 -0.232582 0.97244 0.016292
0.206729 -0.319359 0.182027 0.232582 -0.97244 -0.0162919
0.0267244 -0.354697 -0.214726 -0.454522 -0.0938699 -0.885776
0.0835744 -0.207997 0.543634 0.454522 0.0938697 0.885776
0.153408 0.159455 -0.328318 0.286599 0.0845353 -0.954314
0.286867 -0.291968 -0.278431 0.772455 -0.536708 -0.339496
0.379738 -0.152522 0.385784 0.454522 0.0938697 0.885776
0.360943 -0.189752 -0.185025 0.859835 0.213421 -0.463827
-0.399745 0.036985 -0.14343 -0.953824 0.181852 0.23906
-0.222651 0.0434475 -0.454368 -0.452127 -0.0392936 -0.891088
-0.298036 0.119217 -0.40285 -0.593575 0.277613 -0.755381
0.293343 -0.294711 -0.0527223 0.232582 -0.97244 -0.0162919
0.249943 0.020717 0.188185 -0.49488 0.124872 -0.859942
-0.297421 -0.268516 0.0919179 -0.859835 -0.213421 0.463827
0.478357 0.113444 0.306994 0.454522 0.0938697 0.885776
-0.234873 0.184402 0.416269 -0.859834 -0.213422 0.463828
0.0622024 -0.129625 0.109226 -0.137909 0.971759 0.191482
-0.000876579 -0.148673 0.580682 0.454522 0.0938697 0.885776
0.553305 -0.231656 0.305107 0.454522 0.0938697 0.885776
0.538773 -0.00112554 0.231425 0.859835 0.213421 -0.463827
-0.324247 -0.21101 -0.333259 -0.682787 -0.550066 -0.480863
0.245967 0.0633274 0.431552 0.454522 0.0938697 0.885776
-0.221646 0.0747347 0.369801 -0.717071 -0.695184 0.0502831
-0.308926 0.0260914 -0.406261 -0.52225 -0.0292175 -0.852292
0.158337 0.0688148 -0.34321 0.772084 0.270463 -0.575096
-0.245182 -0.234929 -0.386198 -0.479296 -0.522396 -0.70525
0.0290773 0.0639966 0.542774 0.454522 0.0938697 0.885776
0.270982 -0.0305453 -0.0931273 0.186895 0.713832 0.674918
-0.109448 0.342894 -0.198007 -0.232582 0.97244 0.016292
0.0970183 0.138871 0.19204 -0.0638727 -0.856346 -0.512436
-0.307898 0.0914866 0.23661 -0.780325 -0.357281 0.513267
-0.334232 0.0387131 -0.388969 -0.617135 0.0401926 -0.78583
-0.00523307 -0.145142 0.22717 -0.356222 0.901569 -0.245519
-0.158438 0.0044483 0.475162 -0.859835 -0.213421 0.463828
-0.183239 0.0532487 0.365257 -0.225773 -0.759866 -0.609614
0.148834 -0.0959968 0.498278 0.454522 0.0938697 0.885776
0.0284429 -0.367924 0.535594 0.232582 -0.97244 -0.0162919
0.242733 -0.236124 0.464946 0.454522 0.0938697 0.885776
0.00497969 -0.310965 -0.228966 0.294458 -0.933992 -0.20237
0.0978189 0.208181 0.492221 0.454522 0.0938697 0.885776
0.529496 0.0171197 0.264928 0.92939 0.217287 0.298363
-0.370552 0.0714318 -0.347031 -0.789249 0.225944 -0.570995
0.196568 0.00729773 0.462838 0.454522 0.0938697 0.885776
0.0292544 0.374369 -0.0965953 -0.232582 0.97244 0.016292
0.265964 0.332754 0.392739 0.454522 0.0938697 0.885776
0.130923 -0.332513 -0.115077 0.232582 -0.97244 -0.0162919
0.226148 -0.140116 0.463281 0.454522 0.0938697 0.885776
-0.360286 0.280758 -0.070156 -0.232582 0.97244 0.016292
0.209282 0.133827 -0.0914652 0.507997 -0.44874 0.735236
-0.300657 -0.262211 -0.258716 -0.598852 -0.798015 -0.0674469
0.241387 0.0888516 -0.278462 0.859835 0.213421 -0.463828
-0.00561909 0.363475 0.0558099 -0.232582 0.97244 0.016292
0.481835 0.158493 0.199321 0.859835 0.213421 -0.463827
-0.0877251 0.237986 -0.372673 0.108958 0.874552 -0.472533
0.10171 -0.346739 0.317012 0.232582 -0.97244 -0.0162919
-0.0435821 -0.382986 0.430087 0.114742 -0.992317 0.0462824
-0.159319 -0.187526 0.24605 -0.18617 0.976954 0.104407
0.315938 0.435943 0.320837 -0.232582 0.97244 0.016292
0.470594 -0.0256207 0.0937657 0.859835 0.213422 -0.463826
0.172394 -0.326093 0.0937708 0.232582 -0.97244 -0.0162919
-0.0692293 -0.296763 -0.347337 0.18991 -0.909387 -0.370067
-0.0457676 0.00479375 0.0263189 0.479915 -0.0277778 0.876875
0.2573 0.426447 0.0505278 -0.232582 0.97244 0.016292
0.477467 -0.253584 0.121017 0.232582 -0.97244 -0.0162919
-0.27883 0.218189 -0.306349 -0.537324 0.812912 -0.224626
0.191256 0.269376 -0.28833 0.859835 0.213421 -0.463828
0.0659285 0.383461 -0.115731 -0.232582 0.97244 0.016292
0.0774594 0.000989461 -0.457041 0.678209 0.101774 -0.727788
-0.00704447 -0.369473 0.121431 0.232582 -0.97244 -0.0162919
-0.408432 0.0533451 -0.21918 -0.967651 0.245935 0.0562751
0.250005 -0.0138625 -0.309747 0.859835 0.213421 -0.463828
0.233903 -0.0292565 -0.0833914 0.233275 0.643872 0.728705
0.376522 0.394997 0.329411 0.454522 0.0938697 0.885776
-0.0473614 -0.258891 0.559903 -0.859835 -0.213421 0.463828
-0.158332 -0.405145 0.0908496 0.232582 -0.97244 -0.0162919
0.509813 -0.154066 0.107367 0.859835 0.213421 -0.463827
0.255267 -0.199649 0.454648 0.454522 0.0938697 0.885776
-0.096635 -0.110373 0.0940947 0.233275 0.643872 0.728705
-0.183135 -0.323611 -0.110335 -0.454522 -0.0938698 -0.885776
0.460622 -0.259201 0.215807 0.232582 -0.97244 -0.0162919
0.0374683 0.172118 -0.396128 0.521995 0.63762 -0.566534
-0.353907 0.197375 -0.0779167 -0.454522 -0.0938699 -0.885776
-0.362968 0.0339798 -0.364219 -0.71984 0.0717981 -0.690417
0.142141 0.126548 0.19786 -0.186896 -0.713831 -0.674919
0.203087 -0.0201761 -0.0801139 0.277336 0.567514 0.77525
0.0898208 0.0695206 -0.42525 0.686124 0.299104 -0.663152
0.210894 -0.117564 -0.33436 -0.45452 -0.0938693 -0.885776
0.289414 -0.0722139 -0.0175605 -0.113234 0.965533 0.23436
0.103397 -0.207398 -0.33202 0.64784 -0.614931 -0.449626
-0.0687049 -0.128218 -0.49411 -0.0811844 -0.265131 -0.960788
0.0310252 -0.0769189 -0.486821 0.476472 -0.182285 -0.860085
-0.225376 -0.217238 0.238232 -0.796355 0.23477 0.557406
-0.27665 -0.264437 -0.319071 -0.539625 -0.77985 -0.317237
-0.190613 -0.411127 -0.0129499 0.232582 -0.97244 -0.0162919
0.089286 0.390468 -0.200517 -0.232582 0.97244 0.016292
-0.239117 -0.242995 0.211743 -0.859834 -0.213422 0.463828
-0.149464 -0.154082 0.418186 -0.915177 -0.151641 0.373439
-0.0232649 0.275508 0.547218 0.454522 0.0938697 0.885776
0.0648866 -0.351279 0.568408 0.454522 0.0938697 0.885776
0.0184605 0.0397192 -0.491228 0.425926 0.222294 -0.877025
-0.10488 0.116459 0.180024 0.297727 -0.947589 0.115907
-0.340038 -0.278154 0.00779596 -0.909005 -0.223306 0.351915
-0.276614 -0.253132 -0.0883 -0.617853 -0.746842 0.245935
-0.253638 -0.361335 -0.0701594 -0.454522 -0.0938695 -0.885776
0.3699 -0.282457 0.308781 0.232582 -0.97244 -0.0162919
0.494214 0.18404 0.253267 0.92939 0.217287 0.298363
-0.0435084 -0.310205 0.543434 -0.859835 -0.213421 0.463828
-0.22313 -0.351211 -0.0868869 -0.454522 -0.0938697 -0.885776
0.0943994 -0.241411 0.541621 0.454522 0.0938697 0.885776
0.132277 -0.330883 -0.193007 0.232582 -0.97244 -0.0162919
-0.267076 -0.410465 0.0684201 -0.602001 -0.700565 0.383149
-0.154358 0.30924 0.588722 -0.718847 0.625884 0.302537
0.531001 -0.0421156 0.296466 0.454522 0.0938697 0.885776
0.37166 0.192357 0.0801667 0.475725 -0.353946 -0.805238
0.416995 0.164491 0.110802 0.368769 -0.162164 -0.915266
-0.103384 -0.393685 0.19127 0.232582 -0.97244 -0.0162919
0.256056 -0.310044 0.330202 0.232582 -0.97244 -0.0162919
-0.23008 0.00123223 -0.445863 -0.452324 -0.127351 -0.882714
0.412196 0.440516 0.250874 0.443534 0.838531 -0.316455
-0.340529 -0.179336 0.0530401 -0.859835 -0.213421 0.463827
0.0240677 0.37388 -0.141439 -0.232582 0.97244 0.016292
0.505747 0.0940142 0.282907 0.92939 0.217287 0.298363
0.263712 -0.0804537 0.07333 -0.337547 0.919206 -0.202784
0.074369 0.241435 0.50073 0.454522 0.0938697 0.885776
0.0380475 -0.159099 0.561814 0.454522 0.0938697 0.885776
0.0271555 0.135932 0.0619743 0.406759 -0.835409 0.369646
-0.0851015 -0.259642 -0.415336 0.0777444 -0.768388 -0.635245
-0.389473 0.130284 -0.052557 -0.454521 -0.0938694 -0.885776
0.00910582 0.362818 0.305216 -0.232582 0.97244 0.016292
0.505026 0.0473064 0.191152 0.859835 0.213421 -0.463827
-0.293954 0.218542 -0.244475 -0.573373 0.816155 -0.0716569
0.30656 0.20966 0.039635 0.0631001 -0.9459 -0.318263
0.319943 -0.232725 0.424966 0.454522 0.0938697 0.885776
0.320234 0.285482 0.3699 0.454522 0.0938697 0.885776
-0.160701 -0.086473 0.102263 0.35678 0.398689 0.84484
-0.209845 0.31311 0.146478 -0.232582 0.97244 0.016292
-0.0325339 -0.054177 0.3396 -0.500526 0.173016 -0.848256
0.333637 0.0659358 0.386289 0.454522 0.0938697 0.885776
0.175623 0.403618 0.247121 -0.232582 0.97244 0.016292
-0.280382 0.295927 0.165179 -0.232582 0.97244 0.016292
0.140028 0.363218 -0.314287 0.286599 0.0845353 -0.954314
0.219295 0.0989087 0.441467 0.454522 0.0938697 0.885776
0.0652472 -0.0679331 0.271795 -0.507997 0.448741 -0.735235
0.0224892 0.00453428 -0.495149 0.420158 0.095089 -0.902455
0.0934713 -0.114977 0.191199 -0.390871 0.859619 -0.329052
-0.0772804 0.199403 -0.427796 0.132153 0.747374 -0.651128
-0.154466 0.132946 -0.472234 -0.25409 0.325707 -0.910689
-0.0834595 -0.39142 0.340795 0.222014 -0.974986 -0.0105991
0.0770055 0.0350165 -0.450654 0.658322 0.193868 -0.727342
0.0891254 -0.340294 -0.247344 0.232582 -0.97244 -0.0162919
-0.256996 -0.0975398 -0.422114 -0.437726 -0.0667516 -0.896627
0.292392 0.148535 0.3987 0.454522 0.0938697 0.885776
0.104449 0.0775965 0.249138 -0.338129 -0.442656 -0.830497
-0.0197135 0.138301 0.140702 0.276683 -0.958261 0.0719842
0.179658 0.00136081 -0.333212 0.813743 0.0775474 -0.576029
-0.368726 0.18622 0.168973 -0.859835 -0.213421 0.463827
-0.152413 -0.403067 0.0513094 0.232582 -0.97244 -0.0162919
-0.348159 -0.201707 0.028602 -0.859835 -0.213421 0.463827
0.334883 -0.283805 -0.110637 0.232582 -0.97244 -0.0162919
0.0263681 0.366444 0.335228 -0.232582 0.97244 0.016292
-0.396582 -0.0294236 -0.323968 -0.862 -0.0480242 -0.504629
-0.200713 -0.102862 0.127061 0.33813 0.442655 0.830497
-0.075911 0.134434 0.589183 0.454522 0.0938697 0.885776
-0.0737757 0.350378 -0.135466 -0.232582 0.97244 0.016292
-0.00698253 -0.0823124 0.312857 -0.509918 0.404926 -0.758959
0.104122 0.0190463 -0.427283 0.725969 0.160001 -0.668856
0.0651197 -0.353123 0.175708 0.232582 -0.97244 -0.0162919
-0.351501 0.280006 0.100143 -0.232582 0.97244 0.016292
-0.313634 0.152055 -0.369915 -0.654817 0.494135 -0.571878
-0.144791 -0.0847463 0.459418 -0.859834 -0.21342 0.46383
-0.0941041 -0.260933 0.472312 -0.859835 -0.213422 0.463827
0.222248 0.132177 -0.294006 0.859835 0.213421 -0.463828
-0.100741 -0.138332 0.126192 0.113992 0.805271 0.581846
-0.128481 -0.0149994 0.389191 -0.40723 -0.261304 -0.875148
0.125154 -0.13992 -0.369039 0.749528 -0.404357 -0.524121
0.337402 0.208596 0.369239 0.454522 0.0938697 0.885776
-0.299487 0.0365033 0.193291 -0.144315 -0.613642 0.776284
0.0410901 0.372708 0.171527 -0.232582 0.97244 0.016292
-0.201451 0.319784 -0.132018 -0.232582 0.97244 0.016292
-0.267344 0.177863 0.353066 -0.859835 -0.213421 0.463827
-0.386229 -0.139623 -0.295902 -0.870792 -0.359974 -0.334874
-0.0954989 -0.0863969 0.368829 -0.509957 0.31439 -0.800689
0.0809476 0.245702 -0.306177 -0.454522 -0.0938696 -0.885775
0.0559965 0.380514 -0.0815769 -0.232582 0.97244 0.016292
0.308955 -0.296107 0.253513 0.232582 -0.97244 -0.0162919
-0.151798 0.10587 0.236284 0.209637 -0.975911 -0.0604252
0.174349 0.0968044 -0.327579 0.286599 0.0845353 -0.954314
-0.418734 -0.0239721 -0.2538 -0.996745 9.6966e-05 -0.0806185
0.00825507 0.159465 -0.431406 0.445281 0.603513 -0.661435
0.00104923 0.191573 -0.401182 0.398353 0.725886 -0.560717
-0.0767577 -0.0610781 0.585201 -0.524101 -0.139427 0.840166
-0.137161 0.279183 -0.256439 -0.130262 0.967211 -0.218022
0.11881 0.397209 -0.181409 -0.232582 0.97244 0.016292
-0.0534762 0.350812 0.12846 -0.232582 0.97244 0.016292
0.0466847 0.377352 -0.0257925 -0.232582 0.97244 0.016292
-0.116767 -0.188983 -0.46489 -0.212433 -0.371493 -0.903806
0.444244 0.373935 0.270629 0.92939 0.217287 0.298363
-0.262945 -0.266583 0.156719 -0.859835 -0.213421 0.463827
-0.353301 -0.170872 -0.103702 -0.828082 -0.477827 0.293191
0.294297 -0.300845 0.32706 0.232582 -0.97244 -0.0162919
0.231261 0.1848 -0.253084 0.859835 0.213421 -0.463828
0.247776 -0.0936212 0.447256 0.454522 0.0938697 0.885776
-0.192916 0.0585621 0.436145 -0.859835 -0.213421 0.463828
0.0503187 0.026057 -0.0255418 0.470632 0.0209366 0.882081
-0.00534669 -0.373641 0.521231 -0.0379294 -0.99149 0.124536
-0.0848948 -0.391058 0.298433 0.232582 -0.97244 -0.0162919
-0.416701 0.0130536 -0.249516 -0.989466 0.133951 -0.0548931
-0.181154 0.178229 0.513011 -0.859835 -0.213421 0.463827
0.115629 -0.10264 -0.402309 0.759752 -0.267564 -0.592609
0.377665 -0.0535661 0.00408919 -0.318032 0.934559 -0.159544
-0.105592 -0.175471 0.236376 -0.232582 0.97244 0.0162921
0.279747 0.0480133 -0.226142 0.859835 0.213421 -0.463828
0.23276 0.174411 -0.0705214 0.459841 -0.718486 0.521847
0.0696019 0.2854 0.498517 0.454522 0.0938697 0.885776
0.0429243 0.316222 -0.294139 -0.454522 -0.0938697 -0.885776
0.163936 -0.325657 -0.052988 0.232582 -0.97244 -0.0162919
0.0149165 0.373479 -0.248171 -0.232582 0.97244 0.016292
-0.183601 0.0260389 0.437481 -0.89238 -0.271263 0.360658
0.289207 0.0229655 -0.153088 0.860219 0.432851 0.26956
-0.0777623 -0.386023 0.0996762 0.232582 -0.97244 -0.0162919
0.140799 0.0345072 -0.379292 0.780581 0.171466 -0.601076
0.38762 0.321544 0.0996909 0.859834 0.213422 -0.463828
-0.414984 0.0183409 -0.208698 -0.984836 0.156654 0.074554
-0.233519 -0.401275 0.137759 -0.633494 -0.665006 0.395541
-0.119991 -0.251209 -0.424394 -0.0845232 -0.665465 -0.741628
-0.0811985 -0.385422 0.014791 0.232582 -0.97244 -0.0162919
0.0930818 -0.083425 0.0127448 0.138659 0.776696 0.614424
-0.0609626 -0.137762 0.582133 -0.601871 -0.15707 0.782994
-0.149192 0.0716906 0.523241 -0.859835 -0.213421 0.463828
0.0304731 0.0316369 0.301277 -0.391371 -0.307905 -0.867193
0.107393 0.388598 0.169595 -0.232582 0.97244 0.016292
0.343997 -0.00618401 0.388616 0.454522 0.0938697 0.885776
-0.0295761 -0.156613 0.195958 -0.232582 0.97244 0.0162921
-0.0510822 -0.0609121 -0.508746 -0.0518367 -0.129541 -0.990218
0.263729 0.401236 0.386628 0.454522 0.0938697 0.885776
0.142713 -0.0572362 -0.0291775 0.210347 0.679697 0.702685
0.392716 -0.265769 0.391126 0.454522 0.0938697 0.885776
0.192703 -0.32599 0.377536 0.232582 -0.97244 -0.0162919
0.333338 0.361018 0.355171 0.454522 0.0938697 0.885776
0.00439969 -0.363935 -0.0457667 0.232582 -0.97244 -0.0162919
-0.0374735 0.232743 -0.363363 0.273545 0.844221 -0.460939
0.28821 0.22759 -0.116949 0.915868 -0.401325 -0.011109
0.560701 -0.0870977 0.243625 0.92939 0.217287 0.298363
0.0755468 0.375691 0.4854 -0.232582 0.97244 0.016292
-0.0475189 0.266237 -0.295665 0.173185 0.913538 -0.368043
-0.107444 0.0472843 0.348317 -0.255623 -0.606447 -0.752914
-0.339832 0.177304 -0.212443 -0.73917 0.672911 0.0286017
-0.08914 -0.314993 -0.299535 0.112868 -0.965423 -0.234987
-0.22429 -0.264216 -0.371865 -0.393715 -0.715002 -0.57772
0.26749 0.152542 -0.13992 0.967164 -0.166467 0.192048
0.0172269 -0.083586 0.0339761 0.233275 0.643872 0.728705
-0.127144 -0.295426 0.395192 -0.859835 -0.213421 0.463827
0.136709 0.173406 0.0327365 0.337547 -0.919206 0.202784
-0.296021 0.29448 0.0282453 -0.232582 0.97244 0.016292
0.471819 0.0284728 0.120927 0.859835 0.213421 -0.463827
0.0189612 0.371103 -0.0486102 -0.232582 0.97244 0.016292
-0.216557 -0.388005 -0.0863607 -0.454521 -0.0938708 -0.885776
0.212262 0.296084 0.424181 0.454522 0.0938697 0.885776
0.237052 -0.016899 0.444629 0.454522 0.0938697 0.885776
-0.0949445 -0.110431 -0.493808 -0.248979 -0.182675 -0.951125
0.272806 0.125978 -0.172156 0.964994 -0.00521459 0.262221
-0.127882 -0.123584 0.370913 -0.504812 0.491441 -0.709684
0.110165 -0.101581 0.518713 0.454522 0.0938697 0.885776
0.126048 0.394196 0.101799 -0.232582 0.97244 0.016292
-0.332895 0.230807 0.255911 -0.859835 -0.213421 0.463827
-0.207746 -0.364456 0.214011 -0.859835 -0.213421 0.463827
0.23828 0.297941 -0.188013 0.859835 0.213422 -0.463827
-0.117297 0.0539004 -0.498553 -0.255709 0.0840208 -0.963096
-0.186983 -0.256425 -0.400663 -0.312291 -0.650247 -0.69257
0.132235 -0.0625104 0.503247 0.454522 0.0938697 0.885776
0.0646295 -0.354137 0.22927 0.232582 -0.97244 -0.0162919
-0.167447 0.0359509 0.472956 -0.859834 -0.213421 0.463829
0.18177 -0.0960682 0.481385 0.454522 0.0938697 0.885776
-0.414985 -0.0507081 -0.192325 -0.986992 -0.0697274 0.144858
0.280238 -0.301676 0.175939 0.232582 -0.97244 -0.0162919
-0.3817 -0.0445964 -0.0679419 -0.934727 -0.102533 0.340254
0.264283 0.182817 0.40949 0.454522 0.0938697 0.885776
0.0107557 -0.363175 -0.000368827 0.232582 -0.97244 -0.0162919
0.472976 0.136976 0.172998 0.859835 0.213421 -0.463827
0.271348 -0.298024 -0.16895 0.232582 -0.97244 -0.0162919
-0.111466 -0.381515 0.365347 -0.534748 -0.766532 0.35563
-0.39829 0.00412482 -0.320707 -0.878883 0.0419741 -0.475188
0.348414 -0.285157 0.163192 0.232582 -0.97244 -0.0162919
0.199375 0.192796 0.0507089 0.209637 -0.97591 -0.0604239
0.438507 0.360395 0.298362 0.92939 0.217287 0.298363
-0.164214 0.173187 0.542095 -0.859835 -0.213421 0.463828
0.373655 0.310312 0.339857 0.454522 0.0938697 0.885776
-0.295697 -0.215953 0.1193 -0.859834 -0.213421 0.463828
0.173521 0.406493 0.0455283 -0.232582 0.97244 0.016292
0.309737 -0.0723294 0.00920175 -0.232582 0.97244 0.0162917
0.298669 -0.134703 -0.275138 0.859834 0.213421 -0.463828
-0.026306 0.0874963 0.0446038 0.494688 -0.57307 0.653357
0.298413 0.175277 0.102336 -0.138658 -0.776697 -0.614423
0.0533463 0.15638 0.100549 0.276683 -0.958261 0.0719842
-0.168819 0.0278796 0.38503 -0.380469 -0.589366 -0.712664
-0.386989 0.0755608 -0.316312 -0.86488 0.293589 -0.40717
0.422082 0.317169 0.161563 0.859834 0.213421 -0.463828
-0.00567958 0.0493472 0.0100531 0.508074 -0.267893 0.818593
-0.114447 -0.170361 0.192412 -0.0882763 0.956906 0.276656
0.426406 0.210883 0.120674 0.859835 0.213421 -0.463828
0.271345 0.197281 0.0684022 0.0377677 -0.932543 -0.359078
0.458681 -0.258615 0.153142 0.232582 -0.97244 -0.0162919
0.456811 -0.0756658 0.338091 0.454522 0.0938697 0.885776
-0.274885 -0.151533 -0.404245 -0.509336 -0.216171 -0.832975
-0.0464009 -0.376579 -0.0163037 0.232582 -0.97244 -0.0162919
0.119071 -0.341682 0.26301 0.232582 -0.97244 -0.0162919
-0.362271 0.0987592 -0.077241 -0.886975 0.378369 0.264787
