ply
format ascii 1.0
comment Created by Open3D
element vertex 128
property double x
property double y
property double z
property double nx
property double ny
property double nz
end_header
-0.0349448 -0.211973 0.12651 -0.362503 -0.354311 0.862007
0.190214 -0.146474 -0.192464 0.361148 0.351945 -0.863543
0.352913 0.361199 0.133302 0.593443 0.623072 0.509516
0.331402 0.192638 0.332728 0.707474 0.552167 0.441126
0.0978166 -0.406598 -0.200418 0.917887 -0.170678 0.358262
0.146588 0.0656462 0.302975 -0.353437 -0.358446 0.86406
0.474377 0.130251 0.0623345 0.535059 -0.83821 -0.105434
-0.49862 0.085855 0.0359477 -0.441935 -0.320357 0.837893
-0.0160045 0.51125 0.0372814 -0.901906 0.418599 -0.106494
-0.297396 -0.0148686 0.0781505 -0.355253 -0.368558 0.859046
-0.307219 0.17612 0.152696 -0.372098 -0.338003 0.864464
0.0959291 -0.3362 -0.306317 0.401647 0.30981 -0.861799
0.136677 0.501883 0.0806687 0.20329 0.892593 0.402431
-0.230204 -0.430695 -0.155111 -0.374014 -0.780969 -0.500201
-0.226193 -0.359358 -0.0275763 -0.460613 -0.208006 0.862884
0.183785 -0.432154 -0.106052 0.959055 -0.0844861 0.270324
0.190265 -0.29244 -0.243538 0.403061 0.301509 -0.86408
-0.190384 0.437786 0.169013 -0.320326 0.875164 0.3626
-0.00844832 0.221599 -0.139357 0.411874 0.306965 -0.857982
0.339925 -0.333506 0.074844 0.675469 0.514528 0.528207
0.148056 0.387764 0.109362 0.38904 0.801432 0.454262
0.0979951 0.2859 0.373027 -0.39456 -0.325972 0.859107
-0.177078 -0.361187 -0.302946 -0.872746 0.168921 -0.458017
0.384579 0.198123 0.166827 0.809536 -0.561783 -0.170444
0.0667438 -0.485937 0.0234202 -0.813969 -0.306943 -0.493195
-0.104149 0.42523 0.278148 -0.100599 0.956035 0.275458
0.351415 0.264342 0.0460614 0.396697 0.288401 -0.871468
-0.00387017 0.40902 -0.0482567 0.385728 0.324469 -0.863675
0.00756114 -0.13588 -0.109705 0.53401 0.68288 0.498505
-0.248895 0.379196 0.261347 -0.371295 -0.343559 0.862617
0.0837105 -0.48794 -0.00112259 -0.64995 -0.484812 -0.585253
-0.39321 0.0729456 0.0723456 -0.344026 -0.364131 0.865479
0.0220462 0.404381 0.325142 0.108714 0.893283 0.436149
-0.124986 0.107929 -0.0326157 0.444611 -0.883784 -0.145764
-0.333856 0.324557 -0.0724282 -0.734561 -0.459424 -0.499349
0.242378 0.332937 0.0242694 0.387374 0.313335 -0.867042
-0.167399 -0.313379 -0.286199 -0.883854 0.448577 -0.132591
0.276502 -0.0118197 0.329437 -0.282019 -0.445463 0.849722
-0.230791 0.0583662 -0.289801 0.340034 0.398643 -0.85174
-0.320866 -0.149324 0.0174246 -0.394878 -0.191641 0.898524
0.0608572 -0.205847 -0.271962 0.331532 0.363015 -0.870808
0.280625 -0.196406 0.253167 -0.345575 -0.390837 0.853126
-0.0741004 0.113515 0.2313 -0.0493605 0.972387 0.228093
-0.431571 -0.168628 -0.0412612 -0.423987 -0.292436 0.857156
-0.433342 0.062652 -0.256546 -0.512894 0.825175 0.236697
-0.249187 -0.196269 -0.281416 -0.673828 -0.537544 -0.506953
0.064673 0.166865 0.307945 -0.427681 -0.297293 0.853643
0.0170014 0.0407461 0.215285 -0.446943 -0.736458 -0.50781
-0.126303 -0.515945 -0.0534309 -0.127415 -0.89394 -0.429695
-0.364437 0.213479 0.0293577 -0.676045 0.712963 -0.186139
-0.445957 0.144699 -0.0849486 -0.0525399 0.970762 0.234223
-0.0730019 0.272299 0.291125 -0.390707 -0.247766 0.886544
0.33679 -0.354866 -0.157638 0.890391 0.0805586 0.448011
0.516633 -0.0841577 -0.0247769 0.359644 0.371176 -0.856087
-0.358833 0.222459 0.0240327 -0.794386 0.599152 -0.0998416
-0.155182 -0.0314772 -0.0279723 0.915662 -0.158757 0.36927
0.321869 0.096033 0.268058 0.365335 0.816519 0.44702
-0.0189324 -0.414244 -0.0933977 -0.534081 -0.528571 -0.659826
-0.0903842 -0.129088 -0.0197024 0.454177 0.784788 0.4217
-0.116218 0.51494 -0.0449783 -0.92957 0.175237 -0.324332
-0.386491 -0.085892 -0.322579 -0.0837461 -0.926448 -0.366989
0.0681438 0.454746 0.204676 0.152232 0.90895 0.388117
0.171728 0.0302683 -0.0179019 -0.927584 0.160574 -0.337349
-0.208303 -0.115493 0.0909684 0.949024 -0.155676 0.274077
0.0482568 -0.317194 0.106214 -0.380479 -0.326443 0.865258
-0.138317 0.150343 -0.209003 0.402586 0.301688 -0.864239
-0.30844 0.329141 0.118081 -0.789833 -0.24889 -0.560551
-0.36715 0.306607 -0.216869 -0.884944 0.463041 -0.0496746
0.0137264 -0.165753 0.0191088 -0.47459 0.857261 0.199669
0.0225884 0.410333 0.0994457 0.0619484 0.915313 0.397951
-0.351792 0.0650344 -0.337217 0.276998 0.541763 -0.793578
0.086016 -0.0626751 0.174235 -0.940633 0.144187 -0.307277
0.38502 -0.0985442 0.333518 -0.379601 -0.341817 0.859688
0.312849 0.30759 0.232302 0.827175 -0.451941 0.333963
0.188124 -0.0501032 -0.116858 -0.446508 0.875813 0.183255
-0.129297 0.319177 -0.134388 0.219806 0.522375 -0.823899
0.262354 -0.323658 -0.0161368 0.750051 -0.650296 -0.120575
0.382172 -0.143064 -0.10378 0.343503 0.374768 -0.861136
0.104543 0.310657 -0.0445753 0.371235 0.345797 -0.861747
-0.0457375 0.121629 0.101139 0.436845 -0.89756 -0.0596039
-0.427962 -0.129024 -0.208356 0.00238488 -0.927875 -0.372883
-0.444365 -0.0413695 0.0127428 -0.425875 -0.337698 0.839399
0.425478 -0.033726 0.121544 0.0509701 -0.934068 -0.353438
0.435844 -0.176266 0.196698 0.907284 -0.298422 0.296277
0.184653 -0.466135 0.101144 -0.379654 -0.333996 0.862734
0.414662 -0.288668 -0.0756742 0.857075 0.283731 0.430022
-0.299718 0.151431 0.140999 -0.365467 -0.350386 0.862359
-0.193746 0.0485754 0.12506 0.397552 -0.913557 -0.0858247
-0.407374 0.184998 -0.283189 -0.872182 0.309202 -0.379067
-0.38712 -0.265825 -0.170418 0.268754 -0.910907 -0.313081
0.187141 0.27496 0.254779 0.436307 0.662962 0.608373
0.133685 -0.0873315 0.0242503 -0.903079 0.242698 -0.354325
-0.0359304 0.128883 0.0986677 0.487014 -0.815015 -0.313954
-0.00361696 0.203505 -0.141419 0.416802 0.332683 -0.84593
-0.0302266 -0.339091 -0.354059 -0.953304 0.186889 -0.237242
-0.113654 -0.166254 -0.327442 0.254053 0.446557 -0.85793
0.111742 0.134523 -0.0140915 -0.399406 -0.811844 -0.425893
-0.302115 -0.315543 -0.249479 -0.597517 -0.620204 -0.508252
0.367418 -0.302282 0.23395 0.869813 -0.467527 0.15762
0.44025 0.085459 0.200388 0.618698 -0.784954 -0.0325534
0.314676 0.0540273 -0.0497399 0.4043 0.262114 -0.876264
-0.193026 -0.245334 0.0326569 -0.361041 -0.369374 0.856278
0.210032 0.404177 0.218629 0.362362 0.787274 0.498892
-0.435957 0.274991 0.136423 -0.357084 -0.356621 0.863315
-0.475788 -0.0147053 -0.152034 -0.280012 -0.852546 -0.441315
0.369365 0.0346418 0.38676 -0.349742 -0.357885 0.865794
-0.353668 -0.374209 -0.113066 -0.603103 -0.654368 -0.456146
0.184837 -0.346312 0.154196 -0.32284 -0.348387 0.880001
-0.228025 -0.253259 -0.410915 0.159779 0.544472 -0.82342
-0.257902 0.391142 -0.164472 0.494945 0.30566 -0.813389
0.0452257 -0.0774066 -0.236074 0.43663 0.276952 -0.855951
0.255197 0.184546 -0.0296175 0.316951 0.410566 -0.854973
-0.0946571 -0.0357229 -0.269192 0.440915 0.214145 -0.871628
0.237368 0.24562 0.408852 0.93452 -0.320931 0.153867
0.123511 -0.233113 0.173303 -0.375524 -0.104367 0.920917
0.415771 -0.178518 0.0349017 0.401767 0.776537 0.485359
0.239954 -0.393748 -0.240784 0.936166 -0.166835 0.309451
0.431157 0.104736 0.054972 0.877635 -0.466738 0.109141
-0.237531 -0.0846396 -0.343381 0.376002 0.339807 -0.862064
-0.177238 0.221428 0.224309 -0.347768 -0.406808 0.844728
-0.0943317 -0.44332 -0.207213 -0.854952 -0.0611742 -0.515088
0.19489 -0.0925806 0.259004 -0.394648 -0.311639 0.86437
-0.0742526 -0.332127 0.0444253 -0.444602 -0.317523 0.837561
-0.100328 0.0510097 -0.132741 0.902066 -0.192981 0.38605
-0.359671 0.217944 -0.140462 -0.33097 -0.818586 -0.469442
-0.198459 0.372774 0.0377486 0.335904 0.830462 0.444411
-0.227738 -0.254505 -0.40424 -0.573913 -0.598401 -0.559052
-0.252099 0.434047 -0.0391096 -0.854209 -0.0908086 -0.511939
