ply
format ascii 1.0
comment Created by Open3D
element vertex 835
property double x
property double y
property double z
property double nx
property double ny
property double nz
end_header
0.283425 0.238185 -0.2009 0.226163 -0.884088 0.408948
-0.493483 0.204409 0.355704 -0.858706 -0.19516 0.473853
-0.260834 0.222151 0.4021 0.0155339 0.776345 0.630117
-0.434829 -0.412094 0.0216902 -0.927933 -0.147921 0.342141
-0.203491 0.210498 -0.305233 -0.704616 0.315752 -0.635466
0.614294 -0.173256 0.0704709 -0.889677 -0.240942 0.387842
0.310188 -0.195702 0.221351 0.315243 -0.464311 0.82767
-0.0376993 0.417916 0.0366899 -0.237449 0.90451 0.35423
-0.0828509 0.0926531 0.082457 0.166887 -0.829111 -0.533595
0.178588 0.516223 -0.127852 -0.315956 0.948195 -0.0331506
0.483913 0.466651 0.0945714 0.900152 0.265376 -0.345402
-0.442701 -0.251521 0.0922037 -0.932324 -0.172585 0.317785
0.100376 -0.411992 -0.0108434 0.382318 -0.911001 -0.154627
0.45833 0.439355 0.205092 0.310357 0.373958 0.873976
0.242658 -0.096097 -0.537527 -0.799216 -0.352044 0.487154
0.0482584 0.250443 -0.733858 -0.419932 -0.178724 -0.889784
-0.0497621 0.287818 -0.380606 -0.271905 0.566756 -0.777724
0.289223 0.626972 0.0615152 -0.866705 -0.273223 0.417339
0.431698 0.198508 -0.128052 -0.355891 -0.328916 -0.874732
0.521227 -0.369096 -0.414625 0.813611 0.346158 -0.467132
-0.233937 0.0686064 0.540329 0.268177 0.478538 0.836112
0.0990126 -0.0299048 -0.137506 0.410235 0.63225 0.657242
-0.393862 0.0723192 0.426505 -0.884361 0.105284 0.454775
0.509563 -0.397512 -0.311079 0.558571 -0.794007 0.239898
0.0397213 0.0818078 0.0811374 -0.0558528 -0.351787 -0.934412
0.426463 0.0443603 -0.301794 0.806386 0.407505 -0.42858
0.494973 0.231543 -0.0468541 0.879337 0.252038 -0.404034
0.517559 0.0513234 -0.145578 0.877052 0.301207 -0.374239
-0.456154 -0.392901 -0.00353343 -0.900721 -0.194108 0.388617
0.455743 0.357623 0.16258 -0.71663 -0.566823 0.406391
-0.131436 0.249046 0.358482 0.048893 0.774001 0.631293
0.471505 -0.247564 -0.423656 0.915018 0.151758 -0.37378
-0.561576 -0.15484 -0.0215265 -0.924391 0.078202 0.373345
-0.0363386 0.0495811 -0.108225 0.829977 -0.238283 0.504341
0.191668 0.538535 -0.198115 -0.772246 -0.422652 0.474343
0.340661 0.221487 -0.310754 0.876144 0.251688 -0.411126
-0.172711 -0.424832 -0.11398 0.0405414 -0.842128 -0.537752
0.587662 -0.287444 -0.0867733 0.487897 -0.835378 0.253181
0.205281 0.268858 0.272476 -0.018278 0.637868 0.769928
0.214285 -0.252367 0.257643 0.52762 -0.594748 0.606541
-0.379848 -0.304978 0.166487 -0.888253 -0.24755 0.386945
0.512982 0.377527 0.110275 0.678628 0.425558 -0.598635
0.014928 0.200746 0.375584 0.355544 0.367617 0.859329
0.0973809 -0.0875684 -0.0720224 -0.212476 0.91239 0.349854
0.581283 -0.0530801 -0.0944322 0.787941 0.394484 -0.472791
-0.157148 -0.259441 -0.2933 -0.246972 -0.584834 -0.772641
0.358039 -0.310604 -0.122309 0.486817 -0.872491 -0.0420528
-0.157562 0.348475 -0.17214 -0.375977 0.792745 -0.479788
0.301296 0.713709 0.0945808 0.0221392 0.881041 0.472521
-0.122803 0.3222 0.262288 -0.0779824 0.796052 0.600184
0.440721 -0.254912 -0.479553 0.711645 0.499643 -0.493882
-0.0552166 -0.123211 -0.0558603 0.192573 0.886343 0.421084
0.0917189 0.410974 -0.449192 -0.891806 -0.187715 0.411636
0.0442804 0.465313 -0.185129 -0.362821 0.916189 -0.170172
0.632421 -0.123374 -0.0490483 0.852461 0.15351 -0.499745
0.235858 0.431657 0.125807 0.0817652 0.781257 0.618832
0.695948 -0.172583 0.103219 0.574929 -0.793288 0.200378
-0.33712 -0.22001 0.316989 -0.936783 -0.190511 0.293502
-0.163558 0.280148 -0.270605 -0.657353 0.586053 -0.47374
-0.136321 -0.0168048 0.204943 -0.589489 -0.186911 -0.785855
0.275839 -0.00535365 -0.132626 -0.392142 0.916651 -0.0773035
0.0720603 0.122602 0.397841 0.328308 0.402375 0.854581
0.0817467 -0.260963 0.365523 0.639246 -0.557485 0.529694
0.292209 0.147032 -0.0622954 -0.283148 -0.611836 -0.738569
0.251534 0.0786775 -0.0221439 -0.420305 0.0242677 -0.907058
0.606278 -0.00916818 0.189675 -0.718165 -0.394672 0.573125
-0.0716286 -0.38651 0.397193 0.386439 -0.706189 0.593264
-0.0713225 0.424521 -0.00502923 -0.25789 0.962527 -0.0838768
0.366492 -0.322922 -0.493857 -0.692263 -0.409174 0.594432
0.367959 0.104765 -0.347786 0.949561 0.0667734 -0.306392
0.29458 0.262298 -0.378535 0.777678 0.410561 -0.476084
0.125188 0.503247 -0.128484 -0.448348 0.887379 0.107437
0.53728 0.0673461 -0.0976379 0.883367 0.244244 -0.40001
0.422788 0.319115 -0.106097 0.870125 0.277523 -0.407263
-0.311631 0.1724 -0.237335 -0.570469 0.515744 -0.639197
0.307514 0.00844234 -0.161777 -0.283966 0.95748 -0.0509387
-0.380865 0.0336147 0.414172 -0.761771 -0.404095 0.506372
-0.235173 0.269996 0.327256 -0.00429775 0.711114 0.703064
-0.277224 -0.235134 -0.277627 -0.313591 -0.421109 -0.851075
-0.39127 -0.506295 -0.015095 0.146826 -0.668748 -0.728848
0.362516 0.0305252 0.274363 0.201757 0.119811 0.97208
0.386597 0.0729492 -0.335765 0.470764 0.505079 -0.723379
0.16015 -0.307657 0.229496 0.210835 -0.626697 0.750199
0.00334944 -0.0813783 0.133825 -0.0846173 0.574145 -0.81437
0.616058 0.208794 0.154826 0.851158 0.293349 -0.435289
-0.359598 0.226566 -0.13085 -0.511239 0.548685 -0.661498
0.521633 0.233717 0.194698 -0.709779 -0.583458 0.394703
0.0574104 -0.0940629 0.0691082 -0.526944 0.701289 -0.48013
-0.158532 0.302944 0.294579 -0.0654653 0.84597 0.529197
-0.103455 -0.141582 -0.382371 -0.0669391 -0.129651 -0.989298
0.27223 -0.330826 -0.00893507 0.425827 -0.883738 0.19411
-0.318824 0.167931 0.484505 0.368776 0.405823 0.836249
0.302793 0.0156969 0.30969 0.497637 -0.0420116 0.866368
-0.0341626 -0.0750131 0.154196 -0.349495 0.213783 -0.912223
0.365051 -0.173895 -0.569402 0.818152 0.344923 -0.460061
-0.229461 0.140503 -0.321966 -0.748912 0.473552 -0.463551
0.467508 -0.214406 -0.38975 0.883678 -0.00407243 -0.468078
0.0347894 -0.292611 -0.308251 0.0209629 -0.868383 -0.495451
0.259896 -0.338827 -0.152523 0.0371687 -0.9988 0.0318761
0.0856618 0.0814169 0.407273 0.365406 0.204035 0.908212
0.40714 -0.224823 0.0741594 0.497405 -0.720709 0.482874
-0.336755 -0.509007 0.0132262 0.175752 -0.783096 -0.59655
-0.313861 -0.258236 0.337246 -0.778591 -0.370606 0.506407
0.318188 0.217157 -0.372457 0.823685 0.331147 -0.460309
-0.257408 0.0138739 0.185261 0.147987 -0.885841 -0.439757
-0.536453 0.151572 0.229584 -0.782072 -0.386806 0.488615
0.203745 0.635971 -0.088164 -0.816976 -0.344782 0.462251
-0.0445201 0.1102 -0.441471 -0.565732 0.216914 -0.795547
-0.261378 -0.391928 0.343076 -0.776433 -0.46039 0.430339
0.404573 -0.287893 -0.144269 0.413572 -0.90461 -0.103141
-0.584644 -0.0317928 0.0200663 -0.957434 -0.0558306 0.283201
0.0394049 0.121204 -0.0679839 0.519783 -0.845482 0.12242
0.453232 -0.326827 -0.512652 0.781379 0.396482 -0.481922
0.152952 0.56242 -0.239027 -0.903275 -0.265436 0.337102
0.472847 0.0987624 -0.167946 0.722206 0.394808 -0.567931
0.105801 0.363973 0.195884 -0.000153084 0.785791 0.618491
0.419591 -0.366363 -0.420339 -0.83043 -0.316049 0.458802
0.102499 -0.309644 0.302328 0.450224 -0.58807 0.671917
-0.569182 -0.0823289 -0.148482 -0.737511 0.0253465 -0.674859
0.168472 -0.0174697 -0.166546 0.0254595 0.764104 0.644591
0.138653 0.119774 -0.179772 0.690221 -0.457165 0.560887
-0.603899 0.123594 0.0898757 -0.874423 -0.2317 0.426263
0.083155 0.515647 -0.392213 -0.664121 -0.625931 0.408843
-0.138081 0.379683 -0.149921 -0.198006 0.877596 -0.436599
-0.44848 0.267922 0.185325 -0.557973 0.799671 0.221791
0.281353 0.605966 0.0357311 -0.689921 -0.555346 0.464326
-0.0443863 0.432711 -0.12039 -0.257833 0.955874 -0.140807
0.354984 -0.120919 0.23216 0.372369 -0.277911 0.885498
0.207902 0.10526 -0.640047 0.963059 -0.0862544 -0.255102
0.391963 0.470133 -0.0524262 0.822412 0.332473 -0.461627
-0.28624 0.0160015 -0.317734 -0.628258 0.126936 -0.76758
-0.0244287 -0.433888 -0.0635646 0.168105 -0.979102 -0.114458
0.17845 0.290906 -0.561783 0.71736 0.510762 -0.473832
0.0434505 0.381546 0.185492 -0.0801336 0.873036 0.481026
-0.416019 -0.484017 -0.0360998 -0.0408538 -0.741716 -0.669469
0.28503 0.221123 -0.15277 0.115869 -0.985793 -0.121604
0.639272 0.0137362 0.0690334 0.951642 0.172915 -0.253927
0.528301 -0.213 -0.301509 0.752765 0.488424 -0.441347
0.373833 0.471393 0.089658 -0.967463 -0.0569869 0.24651
0.135725 0.029039 -0.643037 -0.807962 -0.364524 0.462947
0.24515 -0.284363 -0.307486 -0.145822 -0.980933 -0.128476
0.0220785 0.307536 -0.725098 -0.555293 0.183047 -0.81126
0.598298 0.192032 0.117825 0.779379 0.357057 -0.514858
0.0988459 0.0758652 -0.662242 -0.862957 -0.258127 0.434369
-0.353064 0.26177 -0.0677105 -0.484977 0.78868 -0.377865
-0.490211 -0.111717 0.128096 -0.879885 -0.137301 0.454918
-0.36309 -0.493627 0.0947794 -0.781689 -0.395583 0.482158
0.494398 -0.361972 -0.455712 0.89729 -0.240816 -0.369971
0.610308 -0.0982986 -0.0726472 0.597567 0.67487 -0.432971
-0.266211 -0.211825 0.0709389 -0.197016 0.782249 0.590992
-0.298308 0.0912568 -0.290617 -0.515748 0.256579 -0.817418
-0.00328901 0.342659 -0.688284 -0.800057 0.424971 -0.423449
-0.537988 -0.144135 0.0207316 -0.796485 -0.389341 0.462629
0.419035 -0.00748465 -0.345804 0.853509 0.285035 -0.436209
-0.178771 0.375312 -4.56222e-05 -0.320884 0.930215 -0.178142
-0.383076 -0.273627 -0.214183 -0.103287 -0.554667 -0.825637
-0.187542 0.365395 0.0615956 -0.352229 0.929519 0.109222
-0.313152 -0.239628 0.113598 -0.162605 0.811241 0.561647
-0.163357 0.240831 -0.313841 -0.484937 0.517406 -0.705072
0.306764 0.194955 -0.0978698 -0.188258 -0.359374 -0.914007
0.649003 -0.0401124 0.212019 -0.836388 -0.323458 0.442528
-0.0729491 -0.0641355 -0.4229 -0.427814 -0.220646 -0.876522
0.0103578 -0.436782 -0.010474 0.236423 -0.957572 -0.164804
-0.0933355 -0.0816344 0.528165 0.228845 0.319273 0.919617
-0.634077 0.12975 0.0344269 -0.58938 0.743423 -0.316152
0.177638 -0.305639 -0.276827 0.178036 -0.97631 -0.122975
0.636826 -0.138743 0.128215 -0.827211 -0.325716 0.457854
0.172168 0.500314 -0.415876 0.823111 0.331221 -0.461281
0.0763709 0.344174 0.226341 0.0567451 0.657639 0.751193
0.0844657 0.15144 -0.638686 -0.923028 -0.217048 0.317663
0.173582 -0.135029 -0.484372 -0.267691 -0.670548 -0.691887
0.219341 0.162684 -0.228421 0.287361 -0.580939 0.761534
0.238054 0.249442 -0.466357 0.706531 0.493341 -0.507375
0.170214 -0.366003 0.106964 0.509259 -0.839508 0.189424
-0.136169 0.301342 -0.274689 -0.353555 0.470393 -0.808535
0.396191 -0.359715 -0.550483 -0.208051 -0.688007 -0.695242
0.127892 -0.395972 -0.0339041 0.357717 -0.925969 -0.12091
-0.543751 0.0720895 0.161804 -0.864636 -0.259575 0.430146
0.0210194 0.39926 0.12673 -0.122621 0.898617 0.421251
0.719329 -0.159723 0.0833308 0.780267 0.375163 -0.500436
-0.560732 0.223134 0.157032 -0.51419 0.856969 -0.034819
-0.076836 -0.0381046 -0.0935694 0.681096 0.06876 0.728958
-0.334571 -0.11837 0.404141 -0.777311 -0.449068 0.440596
0.0304862 0.236382 -0.670617 -0.697175 -0.521907 0.491489
-0.405201 -0.0342556 0.335671 -0.792672 -0.411249 0.45005
0.110967 -0.0448341 0.418802 0.631594 -0.0237922 0.774934
0.480532 0.198471 -0.0741051 0.605502 0.530622 -0.593134
-0.429375 0.273474 0.222042 -0.385532 0.874793 0.293431
-0.29993 -0.553054 0.146251 -0.872144 -0.237847 0.427543
0.504406 -0.15426 -0.298638 0.85132 0.280506 -0.443363
0.309258 -0.175556 -0.482793 -0.805438 -0.366019 0.466155
0.250105 0.138492 -0.533744 0.787453 0.368941 -0.49376
0.198476 0.479836 -0.376451 0.851128 0.282957 -0.442173
-0.0195447 -0.333436 -0.250256 -0.0396214 -0.885634 -0.462691
-0.148679 0.0486369 -0.39313 -0.719295 0.132442 -0.681963
0.152784 -0.124638 0.370801 0.758717 -0.515096 0.398779
0.256021 0.277006 -0.420326 0.754993 0.43043 -0.494687
-0.125062 -0.475927 0.0160251 0.190166 -0.972757 -0.132593
0.662786 0.21239 0.246478 0.277164 0.48532 0.829244
-0.000347864 -0.0910281 -0.451842 -0.469967 -0.18917 -0.862175
-0.397275 0.126774 -0.193069 -0.660647 0.48146 -0.57597
0.250623 -0.233849 -0.392017 0.0341381 -0.790751 -0.611186
0.310578 0.256988 -0.337253 0.85679 0.212232 -0.469966
-0.114475 -0.370653 -0.210619 0.139657 -0.715984 -0.684005
-0.198008 0.171019 -0.321723 -0.63175 0.405348 -0.660746
-0.227329 -0.493064 0.000523427 0.147037 -0.911123 -0.385012
0.468479 0.321467 -0.0247978 0.904704 0.1037 -0.413228
-0.430294 0.221911 0.394811 0.00784736 0.99144 0.130324
0.221565 0.504406 -0.0229376 -0.175354 0.924433 0.338636
-0.142648 0.384431 0.0560509 -0.166553 0.985975 -0.0106081
0.10748 0.147576 -0.702547 -0.268413 -0.466633 -0.842738
-0.264038 0.121077 -0.304446 -0.689053 0.347219 -0.636117
0.537272 -0.0674157 0.118324 0.710975 -0.371781 0.596903
0.384666 0.273949 0.220514 0.398034 0.0962683 0.912306
-0.0492972 0.385715 -0.251114 -0.518477 0.76154 -0.388894
-0.498642 0.255199 0.182798 -0.345246 0.925087 -0.158174
-0.0602345 -0.182179 -0.376601 -0.265253 -0.700383 -0.66265
-0.0706032 -0.434181 -0.0808886 0.235119 -0.83108 -0.504009
0.325463 0.0913891 -0.0678947 -0.5507 0.450171 -0.702905
0.277642 -0.167696 0.260876 0.535479 -0.46384 0.705773
-0.113508 0.399144 0.00602385 -0.290076 0.954041 -0.0752459
-0.371864 -0.0777084 -0.26703 -0.477627 0.222041 -0.850041
-0.563566 -0.285335 -0.132098 -0.748614 -0.39936 0.529233
-0.318432 -0.000648152 0.528011 -0.517623 -0.747532 0.416248
0.278609 -0.132367 0.286572 0.649027 -0.349793 0.675581
-0.555779 0.181855 0.0341406 -0.720541 0.685411 -0.10503
-0.318399 -0.0365002 0.0582174 0.512828 -0.472048 0.717062
-0.498825 0.161196 0.305637 -0.63132 -0.637028 0.442301
0.619257 -0.23432 -0.144208 0.858046 0.200157 -0.472963
0.544319 0.276399 0.259156 0.292889 0.40451 0.866365
0.660498 0.0638382 0.13553 0.785611 0.375097 -0.492055
-0.183615 -0.00210425 0.55616 0.429964 0.192146 0.882162
0.217023 0.207947 -0.557916 0.725183 0.589064 -0.356528
-0.570971 0.0927448 -0.071506 -0.380437 0.494562 -0.781458
0.640123 -0.207342 0.0459036 0.287946 -0.747976 0.598013
0.302715 0.439566 -0.22654 0.939401 0.207074 -0.273213
0.336953 0.0545191 -0.25106 0.194718 0.906225 0.375289
-0.611146 -0.100707 -0.088322 -0.795213 -0.392383 0.462247
0.230604 -0.207314 0.279593 0.720175 -0.498023 0.483034
-0.071407 -0.0185771 0.510526 0.156747 0.384576 0.909688
-0.111342 -0.129274 0.539529 0.607862 -0.121812 0.784643
0.113046 0.418336 0.125243 -0.0877153 0.847233 0.523929
0.192065 -0.368099 -0.0845754 0.363932 -0.878919 -0.308311
0.123437 0.228351 -0.705233 0.886011 0.249213 -0.390997
0.296328 0.194642 -0.433371 0.938351 0.0403638 -0.343321
-0.0952204 -0.473636 0.0211539 0.226971 -0.95289 -0.20121
0.0345684 0.0956989 -0.504212 -0.457858 -0.296273 -0.838205
0.584982 0.246228 0.134381 0.853188 0.265499 -0.448977
-0.238266 -0.230499 0.500206 -0.825722 -0.327693 0.45913
-0.311111 -0.152967 -0.283832 -0.518282 0.0691149 -0.852412
-0.304518 0.322072 0.0738302 -0.373389 0.911954 -0.170059
0.308554 -0.0489471 0.290363 0.75365 -0.116258 0.646913
-0.15843 0.271685 0.327746 -0.132432 0.692558 0.709101
-0.201829 -0.310412 0.49973 -0.89654 -0.203878 0.393255
0.562014 0.242992 0.106683 0.817004 0.343069 -0.463473
-0.0101104 0.217853 -0.441918 -0.613235 0.3151 -0.72433
0.095221 0.395039 -0.398683 -0.636121 0.627421 -0.449103
0.112931 0.19132 -0.531867 -0.739865 0.098974 -0.665435
-0.245693 0.0256305 0.0622113 0.484269 -0.789196 0.377695
-0.391212 0.187443 -0.151146 -0.671326 0.594131 -0.44309
-0.189887 0.067261 0.521234 0.379461 0.419644 0.824565
0.438356 0.200895 0.220536 0.471976 -0.0242073 0.881279
-0.220196 0.357282 0.0471402 -0.374189 0.927282 0.0114551
0.644434 0.238951 0.229358 0.987131 0.0639514 -0.146568
0.131392 0.537768 -0.292704 -0.973218 -0.0375088 0.226803
-0.169897 0.369268 0.142759 -0.229652 0.944722 0.234011
-0.150837 0.386077 -0.0206088 -0.429729 0.902956 -0.00150942
-0.514458 -0.382552 -0.109364 0.139201 -0.500763 -0.854318
-0.229965 -0.276776 -0.270113 -0.0571164 -0.769314 -0.636313
0.472158 -0.266385 -0.174336 0.384138 -0.92157 0.0560895
-0.133626 0.0660322 0.115723 0.0581005 -0.998303 0.00399474
-0.309777 -0.44344 -0.101682 -0.0454641 -0.770621 -0.63567
0.0433505 0.43528 -0.269967 -0.501029 0.814324 -0.292995
0.293005 0.657798 -0.0734015 0.809423 0.354322 -0.468284
0.482987 0.0185218 -0.209528 0.85671 0.280688 -0.432739
-0.0012238 -0.0607492 -0.109485 0.181921 0.732221 0.656321
0.727628 0.0932313 0.277555 0.894881 0.207948 -0.394899
0.104733 -0.406236 0.0333038 0.380274 -0.924811 -0.0107635
-0.323759 0.00181806 0.153822 0.321001 -0.942453 0.0934897
0.0673212 0.428593 0.078724 -0.196201 0.790971 0.579543
0.258952 -0.340623 -0.0536414 0.397117 -0.895856 -0.19935
-0.285719 0.173159 0.462582 0.114728 0.732127 0.671437
-0.45887 -0.307387 0.0399842 -0.908114 -0.0771286 0.411558
-0.0872622 -0.170087 0.0297639 -0.242107 0.959423 0.14454
-0.358979 -0.0301028 0.0991977 0.481271 -0.661753 0.574858
0.424423 -0.264687 -0.255225 0.288705 -0.940053 -0.181521
-0.445215 0.0329175 -0.203984 -0.774441 0.289966 -0.562282
-0.162236 0.340088 0.211228 -0.178703 0.911717 0.369915
0.519414 0.0333619 0.177829 0.183191 -0.190269 0.964489
0.517069 0.23042 -0.000449608 0.890122 0.0994772 -0.444732
-0.137213 0.392016 -0.0675209 -0.330555 0.854118 -0.401517
0.343812 0.506816 0.0786268 -0.769292 -0.372375 0.519159
0.244141 0.433053 -0.32492 0.736982 0.48455 -0.471243
-0.303863 -0.209655 0.289924 -0.619851 0.471872 -0.626995
0.340854 -0.100227 -0.544969 0.955563 0.191966 -0.223715
0.421495 -0.193788 0.109898 0.474781 -0.653415 0.589603
-0.160254 0.320797 0.255586 -0.0847404 0.823767 0.560559
-0.481898 -0.0741706 -0.209473 -0.473799 -0.0463978 -0.87941
0.42563 -0.313391 -0.373057 -0.667882 -0.392872 0.632127
0.543101 -0.123105 -0.186326 0.972049 0.0646097 -0.225714
-0.199937 -0.206845 0.19781 -0.306554 0.839853 -0.447963
0.324489 -0.279083 0.0830078 0.471092 -0.799393 0.372885
0.261308 0.040924 0.333625 0.354586 0.142272 0.924136
0.305975 0.733015 -0.0163725 0.796677 0.36152 -0.484365
0.127949 -0.00463585 0.407752 0.327349 0.169129 0.929644
-0.607461 0.157308 0.0514121 -0.329393 0.763114 -0.55602
0.685196 0.105663 0.290581 0.391652 0.248778 0.885843
0.664728 0.0287425 0.111837 0.862047 0.261564 -0.43412
0.636427 0.104568 0.1187 0.794056 0.359482 -0.49015
0.0326232 0.274927 -0.459003 -0.612127 0.343579 -0.712218
0.126619 -0.205853 -0.414242 -0.191614 -0.621305 -0.759779
-0.115596 0.0386746 -0.0568417 0.635911 -0.528184 0.562707
0.197259 -0.351345 0.0735586 0.475686 -0.87192 0.116095
0.0472334 0.248025 -0.638912 -0.627081 -0.647652 0.4328
0.251795 0.301566 0.244021 0.339532 0.512157 0.788931
-0.0910016 -0.484287 0.180269 0.41807 -0.90599 0.066325
-0.00712595 0.421382 0.0630491 -0.221427 0.939104 0.262782
0.536261 -0.195064 -0.249466 0.542354 0.715218 -0.440812
-0.512223 -0.0416695 -0.181418 -0.670498 0.208026 -0.712149
-0.00273222 0.393059 0.159635 -0.0929096 0.972056 0.215581
0.216611 -0.250499 -0.363926 -0.0161935 -0.840913 -0.540928
0.215115 0.36842 0.184286 0.129054 0.772815 0.621372
0.150088 -0.288944 -0.304088 -4.1502e-05 -0.800263 -0.59965
0.175032 -0.0298256 0.382444 0.760761 -0.244569 0.601189
0.0777455 0.351462 -0.700879 0.763337 0.473547 -0.439397
0.0512317 0.132374 0.0053962 -0.875109 -0.268957 0.402302
-0.0577378 -0.459831 0.00516838 0.227906 -0.970221 -0.0820405
0.555792 -0.352475 -0.241321 0.55001 -0.830686 0.0863078
0.69615 -0.00212077 0.313451 0.403181 -0.101734 0.909448
0.685998 0.0199631 0.143999 0.952934 0.100503 -0.286036
0.179645 0.143731 0.345871 0.485216 0.368297 0.793046
0.104886 0.251148 0.316206 0.355844 0.563929 0.745224
0.268931 0.0797983 -0.547006 0.777407 0.377697 -0.502974
-0.0711418 -0.317072 0.456455 0.70504 -0.485762 0.516676
0.49428 -0.421048 -0.426781 0.379467 -0.91377 -0.145014
-0.0810564 0.411449 -0.13506 -0.428308 0.873496 -0.231423
0.524264 -0.295257 -0.361643 0.863929 0.265527 -0.427928
0.310697 0.144965 0.2942 0.282743 0.450735 0.846696
0.0958167 0.00423405 -0.1514 0.332125 0.529164 0.780819
-0.0702066 0.0174163 -0.0995627 0.581802 -0.143798 0.800518
-0.329246 0.249804 0.36183 -0.0938499 0.882178 0.46147
-0.291659 -0.116615 0.482195 -0.755862 -0.495561 0.427892
0.257338 0.157155 -0.262723 0.807714 -0.0822923 0.583803
-0.247868 0.263982 -0.19638 -0.545409 0.668188 -0.506017
0.451445 0.291388 0.184113 0.139174 0.376434 0.91593
-0.546844 -0.195966 -0.164229 -0.379113 -0.217242 -0.899489
-0.240091 -0.347517 -0.204559 -0.101245 -0.636355 -0.764723
-0.527325 0.237839 0.188738 -0.375699 0.923189 -0.0810663
-0.101777 -0.152108 0.160334 -0.56158 0.710875 -0.42342
-0.123831 0.0829882 0.0635327 0.121833 -0.988449 -0.090137
-0.395332 0.252927 0.308691 -0.0702391 0.977668 0.19807
-0.192702 0.103103 -0.3578 -0.566197 0.237665 -0.789263
0.194815 0.00136835 -0.00137901 -0.543559 0.45617 -0.704594
0.38102 0.0906926 0.261652 0.356647 0.203247 0.911863
-0.393866 -0.42222 0.0710659 -0.914408 0.125145 0.384964
0.0481247 -0.234446 0.409809 0.429081 -0.481974 0.763931
0.386428 0.414269 -0.0973248 0.933287 0.0384697 -0.357064
-0.27838 0.0624898 -0.313904 -0.172506 0.169642 -0.97029
-0.155869 -0.385511 0.465814 0.546831 -0.561962 0.620624
0.0899639 -0.318627 -0.272319 0.00386381 -0.779243 -0.62671
0.618478 0.0734704 0.241555 -0.855021 -0.276633 0.438649
0.0292298 0.444009 0.0501692 -0.200341 0.975592 0.089914
-0.509233 -0.215748 -0.182119 -0.46742 -0.183271 -0.864829
-0.648398 0.0570745 -0.0282948 -0.748492 -0.427414 0.507028
-0.121175 -0.465626 0.330534 0.502112 -0.779015 0.375525
-0.260555 -0.561521 0.215544 0.363194 -0.929974 -0.0569046
-0.267553 -0.236949 0.207705 -0.564119 0.81467 -0.134471
0.27273 0.115476 -0.274095 0.517646 0.00268533 0.855591
-0.373228 0.283094 -0.019544 -0.544426 0.826193 -0.14493
-0.198852 0.289661 -0.220866 -0.55367 0.671814 -0.492052
-0.490672 -0.0377652 0.178545 -0.957406 -0.0312785 0.287044
0.435391 0.0777004 -0.17394 -0.684939 0.666663 -0.29397
0.238508 0.657666 -0.179096 0.759686 0.430973 -0.48697
0.694297 0.0242514 0.183092 0.938839 0.163214 -0.303221
0.0297703 0.00098898 0.458119 0.128949 0.265234 0.955522
0.349573 0.379041 -0.201401 0.853524 0.297953 -0.427459
-0.0606889 0.345115 0.236043 -0.0739588 0.79978 0.595719
0.555511 0.23287 0.071708 0.790608 0.371628 -0.486653
0.00675115 0.0487904 0.113811 -0.158035 -0.496926 -0.853282
-0.593249 -0.138733 -0.143614 -0.419107 0.0264685 -0.907551
-0.0899503 0.391238 -0.167085 -0.688902 0.722468 0.0587658
-0.39611 0.245479 0.345406 -0.0940482 0.952934 0.288223
0.19797 0.396224 0.159599 0.145131 0.852405 0.502338
0.557228 -0.126682 0.0454021 0.573696 -0.669129 0.472376
0.322718 0.286213 -0.303242 0.90868 0.233306 -0.346221
-0.32933 -0.150344 0.384523 -0.8151 -0.339926 0.469107
0.143507 0.334884 -0.593602 0.950567 0.202787 -0.235158
-0.426867 -0.00380943 -0.223282 -0.679557 0.138667 -0.720398
0.459908 0.0194655 -0.248497 0.825811 0.324835 -0.460998
0.123423 0.494846 -0.220651 -0.240039 0.868206 -0.434281
0.00750671 0.119032 -0.474422 -0.426971 -0.0058216 -0.904246
0.34569 -0.197721 -0.6102 0.945528 0.120059 -0.302592
0.115453 0.499208 -0.0862628 -0.449689 0.842543 0.29648
-0.0137358 0.321764 -0.376483 -0.499472 0.579911 -0.643608
0.415363 0.546341 0.165497 0.216755 0.486703 0.846249
-0.461619 -0.242231 -0.19537 -0.365866 -0.286904 -0.885341
0.16036 -0.190851 -0.424664 -0.230855 -0.656862 -0.7178
-0.528556 -0.257691 -0.160306 -0.437974 -0.387711 -0.811085
0.0341204 0.0562003 0.441104 0.288145 0.228706 0.929874
-0.222508 -0.0678185 -0.0146895 0.549271 0.0173565 0.835464
-0.263729 -0.452633 0.281892 -0.916967 -0.18997 0.350833
-0.21816 0.0296655 0.558472 0.304791 0.39788 0.865329
0.625155 0.211558 0.193707 0.852639 0.286616 -0.436874
0.347638 0.063106 -0.403999 0.789484 0.373095 -0.487356
0.43192 -0.143564 -0.424411 0.798979 0.382855 -0.463739
-0.0115182 -0.194077 -0.379354 -0.297374 -0.390274 -0.871352
0.119447 0.0732805 0.386219 0.405844 0.229062 0.884772
0.285948 -0.0819874 -0.641363 -0.307032 -0.50717 -0.805301
0.0702325 -0.41043 0.0270214 0.441685 -0.886933 -0.135144
-0.446437 0.114852 0.364378 -0.555408 -0.721035 0.414282
0.226732 -0.125298 -0.488918 -0.233285 -0.38542 -0.892765
0.573729 -0.192143 -0.0202083 -0.849561 -0.195034 0.490111
0.139635 -0.164769 0.372623 0.684584 -0.367721 0.629385
0.495951 0.367271 0.0542693 0.901373 0.229565 -0.367189
0.714218 -0.0497361 0.141706 0.882864 -0.186542 -0.43099
-0.0886104 0.244362 0.359058 0.0867125 0.748098 0.657898
-0.0011373 -0.127912 0.00747836 -0.103933 0.992025 -0.0713005
0.590448 -0.286812 -0.236825 0.926039 0.171227 -0.336352
-0.142168 -0.492836 0.296481 0.380849 -0.857671 0.345478
-0.016037 0.0299996 0.132577 -0.173521 -0.487081 -0.855946
-0.351642 -0.53167 0.0768793 -0.911898 -0.176834 0.370368
0.161923 -0.227678 0.32787 0.546007 -0.427664 0.720403
0.647304 -0.0840999 0.199005 -0.831144 -0.307047 0.463596
0.423195 0.34329 -0.0637593 0.841874 0.287507 -0.456715
-0.0283587 -0.423528 0.285455 0.523927 -0.788324 0.322563
0.464633 -0.0307413 -0.278831 0.955257 -0.0899037 -0.281784
0.470857 -0.369022 -0.335644 -0.856322 -0.266269 0.442509
-0.160943 0.0345679 0.529235 0.323701 0.231206 0.917476
0.315678 0.228929 -0.257601 0.558383 -0.82247 0.108407
0.677313 -0.121485 0.227215 -0.908009 -0.243281 0.341077
-0.215936 0.352919 0.0925588 -0.16509 0.985067 -0.0488797
0.474907 -0.164252 -0.349995 0.902485 0.129627 -0.410753
-0.207944 -0.216973 0.153684 -0.452551 0.889493 -0.0632463
-0.137495 -0.226103 0.548505 0.344351 -0.22376 0.911786
0.630995 -0.192374 -0.115675 0.810414 0.333598 -0.481603
0.166657 -0.279692 0.271331 0.347655 -0.417215 0.839683
0.124134 0.497313 -0.18007 -0.418365 0.908076 0.0192014
0.106698 0.150527 -0.541461 -0.464825 0.0397379 -0.88451
0.163505 0.0506594 0.0275655 -0.510535 -0.0162359 -0.859704
-0.282585 0.0903836 0.535384 0.137138 0.440096 0.887417
0.675789 -0.208198 0.0059952 0.437962 -0.848911 0.295872
0.162738 0.0412904 -0.55896 -0.618801 -0.205492 -0.758194
-0.422186 -0.165291 -0.237081 -0.327465 -0.0598204 -0.942968
-0.250078 0.346541 -0.0516199 -0.435615 0.865069 -0.248789
-0.0394998 -0.102139 -0.415041 -0.57721 -0.42443 -0.69763
0.000435742 -0.42894 0.240102 0.486155 -0.804314 0.34166
-0.357997 -0.373915 0.17268 -0.90477 -0.237111 0.353793
0.732957 -0.0752291 0.258437 0.774355 -0.404945 0.486202
0.298338 -0.242625 0.180144 0.606337 -0.618056 0.500362
0.194162 -0.235335 0.287028 0.55083 -0.525349 0.648532
0.413651 -0.116979 0.187649 0.700037 -0.417993 0.57899
-0.215584 -0.326048 0.457095 -0.643883 -0.629444 0.434988
-0.349363 -0.333066 0.227276 -0.947168 -0.0133736 0.320458
0.258544 0.665231 0.0254764 -0.825919 -0.327379 0.458999
-0.114612 0.388124 0.0907483 -0.282955 0.846385 0.451187
0.387143 0.0543899 -0.143336 -0.504749 0.720909 -0.474888
-0.119896 -0.06044 -0.0677062 0.406584 0.312037 0.858675
0.475388 0.237772 -0.0729909 0.748252 0.349912 -0.563631
0.0129505 -0.395169 0.274628 0.797105 -0.521805 0.303881
-0.14156 -0.141052 -0.0160146 0.0196643 0.775509 0.63103
0.307403 0.052673 -0.0746468 -0.602344 0.528465 -0.598253
0.125964 0.216387 0.334396 0.263996 0.400813 0.8773
0.206797 -0.213584 -0.407407 -0.119065 -0.822325 -0.556421
0.0335842 -0.109286 -0.0477741 -0.182689 0.894539 0.407953
0.305208 -0.321209 -0.164659 0.286723 -0.955693 -0.066638
0.354301 0.262305 0.23577 0.430772 0.741154 0.514904
0.250571 0.538642 -0.258103 0.919532 0.0751364 -0.385765
0.364918 0.0220923 -0.417306 0.431206 0.521047 -0.736594
0.0790207 0.113533 -0.670057 -0.705775 -0.501817 0.50006
0.0315324 -0.370291 0.299501 0.52032 -0.711382 0.472444
0.247523 -0.161654 -0.464823 -0.137051 -0.807165 -0.574196
-0.437893 0.233106 -0.0269891 -0.525822 0.763295 -0.375356
-0.503722 0.244996 0.109329 -0.721524 0.689524 0.0629226
0.209196 0.101722 0.000301094 -0.622539 0.00293396 -0.782583
0.322388 0.404552 -0.21888 0.813213 0.34751 -0.466821
0.158482 0.432886 -0.492156 0.756195 0.434274 -0.489464
-0.270305 0.325479 0.189376 -0.410749 0.836289 0.36319
0.249231 -0.134895 -0.566627 -0.817336 -0.350302 0.457438
0.136207 0.0276864 -0.541869 -0.606126 -0.105482 -0.788343
-0.349755 -0.236471 0.0973238 0.102495 0.71373 0.692881
-0.0378613 0.40316 0.0989775 -0.166377 0.985626 0.029333
-0.265668 -0.319321 0.38507 -0.846538 -0.250181 0.469875
0.375466 0.350638 0.176761 0.303549 0.74754 0.590798
-0.313324 0.198805 0.431106 -0.0499693 0.583805 0.810355
0.218699 -0.338896 0.113226 0.584658 -0.779216 0.225827
0.552599 -0.0819089 -0.16847 0.676421 0.537773 -0.503244
0.103724 -0.403034 0.133228 0.498974 -0.860165 0.105554
-0.316489 0.308231 -0.0186764 -0.319024 0.786169 -0.529304
0.676597 0.0612363 0.169284 0.824824 0.322557 -0.464351
0.153841 0.333021 0.233048 0.336478 0.643557 0.687472
-0.30851 -0.384116 -0.167718 -0.145474 -0.776272 -0.613384
-0.201991 0.246967 -0.276656 -0.485831 0.57074 -0.661985
0.585912 0.189753 0.0765301 0.834086 0.316997 -0.451456
0.319835 0.741475 0.0364553 0.0786955 0.992408 0.0945155
-0.488313 -0.316103 -0.153612 -0.188293 -0.795517 -0.575933
0.16179 0.606028 -0.296143 -0.782692 0.618971 0.0653323
-0.475008 -0.274711 -0.183292 -0.147643 -0.415814 -0.897385
0.286151 -0.192446 -0.450065 -0.0773493 -0.72026 -0.689379
-0.00565045 -0.109194 -0.0558407 -0.0650143 0.862463 0.501927
0.172407 0.499869 -0.0366725 -0.193641 0.953957 0.229063
0.0542698 -0.103815 0.0335396 -0.425839 0.863793 -0.2693
0.355374 0.139497 -0.352086 0.671703 0.468193 -0.574117
-0.38095 0.29264 0.0536691 -0.473001 0.881055 -0.00355747
-0.384414 -0.371299 -0.154236 -0.315609 -0.721299 -0.616538
-0.400475 0.0681196 -0.215952 -0.53925 0.307365 -0.784051
0.051548 0.129844 -0.0341403 0.405903 -0.812407 -0.418615
-0.0614268 -0.2587 0.480614 0.525873 -0.313941 0.790506
-0.279442 0.00416316 0.0786254 0.380562 -0.718911 0.58167
-0.0852519 -0.41879 0.367343 0.344668 -0.772621 0.533161
0.334274 0.0921073 -0.437287 0.84264 0.282875 -0.458191
0.227261 0.524249 -0.0867301 -0.131848 0.981155 0.141247
0.334969 0.1668 -0.36928 0.859068 0.252633 -0.445173
0.0306322 0.352255 0.222104 0.0487411 0.890309 0.45274
-0.232629 -0.530758 0.121917 0.390574 -0.866577 -0.31064
0.100622 0.462948 -0.297234 -0.648643 0.748567 -0.137511
0.162316 0.560818 -0.402402 0.804083 0.357682 -0.474884
-0.0392611 -0.121463 0.12818 -0.464999 0.656918 -0.593494
0.313669 0.212214 -0.1189 0.0515416 -0.666144 -0.74404
-0.283759 0.251571 -0.171203 -0.474722 0.537802 -0.696712
0.322683 -0.0623607 -0.550869 0.863944 0.262622 -0.429686
-0.620045 -0.0471763 -0.104323 -0.672646 0.332589 -0.661008
-0.0487764 0.212843 -0.424135 -0.417798 0.330647 -0.846237
0.0206175 0.231137 0.351779 0.180698 0.57636 0.796968
0.355474 0.683693 0.0460872 0.725733 0.477252 -0.495522
0.167355 0.17321 -0.0814592 0.417243 -0.857588 -0.300752
0.412265 0.610028 0.12132 0.297243 0.605884 0.737938
-0.121731 -0.223669 -0.320905 -0.178658 -0.478946 -0.859472
0.247695 0.212201 -0.132242 0.309149 -0.906465 -0.287661
-0.165425 -0.164932 0.215199 -0.596091 0.552482 -0.582614
0.185145 -0.0319774 -0.0448063 -0.424698 0.848599 -0.315455
-0.0678076 0.264929 0.330099 0.0729577 0.762168 0.643255
-0.400791 0.250593 -0.0245721 -0.493708 0.786363 -0.371329
-0.220323 -0.537315 0.17349 0.331391 -0.908379 -0.255005
-0.459058 0.150593 -0.112172 -0.665954 0.65005 -0.365979
0.296122 0.191341 -0.274034 0.58373 -0.486952 0.649721
0.174966 0.143767 -0.669099 0.825743 0.327582 -0.459171
0.713515 -0.109647 0.23374 0.614265 -0.712023 0.34015
0.648166 -0.121287 0.157374 -0.845223 -0.311235 0.434432
0.620542 -0.0995715 0.130441 -0.77238 -0.445349 0.452873
-0.493817 -0.113666 -0.199034 -0.613327 -0.046924 -0.788434
-0.290984 -0.188769 0.437889 -0.875516 -0.0447684 0.48111
0.604226 0.28983 0.235382 0.239728 -0.0231396 0.970564
0.589694 0.0538306 0.186794 -0.8359 -0.274333 0.475407
-0.368174 0.298785 0.151805 -0.211122 0.956448 -0.20158
-0.0448353 -0.460533 0.202393 0.253236 -0.866239 0.430699
-0.477294 0.208697 0.402874 -0.690995 -0.521985 0.500058
0.063907 0.172161 -0.714844 -0.176718 -0.450019 -0.875359
0.397657 0.308865 0.191133 0.287178 0.594964 0.750697
-0.207204 0.367076 0.00109637 -0.391121 0.914307 -0.1052
-0.00303135 0.0833367 0.444302 0.348518 0.332769 0.876242
0.384536 -0.249768 -0.331247 0.0368534 -0.96721 -0.25129
-0.22653 -0.153902 0.014881 0.197266 0.547617 0.813143
-0.263406 -0.0970898 -0.00542184 0.462311 0.0773673 0.883336
-0.253953 -0.427052 0.332879 -0.763492 -0.392635 0.512754
0.481018 0.266941 -0.0192342 0.755495 0.437746 -0.487448
-0.281786 -0.309972 -0.224409 -0.238902 -0.547488 -0.801987
-0.443809 -0.0124131 0.28941 -0.83988 -0.294246 0.456094
0.400387 0.508895 0.174918 -0.763983 -0.423008 0.48723
0.628232 -0.00157782 0.236072 -0.951741 -0.0672503 0.299443
-0.396963 -0.30609 -0.185866 -0.237652 -0.572423 -0.784763
-0.0846315 -0.455911 -0.039969 0.436777 -0.797051 -0.417057
0.0283919 0.396212 -0.55884 -0.744217 -0.455451 0.488575
-0.11528 -0.0198865 -0.0797297 0.465669 -0.0182341 0.884771
0.746868 -0.0352359 0.274968 0.575233 -0.405672 0.710308
0.439108 -0.261132 -0.0878119 0.317117 -0.91267 0.257817
0.463514 -0.284708 -0.458278 0.729357 0.564205 -0.386924
0.152272 -0.0913844 -0.494145 -0.175058 -0.227359 -0.957947
0.23807 0.327029 -0.417366 0.669841 0.559175 -0.488504
-0.435081 -0.339218 0.0714871 -0.73235 -0.403773 0.548298
-0.174467 -0.187112 -0.334977 -0.485658 -0.432472 -0.759674
0.508671 -0.38651 -0.266061 0.399326 -0.852713 0.336777
-0.301785 -0.478862 0.213841 -0.936054 -0.263568 0.233101
0.15724 0.511722 -0.151276 -0.364503 0.922713 0.125451
-0.521714 0.022063 0.183138 -0.838971 -0.274783 0.469705
-0.482322 -0.158521 0.121024 -0.790787 -0.360278 0.494829
-0.343131 -0.130442 -0.27635 -0.523173 -0.32186 -0.789111
-0.231838 -0.522034 0.0842298 0.230564 -0.903365 -0.361624
0.291939 0.667122 0.103775 -0.92035 -0.245081 0.304779
0.182235 0.187659 0.338848 0.380744 0.348742 0.856395
0.0427625 0.193885 -0.491363 -0.378405 0.0905712 -0.921198
0.48547 0.114804 0.199782 0.498483 -0.0379251 0.86607
0.169109 0.6248 -0.244806 -0.636301 0.752231 0.171082
0.301087 0.491019 -0.204068 0.894933 0.246395 -0.372
0.17867 0.475799 0.0369419 -0.189435 0.813498 0.54985
0.0149816 -0.349061 -0.234804 0.0911318 -0.921944 -0.37645
-0.30779 -0.143875 0.0368298 0.386976 0.321996 0.864042
0.566982 0.153088 0.216661 -0.752685 -0.34369 0.561553
0.52013 0.255574 0.0354863 0.912135 0.184452 -0.366043
0.336356 -0.145318 -0.590135 0.77914 0.359174 -0.513747
0.545555 -0.0298206 -0.135165 0.881065 -0.0159549 -0.472726
0.651262 0.0734518 0.31488 0.354745 0.387783 0.850753
0.0826867 -0.379883 0.233297 0.72258 -0.690018 0.0418805
0.443867 0.573708 0.116376 0.811375 0.395617 -0.430301
0.228503 0.196836 -0.0853756 0.0946822 -0.879882 -0.465665
0.548558 0.0151196 -0.101352 0.926436 0.173552 -0.334061
-0.101904 -0.289539 0.497879 0.787563 -0.333726 0.518046
0.276734 0.412758 0.140367 -0.30215 0.771105 0.560449
0.178418 -0.346327 -0.180921 0.125879 -0.859026 -0.496214
0.230553 0.639786 -0.222094 0.842701 0.29381 -0.451143
-0.460546 -0.144293 -0.219131 -0.476434 -0.0780348 -0.875741
0.306805 -0.265782 0.138624 0.580519 -0.768301 0.269649
0.486467 -0.0634934 -0.269604 0.780075 0.384284 -0.49377
0.20076 -0.15188 -0.463879 -0.298287 -0.340831 -0.891549
-0.453784 0.0303188 0.268702 -0.81035 -0.358791 0.463252
-0.293775 -0.480795 -0.0350631 -0.214761 -0.851962 -0.477535
-0.422126 0.0675459 0.374282 -0.894113 -0.157992 0.419048
0.384126 0.611251 0.0438468 0.8272 0.329791 -0.454949
-0.283256 -0.13307 -0.308125 -0.227811 -0.415423 -0.880639
0.114129 0.131764 -0.0117088 -0.00869152 -0.85095 -0.525174
0.581749 -0.171351 -0.183912 0.861264 0.243661 -0.445929
-0.281064 -0.0324763 0.022448 0.816655 -0.326677 0.47577
0.240252 0.0481176 -0.619196 0.832137 0.315358 -0.456177
-0.141854 0.048413 0.149715 0.0396387 -0.843685 -0.535373
0.18537 0.303409 0.257662 0.0718967 0.517734 0.852515
0.649106 -0.263787 -0.126823 0.742198 0.449706 -0.496898
-0.315285 -0.00356533 0.196945 0.159762 -0.944686 -0.286434
0.00739081 0.41633 -0.588693 -0.655004 -0.572177 0.493542
0.225751 -0.274762 -0.340979 0.0499193 -0.588872 -0.806684
-0.366197 -0.426303 -0.112129 -0.144704 -0.808128 -0.570955
0.618364 -0.0425015 0.179591 -0.730023 -0.583523 0.355764
-0.436637 -0.059538 0.164802 0.509805 -0.789235 0.342355
-0.328292 0.292329 0.23616 -0.2607 0.957586 0.122735
0.280067 0.167361 -0.472741 0.864371 0.220658 -0.451854
0.172455 -0.377251 0.045419 0.567616 -0.821264 -0.0577699
-0.273824 0.187101 -0.26003 -0.612244 0.517182 -0.598064
-0.558131 0.202225 0.233204 -0.881574 -0.250298 0.400223
0.358766 0.315468 0.194051 0.163622 0.622743 0.765126
-0.176753 -0.0271235 0.22171 -0.37214 -0.184792 -0.909595
-0.440751 -0.299869 0.0701408 -0.804322 -0.352759 0.47815
0.350075 0.00764184 -0.457995 0.832153 0.246426 -0.496786
0.587454 -0.23524 -0.222167 0.731228 0.457628 -0.505849
-0.353472 -0.0196913 -0.278989 -0.575812 0.162376 -0.801295
-0.497469 -0.297148 -0.005582 -0.936831 -0.0892469 0.338206
-0.519708 -0.296614 -0.14397 -0.367489 -0.287669 -0.88442
-0.0295978 -0.400624 -0.149674 -0.0170092 -0.680896 -0.732183
0.284168 -0.164051 -0.529558 -0.755203 -0.406329 0.514358
0.596293 -0.0399863 -0.0431144 0.848275 0.267041 -0.457295
-0.116079 0.2289 0.386681 0.514867 0.401928 0.757209
0.562638 0.290661 0.136552 0.875787 0.275107 -0.396628
-0.263281 0.144797 0.483107 0.115987 0.756144 0.644044
0.268186 0.457591 -0.290899 0.702816 0.505366 -0.500655
-0.309417 -0.425525 0.215392 -0.760386 -0.385303 0.522833
-0.525599 0.239786 0.231139 -0.370414 0.92299 0.10432
-0.168023 -0.381091 0.508525 0.434526 -0.54773 0.714968
-0.114016 -0.492041 0.260689 0.571576 -0.812157 0.117055
0.374603 0.513071 0.119178 -0.579423 -0.649364 0.49254
0.105648 0.265148 -0.515668 -0.465001 0.250666 -0.849082
-0.481002 0.242026 0.0458285 -0.382725 0.852842 -0.35522
0.247076 0.208641 -0.194088 0.351607 -0.830094 0.432801
-0.315897 -0.179775 0.0570032 0.211611 0.491899 0.844545
0.257879 -0.0867331 0.322217 0.698967 -0.370777 0.611531
0.508484 0.436403 0.144721 0.868589 0.115868 -0.481796
-0.168463 0.0224675 0.176523 -0.099119 -0.601841 -0.792441
0.00654849 0.40163 -0.635551 -0.797142 0.583359 -0.155745
0.117807 0.269493 -0.680921 0.913522 0.0946031 -0.395636
-0.20612 -0.0623825 -0.355897 -0.518443 -0.239753 -0.820814
-0.105624 -0.274499 -0.294211 -0.242133 -0.532939 -0.81077
0.393435 0.544215 0.0195649 0.947211 0.168763 -0.272599
0.193378 -0.192927 0.311922 0.64769 -0.45539 0.610833
0.142945 0.367778 -0.567751 0.803962 0.381634 -0.456071
-0.341852 0.0176385 0.502213 -0.75687 -0.38136 0.530766
-0.119728 0.249327 -0.334432 -0.469022 0.476825 -0.743409
0.421628 -0.241565 0.0300815 0.412033 -0.777918 0.474418
0.00332314 -0.133239 0.039947 -0.43807 0.893901 -0.0950579
0.25803 0.590209 -0.0133725 -0.645707 -0.544668 0.535163
-0.313802 -0.0249492 0.250071 -0.0913837 -0.982335 -0.1633
0.193878 0.0022283 0.374089 0.549823 0.0191666 0.835061
-0.215715 -0.197992 0.539126 -0.84753 -0.307497 0.432596
-0.296631 0.0102733 0.111767 0.545285 -0.824114 -0.1533
0.692691 -0.176205 0.0324368 0.859474 0.250573 -0.445553
-0.342914 -0.0660491 0.0490102 0.731389 -0.450839 0.511678
-0.385523 -0.137577 0.0758089 0.455711 0.0869923 0.885867
-0.295788 -0.322494 0.32026 -0.752547 -0.441965 0.488201
0.0264029 -0.0994356 -0.090708 -0.108512 0.919938 0.376748
-0.320215 0.260038 -0.136769 -0.496601 0.720238 -0.484402
-0.0560533 -0.164588 0.506764 0.572947 -0.42505 0.70076
0.201605 -0.123581 0.335057 0.745584 -0.0239172 0.665983
0.591484 -0.331344 -0.221525 0.665437 -0.745684 -0.0338949
0.729658 0.0510414 0.255731 0.843724 0.320354 -0.4307
0.40263 0.126382 0.248051 0.612432 0.0114054 0.790441
0.131249 0.11678 -0.69033 -0.226511 -0.184399 -0.956394
0.0337397 0.356705 -0.387924 -0.596789 0.585489 -0.548676
0.497089 0.0818049 -0.129863 0.872678 0.178383 -0.454546
0.586167 -0.12804 -0.141488 0.944941 0.21251 -0.248849
0.124349 -0.141374 0.399186 0.477435 -0.13775 0.867802
-0.159266 -0.146888 0.567219 0.44425 0.144661 0.884147
-0.491334 0.00973498 0.213308 -0.812188 -0.362773 0.456887
0.262 0.0924614 0.321663 0.58082 0.115361 0.805816
-0.165311 -0.325039 -0.250948 -0.24419 -0.740847 -0.625713
-0.12636 -0.450326 -0.0786974 0.0476666 -0.835625 -0.547228
0.489589 0.13961 -0.106084 0.656637 0.551765 -0.514182
-0.155032 0.184221 0.429376 0.130307 0.668061 0.732608
0.142636 0.493018 -0.28017 -0.535239 0.821182 -0.197937
-0.479696 0.169495 -0.0788718 -0.497394 0.526559 -0.689445
0.110116 0.118429 0.384822 0.446188 0.080889 0.891276
0.105619 -0.00950847 0.0814037 -0.29921 0.0306704 -0.953694
0.130424 0.466884 0.0210528 -0.140509 0.978611 0.150258
-0.21808 -0.471589 0.358345 -0.723977 -0.522648 0.450218
0.41629 0.578674 0.064985 0.801005 0.355108 -0.481964
0.441329 0.162399 0.224552 0.417773 0.534534 0.734669
-0.21035 0.215336 0.41739 -0.0262619 0.747734 0.663479
-0.0806553 -0.337017 -0.237244 -0.0872161 -0.880084 -0.46674
-0.466277 0.256526 0.223992 -0.2982 0.931122 -0.209972
0.149317 -0.37923 -0.00162847 0.370543 -0.928815 0.000321389
-0.321257 -0.192489 0.353867 -0.738836 -0.535576 0.408998
0.264787 -0.107281 -0.509307 -0.197643 -0.569083 -0.798174
-0.550016 -0.0278122 -0.151219 -0.660351 0.402269 -0.634126
0.181423 0.575604 -0.163013 -0.821227 -0.334545 0.46224
0.155721 0.407847 -0.518669 0.766723 0.422813 -0.483078
-0.249912 -0.539286 0.252359 -0.714859 -0.405038 0.570019
-0.471203 -0.273097 0.0391247 -0.885208 -0.291934 0.362188
0.111804 -0.0615835 0.0413958 -0.671641 0.587287 -0.451655
-0.251096 -0.50496 0.279503 -0.776943 -0.452083 0.438156
0.489833 0.507177 0.15186 0.939916 -0.0188272 -0.340885
0.402773 -0.1695 -0.494107 0.689966 0.643816 -0.330829
-0.26192 -0.0700976 0.55966 -0.673371 -0.519891 0.525627
-0.400805 -0.172888 0.0825726 0.566955 0.239717 0.788098
0.681617 0.100253 0.204175 0.822438 0.332227 -0.461759
-0.454951 -0.207216 0.112848 -0.719684 -0.428278 0.546472
-0.627082 -0.0233381 -0.0424187 -0.695718 -0.533589 0.480894
0.668718 -0.11313 0.0371323 0.698445 0.633834 -0.332308
0.126583 0.43119 -0.564758 0.655372 0.426006 -0.623704
0.253098 0.635126 0.00814334 -0.83315 0.204646 0.513791
-0.625209 -0.0623005 -0.0704563 -0.850986 -0.264197 0.453898
0.596583 0.176469 0.290472 -0.652859 -0.552381 0.518314
0.119727 -0.383083 -0.125995 0.094892 -0.986631 -0.132494
-0.525769 -0.355966 -0.120742 -0.5098 -0.276678 -0.814588
0.0970644 0.448565 0.0617064 -0.133884 0.768161 0.626102
0.117026 -0.327154 0.261543 0.341415 -0.432541 0.834472
-0.0231678 0.375015 -0.298016 -0.661848 0.672059 -0.332105
-0.329595 0.293838 -0.0470203 -0.218375 0.881004 -0.419695
0.189575 0.686345 -0.0686234 -0.298721 0.878863 -0.371975
-0.303503 -0.045618 -0.303109 -0.511407 0.0511308 -0.857816
-0.177606 -0.072666 0.245445 -0.405496 0.0448738 -0.912995
0.351502 -0.340009 -0.536805 -0.22667 -0.54992 -0.803871
0.16481 0.520111 -0.242835 -0.856103 -0.298265 0.422049
-0.239545 0.251872 0.362991 -0.00316347 0.823424 0.567417
0.482527 -0.125149 -0.3178 0.850479 0.233666 -0.471259
-0.356632 -0.110745 0.357912 -0.79064 -0.379263 0.480674
0.0139872 0.167871 0.398984 0.277996 0.269639 0.921961
0.120124 0.365924 -0.610766 0.838579 0.26701 -0.474859
-0.162406 0.0138294 -0.382653 -0.460519 0.101843 -0.881788
-0.481673 0.220873 -0.00948882 -0.615814 0.724471 -0.309701
0.240814 -0.265915 0.201629 0.451309 -0.717162 0.531036
0.406095 -0.14066 -0.467481 0.787192 0.397842 -0.471221
-0.513529 -0.0528638 0.124137 -0.839299 -0.309765 0.446792
0.228136 0.357093 -0.434084 0.884828 0.0435799 -0.463874
0.0734523 -0.057519 -0.100577 -0.884238 -0.122291 0.450741
0.66454 -0.162994 0.14563 0.485536 -0.836619 0.25362
0.335738 0.356541 -0.236622 0.837388 0.313691 -0.447637
0.345583 0.467333 -0.123745 0.728245 0.473744 -0.495202
0.611877 0.11686 0.0847998 0.806274 0.333636 -0.488477
0.236051 0.727326 -0.0267555 -0.451381 0.882576 0.131589
0.535885 -0.354461 -0.371986 0.74389 0.479312 -0.465713
0.0903469 -0.289912 0.339345 0.3749 -0.498706 0.7815
-0.0187491 0.444531 -0.053962 -0.396321 0.903138 0.165143
-0.384193 -0.344025 0.153142 -0.891179 -0.090952 0.444442
0.272117 -0.0449392 0.316127 0.562976 -0.119058 0.817853
-0.147864 -0.351704 -0.220556 0.0946034 -0.469534 -0.877832
-0.0232927 -0.230792 -0.357407 -0.192383 -0.868782 -0.456296
0.428026 -0.435444 -0.441097 -0.776775 -0.373916 0.506762
0.184942 0.479971 0.00304552 -0.0926047 0.981164 0.169532
0.389875 0.282088 -0.183986 0.891584 0.0737983 -0.446802
-0.177326 -0.471111 0.387474 0.486625 -0.769112 0.414322
0.140026 0.139983 0.375111 0.699454 0.0611287 0.712059
-0.0567902 -0.151014 0.0231655 -0.212986 0.966505 0.143196
0.165868 0.158379 -0.0425421 -0.11279 -0.89917 -0.422814
0.340762 0.0851781 -0.29355 0.223549 0.550434 0.804393
0.276296 -0.339283 -0.0875922 0.266596 -0.96356 -0.0218995
-0.063408 0.317659 0.275253 -0.0728987 0.722914 0.687082
-0.0989836 0.39673 0.0605285 -0.240926 0.95944 0.146388
0.451354 -0.262554 -0.124737 0.289989 -0.933986 0.20875
0.0142041 0.349798 -0.611779 -0.873495 -0.113701 0.473369
0.260834 0.176008 -0.0679114 -0.120516 -0.589654 -0.798614
-0.46367 -0.0109492 0.248737 -0.821618 -0.333284 0.462456
-0.212154 -0.449716 -0.0860177 0.00359977 -0.596668 -0.80248
0.709102 -0.0154536 0.164506 0.752494 0.381384 -0.536935
0.327649 0.695399 0.109376 0.00338656 0.781529 0.62386
0.254435 -0.0074822 -0.0955737 -0.569314 0.819462 -0.0660515
-0.457503 -0.0541896 0.212456 0.511305 -0.857568 0.056075
-0.198223 0.361155 -0.0949353 -0.465389 0.857566 -0.219076
0.325607 0.0471663 0.293067 0.422592 0.0383365 0.905509
0.692535 -0.101871 0.0738266 0.850929 0.12446 -0.510323
0.432104 -0.304965 -0.532991 0.839923 0.310243 -0.445286
0.0551798 0.199996 0.362885 0.264258 0.562745 0.783253
0.0628316 0.479569 -0.520346 -0.667685 0.738149 0.0966098
0.0277979 0.22766 -0.468922 -0.760649 0.448241 -0.469567
-0.52207 0.0981667 0.229176 -0.688865 -0.557535 0.463272
0.465603 -0.332957 -0.312173 -0.832399 -0.317806 0.453994
0.534067 -0.343869 -0.201373 -0.733975 -0.515545 0.442146
0.265876 0.364367 -0.34258 0.786425 0.446377 -0.426946
0.312478 0.378617 0.163964 -0.0363633 0.803508 0.594182
0.156477 0.0275426 -0.604536 -0.719869 -0.515358 0.464967
0.114236 0.0966441 -0.621925 -0.736652 -0.458162 0.497425
-0.281845 -0.552799 0.118107 0.185374 -0.974036 -0.129964
0.182165 0.656563 -0.130943 -0.443344 0.85499 -0.269142
0.0687204 -0.403279 0.181523 0.46633 -0.817486 0.338013
-0.483901 0.0340715 0.244631 -0.832948 -0.318057 0.45281
-0.233416 0.302384 -0.157623 -0.439045 0.79997 -0.409008
-0.083229 0.0535805 -0.432052 -0.699333 0.131537 -0.702589
0.232523 0.725319 0.0216583 -0.914372 -0.189389 0.357848
-0.191054 -0.506619 0.318357 0.445759 -0.852221 0.273895
0.571917 0.325438 0.157374 0.949922 0.164578 -0.265637
0.0419157 -0.119091 -0.447744 -0.29146 -0.447566 -0.84542
-0.249212 -0.138101 0.529682 -0.825798 -0.32876 0.458229
-0.470183 -0.227844 0.0749637 -0.834879 -0.148181 0.530112
-0.312795 0.317589 0.0346386 -0.46597 0.882633 -0.0618937
0.374513 0.536524 0.156292 -0.985146 0.00690466 0.171583
-0.364213 -0.406995 0.139083 -0.868081 -0.0416325 0.494673
-0.275682 -0.398226 -0.156251 -0.190474 -0.485207 -0.853401
0.526547 -0.0470053 -0.188543 0.663498 0.457292 -0.592161
-0.609286 0.182868 0.127849 -0.533359 0.838293 -0.113108
0.244185 0.174171 0.317169 0.355695 0.33015 0.874347
-0.396167 -0.0955654 0.0809008 0.595043 -0.31872 0.737795
0.622384 0.079302 0.0845734 0.833545 0.306651 -0.459531
-0.275539 -0.502131 0.228729 -0.799453 -0.355605 0.484169
0.0415728 0.331618 0.249085 0.0499318 0.840905 0.538875
0.0790764 0.298448 -0.736573 0.939574 0.194664 -0.281614
-0.568876 -0.184817 -0.0638137 -0.655421 -0.449187 0.60717
0.12776 -0.29169 0.301585 0.596232 -0.594039 0.540023
0.547636 0.0580496 0.154326 0.693793 -0.20582 0.690137
-0.165713 -0.0136822 -0.0513726 0.386504 -0.158902 0.908496
0.313798 -0.149524 0.245825 0.115908 -0.411779 0.903883
-0.562718 -0.253476 -0.0843179 -0.559684 -0.538529 0.629874
0.180897 0.349291 -0.508636 0.812595 0.362574 -0.456322
0.650474 -0.0764249 0.0322004 0.779474 0.411918 -0.471957
-0.154596 -0.448825 0.413593 0.550977 -0.70899 0.440179
0.59015 0.0977519 0.0327786 0.702264 0.54006 -0.463855
0.397141 -0.265428 -0.392397 -0.9361 -0.148633 0.318786
-0.392285 -0.0376453 0.130453 0.512615 -0.734318 0.444975
-0.204814 -0.529872 0.231641 0.660999 -0.70631 -0.253389
-0.352214 -0.0318603 0.247881 0.0113192 -0.975515 -0.219642
-0.291553 -0.537146 0.0780347 0.342993 -0.803767 -0.486121
-0.22105 -0.371838 0.417369 -0.830608 -0.316991 0.457828
-0.162598 -0.471484 -0.0632305 -0.0601938 -0.990316 -0.1251
