ply
format ascii 1.0
comment Created by Open3D
element vertex 824
property double x
property double y
property double z
property double nx
property double ny
property double nz
end_header
-0.0721426 -0.171481 0.189437 0.560726 0.21993 0.798259
-0.118921 0.00940628 0.114885 0.67951 0.160059 -0.715994
-0.0529611 -0.400223 0.0648535 0.459211 0.764599 -0.452232
0.0346628 0.453992 0.0374236 0.181871 0.981862 0.0535636
-0.289863 -0.0587436 0.290995 -0.809551 -0.0400788 -0.58568
-0.176927 -0.194707 0.293335 0.724774 -0.0822088 0.684065
0.135679 -0.342584 -0.0441163 0.355667 -0.102241 0.929004
-0.0830232 -0.459975 0.180598 -0.261453 -0.932958 0.247453
-0.109143 0.20815 0.0128389 -0.325076 0.792506 0.516003
0.370316 -0.0485215 -0.310075 0.187301 0.0680409 -0.979943
0.0286941 -0.360767 0.0403901 -0.57488 0.562776 0.593966
-0.225483 -0.386449 0.226389 0.676636 -0.0882279 0.731013
-0.0384736 -0.407475 0.0268437 -0.802216 0.103822 -0.587938
0.17257 0.0479347 -0.052316 0.69392 -0.153338 0.703536
0.399334 0.134586 -0.281797 0.641985 0.317266 -0.697995
-0.126587 0.141615 0.14185 -0.659694 0.000492189 -0.751534
-0.0182904 -0.173163 -0.112121 -0.804202 0.0364863 -0.593234
-0.183195 -0.325088 0.295652 0.687105 -0.0637033 0.72376
0.14177 0.227319 -0.136812 -0.560338 0.0566987 -0.826321
0.134651 0.450592 -0.0844472 0.21323 0.928982 0.302531
0.0550562 0.466061 -0.0281465 -0.876758 0.137686 -0.4608
0.198501 -0.419963 -0.135808 -0.174318 -0.475245 -0.862413
-0.150278 0.325262 0.294182 0.560749 -0.0911223 0.822956
0.378133 0.0653921 -0.2977 -0.09688 0.1674 -0.981117
-0.0906566 0.473118 0.13682 0.888663 -0.00209933 0.458555
-0.126612 -0.356835 0.174723 0.633377 0.316136 -0.706323
-0.130465 -0.109183 0.0415047 0.458788 0.771641 -0.44055
0.177905 0.0857506 -0.0678867 0.733314 -0.0390479 0.678768
0.00450553 0.235653 0.0596875 0.198583 -0.944289 -0.262455
0.0799557 -0.383334 -0.1025 -0.629694 0.185527 -0.754364
0.147723 -0.243185 -0.0467994 0.780835 -0.0450361 0.623112
-0.0644017 0.143375 0.0491303 0.385473 -0.708464 -0.591175
-0.148081 -0.221361 0.252937 0.59229 0.0825091 0.801489
0.0839845 -0.127569 0.0333555 0.698486 -0.0771672 0.711451
-0.331709 -0.0443039 0.351697 -0.788902 0.0648421 -0.611089
-0.253648 -0.166962 0.2483 -0.725165 0.0455724 -0.687065
0.275627 0.327393 -0.256368 0.693109 0.574216 -0.435748
0.401902 -0.0998159 -0.30337 0.549212 -0.0152988 -0.835543
-0.00979644 -0.304866 -0.000825169 0.0869259 0.995455 -0.0389089
-0.260666 -0.147792 0.380455 0.555081 -0.155207 0.817188
-0.258881 2.49551e-05 0.280661 -0.868994 0.0580539 -0.491406
-0.247684 0.212631 0.348515 -0.893101 0.401486 0.202928
-0.314172 0.163711 0.35162 0.211133 0.0930675 0.973017
0.339729 0.147897 -0.295614 0.811201 0.384569 -0.440523
0.0401029 0.49851 -0.00885142 -0.0697006 0.997307 0.0228004
0.338989 0.118967 -0.304212 0.7393 0.280692 -0.612084
0.185159 -0.17786 -0.0865164 0.863346 0.041434 0.502908
0.231959 0.288147 -0.227693 -0.717014 0.0445061 -0.695636
0.268166 -0.318018 -0.224952 0.364562 -0.706281 -0.606846
-0.19362 -0.1418 0.184611 -0.749717 0.0609161 -0.658949
-0.232 0.00549049 0.251351 -0.847066 0.0691727 -0.526968
0.00684413 0.469874 0.0282159 -0.777642 0.0577943 -0.626045
-0.256682 -0.284314 0.284482 -0.000603005 -0.516057 0.856554
0.0199572 0.150536 -0.128928 -0.674054 0.11309 -0.729973
-0.0756635 0.171422 -0.034141 -0.673975 -0.154698 -0.722375
0.235918 -0.0039489 -0.123327 0.621751 0.166642 0.765281
-0.271964 0.0998058 0.29449 -0.73457 0.0653615 -0.675378
0.0162976 0.184127 0.120228 0.767012 0.0541533 0.639343
-0.111363 -0.427026 0.211641 0.713254 -0.0520567 0.698969
-0.147465 0.19988 0.162019 -0.778655 0.416857 -0.468962
0.119611 0.472165 -0.0922175 -0.656015 0.0615549 -0.752233
0.0508239 0.161748 0.0701921 0.778414 -0.131459 0.613832
-0.216171 0.0941451 0.343197 0.6679 0.0716179 0.740797
-0.197364 -0.191296 0.317818 0.532246 0.0383504 0.845721
0.0540424 -0.429514 0.0547344 0.82881 0.0433815 0.557846
-0.0509829 0.0556075 0.0999645 0.644831 -0.594584 -0.480274
0.0956688 0.0981538 -0.101161 -0.378724 -0.000502982 -0.92551
0.0958645 -0.37697 -0.0251952 0.432374 0.826005 -0.361619
-0.104694 -0.100799 0.0698919 0.653657 0.536872 -0.533386
0.0542047 -0.218371 0.0419097 0.54473 0.0023184 0.838608
-0.0132146 -0.199669 0.121198 0.543164 0.0699641 0.836706
-0.216713 -0.278206 0.215057 -0.600229 -0.0124993 -0.79973
0.271563 -0.20491 -0.232156 0.134892 0.988879 -0.0626283
0.33465 0.270049 -0.214538 0.780072 -0.0243456 0.625216
0.00844354 0.306891 0.128457 0.623482 -0.0917914 0.776431
0.227763 -0.0876647 -0.123834 0.634963 -0.0858848 0.767754
-0.183659 -0.129588 0.0638943 -0.669674 -0.0535305 -0.740723
0.0174904 0.298587 0.033978 0.137692 0.97442 -0.177611
0.24817 0.19067 -0.251033 -0.767477 0.0623298 -0.638039
0.0940895 0.311763 -0.0790348 -0.74118 0.0335164 -0.670469
0.164493 0.204641 -0.165323 -0.78008 -0.0315889 -0.624882
0.166984 0.310199 -0.035059 0.693409 -0.0160764 0.720365
-0.119955 -0.0541024 0.244135 0.528959 -0.200723 0.824568
0.070117 -0.353998 -0.0960723 -0.691646 0.0417485 -0.721029
0.0764775 -0.417253 -0.10755 -0.788856 0.158132 -0.593886
-0.299103 -0.0925712 0.308126 -0.815216 0.165801 -0.554917
-0.0470669 0.435887 0.0703834 -0.667474 0.264407 -0.696109
0.172601 -0.433806 -0.185406 -0.825178 0.0370038 -0.56366
-0.00563189 -0.162842 0.00332337 -0.710453 0.0246791 -0.703311
0.404329 -0.0204814 -0.299304 0.694169 -0.0292317 -0.719218
0.0271831 -0.319858 -0.0379471 -0.702453 0.0288468 -0.711145
-0.168516 0.353371 0.289514 -0.815218 0.54038 -0.208348
-0.214329 0.37677 0.239882 -0.374749 0.330941 -0.866049
0.0299935 -0.122846 0.0836589 0.281997 0.920515 -0.270425
-0.00692493 -0.150195 -0.0789708 0.0356463 0.997048 -0.0679994
-0.0260574 0.299103 0.0877443 -0.203262 0.883637 0.421748
-0.0241595 -0.176298 0.13497 0.83205 -0.0208478 0.554309
-0.133271 -0.360922 0.237802 0.619628 0.0412394 0.783812
0.209933 0.392036 -0.158595 0.605201 0.780192 -0.158216
0.226007 -0.235951 -0.151787 -0.0841926 -0.9487 0.304761
-0.0760964 0.475905 0.109794 -0.871032 0.0783222 -0.484942
-0.00122393 -0.37669 0.0926192 0.770907 -0.277406 0.573366
-0.234813 -0.301915 0.266135 -0.0598239 -0.579121 0.813044
0.0317398 0.185304 -0.137898 0.629254 0.646066 -0.432016
-0.12241 0.17909 0.226817 0.344762 0.903955 -0.252991
0.327148 0.204396 -0.207599 0.521008 0.0442101 0.852406
0.0682262 -0.0953761 -0.0381798 -0.402543 0.782814 0.474512
0.0560858 0.0992543 -0.179131 -0.810549 0.0699415 -0.581479
0.107404 -0.350497 -0.0485346 0.134031 0.955293 -0.263537
-0.130245 -0.431257 0.103439 -0.679439 -0.0212487 -0.733424
0.215161 0.413312 -0.0876431 0.716949 -0.0392257 0.696021
0.194505 0.419785 -0.105349 0.108992 0.868237 -0.48403
0.0747096 0.49001 -0.0487335 -0.00105514 0.999403 -0.0345239
0.209554 0.244704 -0.0886814 0.620325 -0.0632442 0.781791
-0.0717863 -0.128073 0.0749339 -0.903256 0.0594884 -0.424958
0.0218026 -0.295656 0.0384225 0.0869567 -0.984885 -0.149797
-0.18795 0.0625764 0.201698 -0.531568 0.184191 -0.826746
-0.0569581 0.189177 0.201003 0.778952 -0.0724718 0.622882
0.0913874 0.0758575 -0.200426 0.689384 0.289403 -0.664075
-0.208841 -0.39852 0.211062 -0.558255 -0.722711 0.407481
-0.232017 -0.11086 0.357926 0.814787 0.033977 0.578763
0.243845 -0.141224 -0.210561 -0.222423 0.892116 0.393265
-0.0372803 -0.215634 0.0229892 -0.149892 -0.986894 0.0597758
0.203547 -0.0996205 -0.216305 -0.561613 0.0542172 -0.825622
-0.173325 -0.153006 0.175066 -0.75006 0.319471 -0.579093
0.00436333 0.156211 -0.0613588 -0.252494 -0.943532 0.214462
0.112126 -0.459029 -0.0256386 0.728377 -0.0350521 0.684279
0.036244 -0.308995 0.0149805 0.00218416 0.999935 0.0111504
0.132582 0.399011 -0.00183924 0.929897 -0.144377 0.338301
0.273176 0.404712 -0.153219 0.217038 0.879692 -0.423127
-0.077653 -0.197898 -0.0447795 -0.755555 0.0421918 -0.653725
-0.185088 -0.0791691 0.194727 -0.711596 0.0476909 -0.700969
-0.16171 -0.389132 0.145738 0.611979 0.486699 -0.623383
0.0780283 0.292906 -0.0295459 0.0661949 0.997431 -0.0273666
-0.252681 0.190114 0.352401 -0.88215 0.422636 -0.207822
0.0361385 0.0920795 -0.142434 -0.491386 -0.666611 0.560509
-0.0161685 -0.324199 0.120625 0.485463 -0.0450361 0.873096
-0.0638244 -0.394443 0.122857 -0.0741412 0.994189 0.0780498
-0.0521688 0.17064 0.182629 0.584012 -0.342179 -0.7361
0.0633759 -0.274813 -0.0344323 0.24882 -0.914423 -0.319249
0.212777 0.452057 -0.0794955 0.709238 -0.0531283 0.702964
0.123657 -0.477857 -0.040533 0.00263167 -0.996308 -0.0858111
-0.0174644 -0.135865 0.123931 0.704915 -0.0489205 0.707603
-0.0709793 -0.457125 0.111455 -0.402926 -0.899928 0.166676
-0.138087 -0.334987 0.248136 0.48805 -0.214722 0.845991
0.22826 -0.366986 -0.142637 0.709531 -0.105584 0.69672
-0.0411032 -0.459614 0.102988 -0.521958 -0.811224 -0.263582
0.18341 -0.11354 -0.191884 -0.816737 -0.0278868 -0.576336
-0.0926045 -0.0321085 0.088501 -0.871746 -0.112554 -0.476854
-0.0782029 -0.36313 0.14305 0.858484 0.0982897 -0.503334
-0.211092 -0.251862 0.317647 0.541872 0.0615135 0.838207
0.345106 -0.146426 -0.242566 0.645451 -0.130008 0.752656
0.0683641 0.356243 -0.0451758 -0.831903 0.168885 -0.528598
0.265717 0.374546 -0.139349 0.751993 -0.0138163 0.659026
0.320352 0.34486 -0.188627 0.497845 -0.165907 0.851249
0.133567 -0.242412 -0.151813 -0.863743 0.0657455 -0.499626
-0.293359 0.0573282 0.375678 -0.816966 0.0542652 0.574126
-0.232335 -0.303843 0.336966 -0.548711 -0.616928 0.564195
0.0688803 0.350767 0.0622318 0.816119 -0.0997986 0.569201
0.275664 0.18497 -0.277668 -0.817317 -0.0316884 -0.575316
-0.256028 -0.079037 0.262288 -0.596599 -0.338099 -0.727845
0.0644245 0.409611 -0.0463112 -0.659452 -0.0289838 -0.751188
-0.105402 -0.152927 -0.00796757 0.38551 0.870263 -0.306632
-0.117837 0.0120168 0.238768 0.881184 0.0468197 0.47045
-0.23417 0.176314 0.255709 -0.714886 0.0381248 -0.698201
-0.212573 0.251475 0.357432 0.656655 -0.122349 0.744201
0.070962 0.481799 0.0536153 -0.630507 0.492577 -0.599857
-0.0488407 -0.081114 0.173276 0.53535 0.0146034 0.844504
0.0518998 0.405116 0.0957249 0.916637 0.00443371 0.399696
0.0536287 -0.101744 -0.0622182 -0.809359 -0.00307873 -0.587306
0.306826 0.147771 -0.308459 -0.491197 0.0670924 -0.868461
0.0184665 -0.410649 0.0702767 -0.10021 -0.994712 0.022483
-0.0349279 0.209368 0.127375 0.58616 -0.647239 -0.487338
0.261303 0.087945 -0.273749 -0.650913 0.0605709 -0.756733
0.195432 -0.0689662 -0.207682 -0.856792 0.0265636 -0.514978
0.360883 -0.143814 -0.271377 0.875641 -0.0284753 0.482122
-0.00438418 0.11657 0.13469 0.742293 -0.0126151 0.669957
0.11958 -0.312711 -0.077819 0.737381 -0.0757538 -0.671216
0.193846 -0.0251616 -0.0876763 0.610568 -0.0409338 0.790905
-0.32332 0.124934 0.359582 -0.687193 0.0514386 0.724651
0.260641 0.391805 -0.1282 0.735398 0.0918034 0.671388
0.0411444 -0.0895633 -0.137788 -0.568063 0.550084 0.612137
-0.197214 0.292371 0.331429 0.713346 -0.0403107 0.699652
0.0502322 -0.134428 0.0479955 -0.00888765 0.975353 0.220469
-0.00968106 0.152407 -0.0884378 -0.375302 -0.862916 0.338415
0.0294582 -0.335376 -0.0252934 0.516133 -0.654253 -0.552774
0.0828495 -0.361811 -0.0309757 -0.528582 -0.604075 0.596401
0.25066 -0.28565 -0.157779 0.943698 0.0922718 0.31768
-0.242072 0.245933 0.379381 -0.539439 0.333245 0.773274
-0.136296 0.0981769 0.147442 -0.58153 0.421653 0.695723
-0.174758 -0.293594 0.290256 0.721963 -0.0390186 0.69083
0.312376 -0.146068 -0.222176 0.675612 -0.144656 0.722927
-0.0561997 -0.224183 -0.00834097 -0.187001 -0.925653 0.328935
-0.0990886 0.383867 0.131584 -0.692816 0.0349191 -0.720269
0.0050283 -0.226299 0.102348 0.699621 -0.0427162 0.713237
0.0176299 0.226485 -0.0025633 -0.725476 0.0160897 -0.68806
-0.0286442 0.455582 0.135919 -0.285413 0.900183 -0.328952
0.110541 -0.339919 -0.0125358 0.760978 -0.0220004 0.648404
0.354636 0.214433 -0.227552 0.795406 0.00601475 0.606047
0.0373517 -0.248871 0.0663511 0.731561 -0.0250415 0.681316
0.00341413 0.239515 0.126165 0.627432 0.0660401 0.775866
-0.0407639 -0.483869 0.124804 0.722899 -0.0366213 0.689983
0.11534 0.20668 -0.107984 -0.759567 -0.0702961 -0.646619
0.369922 -0.0275357 -0.273567 0.630662 -0.207263 0.747869
-0.214205 0.215487 0.236558 -0.868268 -0.00729188 -0.496042
-0.0888927 -0.333822 0.140016 -0.585695 -0.649256 0.48521
-0.0257891 -0.391905 0.041088 0.620689 0.631659 -0.464491
-0.0319175 -0.246551 0.0188475 -0.807617 0.140377 -0.572756
0.194827 -0.293958 -0.158559 0.322869 0.900165 -0.292333
-0.0860885 -0.0279617 0.210811 0.743741 -0.0467584 0.66683
0.126295 -0.180836 -0.133464 -0.756996 0.0443279 -0.651914
-0.0632604 -0.269964 0.1398 -0.208827 -0.951044 0.227831
-0.0451388 0.0409007 0.168772 0.849246 0.0136409 0.527821
0.0861276 -0.274824 -0.0627221 0.0245995 0.99963 0.011579
0.245634 -0.0299223 -0.256767 -0.801701 0.0762396 -0.592843
0.246635 0.370484 -0.226861 -0.71366 0.0456077 -0.699006
-0.236743 0.321528 0.276612 0.563281 0.124528 0.816828
0.0424014 -0.483257 0.0487509 0.775369 -0.0812979 0.626253
0.153713 -0.364106 -0.12558 0.502551 -0.580581 -0.6406
-0.0131879 -0.404354 0.0222218 -0.000632196 -0.999471 -0.03252
0.28085 0.307071 -0.280968 0.633267 0.543692 -0.550792
0.212585 0.0111983 -0.102211 0.716347 -0.0396173 0.696618
-0.10037 0.365493 0.12681 -0.791952 -0.0543088 -0.608164
0.383975 0.152645 -0.289355 0.695451 0.240787 -0.67703
0.0326175 -0.155095 -0.161965 -0.699303 0.0408124 -0.713659
0.085623 -0.29301 -0.100667 -0.714599 0.0700273 -0.69602
0.0962164 0.0981897 -0.193841 0.586091 0.484939 -0.6491
-0.342727 0.0807704 0.360356 -0.65735 -0.0665028 -0.750645
-0.0796315 0.204133 -0.0322702 -0.798516 0.0899054 -0.595222
-0.339298 -0.0242082 0.360954 0.542699 0.0632101 0.837546
-0.205452 -0.063243 0.0870946 -0.589503 0.142935 -0.795019
-0.0404787 0.192044 0.172537 0.50635 -0.0715595 0.859354
0.0588606 -0.183057 -0.109445 0.442002 -0.868642 -0.22382
-0.0520547 0.301338 0.110283 0.188415 -0.969614 -0.156037
-0.177148 0.14356 0.0719977 -0.550513 0.57994 0.600503
0.116596 0.253834 -0.117967 -0.537476 -0.0693538 -0.840422
-0.157206 -0.397283 0.268169 0.750705 -0.0568413 0.658188
-0.136042 -0.0617444 0.0758212 0.638234 0.43018 -0.638438
-0.123963 0.113715 0.161644 0.176252 0.979891 -0.0935367
0.178541 0.397256 -0.160249 -0.705585 0.0676689 -0.705387
-0.290579 -0.107727 0.399158 -0.731469 -0.144335 0.666424
0.300163 -0.226644 -0.280481 0.715591 -0.646377 -0.264812
0.297015 0.111779 -0.304694 -0.565415 -0.0990242 -0.818841
-0.199673 -0.0626214 0.328514 0.741786 -0.0434476 0.669228
0.092557 -0.0249387 -0.0978876 -0.888948 -0.100828 -0.446771
0.0156434 -0.404352 0.0316508 -0.0725528 -0.995758 0.056589
-0.0421121 -0.397786 0.124855 0.188584 0.967614 -0.167809
0.17443 -0.332022 -0.0910757 0.207482 0.948473 -0.239478
-0.0518484 -0.0921116 0.0608217 0.557115 0.725359 -0.404323
0.0693166 0.473981 0.00715592 0.464883 0.884854 0.0302884
-0.163868 -0.141862 0.0779738 -0.707661 -0.495848 0.50334
0.320654 -0.237691 -0.231855 0.715101 -0.042258 0.697743
0.241395 -0.202502 -0.260374 -0.870621 0.0224622 -0.491441
-0.153551 -0.372616 0.258363 0.653099 0.280829 0.703275
0.252259 0.120435 -0.24649 -0.675236 0.0420211 -0.736404
0.261876 -0.278654 -0.288534 -0.845143 0.249713 -0.472627
0.116071 -0.332439 -0.141475 -0.763134 0.0179257 -0.645991
0.258378 0.293726 -0.147705 0.732999 0.0156692 0.680049
0.0254662 0.466848 0.0770442 -0.236315 0.919259 -0.314829
0.0659676 -0.150262 0.0406682 0.762748 0.218721 0.608586
0.0657648 -0.0754465 -0.184478 -0.896887 0.0334186 -0.440995
-0.160496 -0.341662 0.258749 0.679606 -0.0722581 0.73001
0.0243751 0.120388 -0.14259 -0.7724 0.0956044 -0.6279
0.0958719 0.121642 -0.178703 0.717857 0.414189 -0.55958
0.00653504 -0.294649 0.0154559 0.364579 -0.92134 -0.134964
0.117738 0.235459 0.0110507 0.747996 0.145892 0.647471
0.231516 -0.338628 -0.149211 0.704757 -0.029178 0.708849
0.0943639 -0.461172 -0.0461705 -0.255868 -0.858589 -0.444248
-0.0176899 -0.429318 -0.00391811 -0.520004 -0.0181018 -0.853972
-0.215623 -0.314212 0.284418 -0.64922 -0.716871 0.254183
-0.246984 -0.134233 0.241052 -0.744417 0.0292936 -0.667072
-0.316323 -0.213634 0.322499 -0.67964 -0.357649 0.640451
-0.0502802 -0.228807 0.154898 0.526492 0.216678 0.822105
-0.163099 -0.143779 0.280925 0.695574 -0.0395197 0.717366
-0.129727 -0.121247 0.253152 0.872164 0.0117536 0.489072
-0.0389225 -0.332401 0.0677413 0.627955 -0.444722 -0.638667
-0.191416 0.0502637 0.31481 0.670275 -0.075079 0.738305
0.0848567 -0.111367 0.0167124 -0.300865 0.769758 0.562985
-0.0666677 -0.314427 0.044848 -0.739942 0.0394625 -0.671512
0.140402 -0.389909 -0.170221 -0.846336 0.00734331 -0.532599
-0.174161 0.0481111 0.147337 -0.678516 0.168625 0.714969
0.229995 0.382942 -0.0996953 0.622773 6.59631e-05 0.782403
-0.0706321 -0.373353 0.0607524 -0.783404 0.0296313 -0.620806
-0.0866894 0.126556 0.0568809 0.462423 -0.839286 -0.285945
-0.00116388 -0.491334 -0.0250065 -0.0609231 -0.996207 0.0621238
-0.0596257 -0.495876 0.0296148 -0.612364 0.0733328 -0.787168
-0.126154 0.027959 0.262884 0.710983 0.0636849 0.700319
-0.197267 0.0873932 0.316847 0.869499 0.0181188 0.493603
0.196569 0.369224 -0.0589594 0.82892 -0.155605 0.537288
-0.0990875 0.219687 0.116625 -0.739473 0.0487381 -0.671419
0.0251811 -0.393096 -0.01792 -0.574375 0.65284 0.493855
-0.146414 0.324938 0.164113 -0.580865 0.218315 -0.784177
-0.0221717 0.23122 0.019418 -0.0188189 0.990058 -0.139393
-0.0304879 0.349051 0.0471056 -0.719329 0.0389043 -0.693579
0.0543232 0.422076 0.0796242 0.633057 -0.000235163 0.774105
0.0731948 -0.46991 -0.0286069 -0.160235 -0.956948 -0.242025
0.247958 0.0608618 -0.255276 -0.537613 -0.0820178 -0.839193
0.0838544 0.253733 -0.0710123 -0.469298 0.0822645 -0.879199
-0.0270735 0.330966 0.171569 0.713339 -0.0377581 0.699801
0.0572737 -0.169254 0.0511164 0.636991 -0.0329389 0.770167
0.20934 -0.200658 -0.173609 0.685825 0.185244 -0.703796
0.141933 0.163878 -0.142683 -0.470709 0.0710455 -0.879423
0.12842 -0.420129 -0.150825 -0.833221 -0.0345613 -0.551859
0.166738 -0.17832 -0.145206 0.459763 -0.592195 -0.661757
-0.0474097 0.249562 0.181109 0.555825 0.0727517 0.82811
0.283469 0.236765 -0.159273 0.638314 -0.143192 0.756341
0.322956 -0.112189 -0.227887 0.715294 -0.0353297 0.69793
0.0215924 -0.387621 -0.0409929 -0.692156 -0.179837 -0.698984
0.000154518 -0.409857 -0.0162053 -0.0246849 -0.999037 -0.0362676
-0.166525 -0.0340346 0.281078 0.714103 -0.018828 0.699788
-0.167377 0.0830182 0.136149 -0.578409 0.325872 0.747831
-0.21473 0.296104 0.348687 -0.526556 0.58744 0.614534
-0.197411 -0.318535 0.199762 -0.774423 0.0716315 -0.6286
-0.0264288 0.0944771 0.0865843 0.424581 -0.768331 -0.478955
-0.293215 0.0425446 0.415907 -0.484086 -0.183406 0.855584
-0.134549 -0.203942 0.0063163 -0.311792 -0.908268 0.27899
-0.238508 -0.186537 0.349234 0.814402 0.123791 0.566944
-0.115641 -0.360011 0.201438 0.300578 -0.889082 -0.345233
0.257934 0.322338 -0.220342 0.751698 0.632279 -0.187547
0.0124538 -0.348467 -0.023255 0.601963 -0.551923 -0.57708
0.0699625 -0.481434 -0.00048784 -0.47658 -0.574615 -0.665349
-0.247983 -0.116688 0.372416 0.646486 -0.221006 0.730214
-0.0682278 -0.0782939 0.189149 0.68004 -0.0445485 0.73182
-0.230285 -0.222919 0.344569 0.635646 0.115651 0.763269
-0.126403 0.187609 0.0619859 -0.110171 0.964077 0.241697
0.0865209 0.0571274 -0.142914 -0.541331 -0.543171 0.641815
-0.24116 0.241695 0.273979 -0.678614 0.01473 -0.734347
-0.123536 0.17514 0.138435 -0.761059 0.04771 -0.646926
-0.122709 0.180909 0.0228358 -0.731412 0.0485048 -0.680208
-0.0847834 0.0879099 0.0992795 -0.851081 -0.0939388 -0.516562
-0.218032 0.171803 0.361453 0.695967 -0.0563871 0.715856
0.25849 -0.119676 -0.189627 0.279405 -0.935965 -0.214246
-0.143458 -0.146967 0.100744 -0.539824 -0.649722 0.535211
-0.0890575 0.284061 0.236156 0.725969 -0.0433672 0.686359
0.37033 0.185015 -0.273259 -0.713965 -0.1013 -0.692814
0.076823 -0.307334 -0.0432688 0.731597 -0.100768 -0.674249
0.0777096 0.389975 0.0665071 0.623223 -0.000116626 0.782044
0.217456 -0.160005 -0.238335 -0.701598 -0.00590663 -0.712548
-0.107759 -0.170375 0.100036 -0.788636 0.106923 -0.605493
-0.0162668 0.368345 0.156772 0.84079 0.145912 0.521327
0.136267 -0.168915 -0.143838 -0.747245 0.0739205 -0.660424
-0.0470269 -0.345208 0.146666 0.710525 -0.0335248 0.702873
-0.154105 0.15756 0.0441698 -0.45812 -0.173148 -0.871863
0.331877 0.149743 -0.335333 0.787703 -0.168087 -0.592681
0.168185 -0.33206 -0.116212 0.424031 0.855226 -0.29797
-0.0785268 0.117008 0.21062 0.00455269 0.998014 0.0628339
0.235322 0.205429 -0.229545 -0.667618 0.090848 -0.738941
-0.250436 -0.232682 0.246558 -0.763517 0.0709679 -0.641877
-0.00673156 0.44916 0.037221 -0.639728 0.0227839 -0.768263
0.119331 -0.0751655 -0.0176703 -0.548046 0.578036 0.604583
0.166727 -0.0127829 -0.0607165 0.697121 -0.0187691 0.716708
-0.0298379 -0.268245 0.128435 0.955381 0.162337 0.246765
0.131554 0.0270149 -0.182223 0.727045 0.0677627 -0.683238
0.215076 -0.209976 -0.123152 0.686582 0.0227745 0.726696
-0.167476 0.0651426 0.175863 -0.706642 0.0295523 -0.706954
-0.162916 0.268791 0.189732 -0.708822 0.0336307 -0.704586
0.0536697 -0.225151 -0.0709268 -0.806889 0.0186626 -0.590408
0.0972151 0.231156 -0.0660228 -0.522896 0.491537 0.696399
-0.167783 0.319027 0.189361 -0.710469 0.0443199 -0.702331
-0.10654 0.183418 0.0861471 -0.173761 0.969518 0.172749
-0.293788 0.00583308 0.364535 -0.653777 0.181285 0.73465
-0.202444 -0.130052 0.31351 0.761362 -0.0514602 0.646282
0.212133 -0.247125 -0.127291 0.811379 0.188794 -0.553192
0.134405 0.0681945 -0.0180697 -0.564765 -0.554905 0.610837
0.144554 0.0763025 -0.158724 0.619396 0.381925 -0.685917
0.382544 0.0395168 -0.269191 0.708962 -0.0308167 0.704573
-0.0789768 0.244432 0.216142 0.720407 -0.0355016 0.692642
-0.086501 0.134047 0.192919 0.554596 -0.698664 -0.451986
0.295022 -0.202613 -0.197798 0.729835 -0.0416818 0.682352
0.0348223 -0.361454 -0.0503738 0.453189 0.811078 -0.369826
-0.233858 -0.248833 0.340116 0.735971 -0.0515604 0.675047
0.316641 -0.0504573 -0.336006 -0.546328 0.0162854 -0.837413
-0.0375548 -0.184867 -0.0934323 -0.657782 0.0297494 -0.752621
-0.192954 0.0249771 0.11408 -0.679034 -0.100754 0.72716
-0.0797997 -0.25909 0.0602212 -0.645746 -0.135125 -0.7515
0.080874 0.432035 0.0540092 0.832143 -0.191719 0.520367
-0.101302 -0.45715 0.20215 -0.302437 -0.913496 0.272133
0.241154 -0.0104367 -0.248977 -0.573375 0.0432294 -0.818152
-0.198157 -0.427166 0.182235 -0.837151 -0.119026 -0.533864
0.345531 -0.1729 -0.256941 0.765554 -0.0968266 0.636044
-0.124733 0.158033 0.0109687 -0.709585 0.0507157 -0.702793
0.191202 -0.185745 -0.193706 0.69264 0.179037 -0.69871
0.0745365 0.141672 0.0502227 0.723947 -0.0452268 0.688371
-0.244286 0.210331 0.37442 0.767474 -0.0446474 0.639524
0.049964 -0.256506 0.0499601 0.44577 0.155921 0.881464
0.313532 -0.172855 -0.248956 -0.723351 -0.0685423 0.68707
-0.163767 0.038858 0.29627 0.589472 -0.0339432 0.807075
0.145805 -0.236854 -0.104813 0.31345 -0.920971 -0.231433
0.172887 0.150319 -0.0544692 0.863479 -0.0416933 0.502659
-0.0117191 0.163579 0.137271 0.689885 -0.0591243 0.721501
0.0675717 0.183233 0.0568576 0.775153 -0.0485452 0.629906
-0.308551 0.0475173 0.330802 -0.815615 -0.0347208 -0.577552
-0.101965 -0.335744 0.193122 0.715127 -0.228552 -0.660574
0.129242 0.278302 -0.122264 -0.604464 0.337827 -0.721454
0.131317 0.349134 -0.111611 -0.727439 0.0485647 -0.684452
0.242827 0.0871253 -0.250526 -0.427203 -0.162391 -0.889453
-0.00553095 -0.166242 -0.032963 -0.0499348 0.985079 0.164699
-0.0304686 0.165572 0.0378763 0.259005 -0.905239 -0.336837
0.337778 0.169385 -0.220818 0.577902 -2.33603e-05 0.816106
0.100461 0.224583 -0.0105219 -0.377289 -0.874419 0.305032
-0.230969 -0.138881 0.346255 0.692144 -0.0550589 0.719657
0.16567 0.280205 -0.149995 -0.776838 0.0229507 -0.629283
-0.332479 0.0295751 0.351491 -0.770083 0.0705893 -0.634026
0.13696 -0.00734494 -0.180998 0.6591 -0.497935 -0.563603
-0.10808 -0.356968 0.121771 -0.510702 0.719854 0.470101
0.324241 -0.304946 -0.233741 0.539852 0.0416761 0.840727
-0.228254 -0.0231609 0.35883 0.813984 -0.180147 0.552247
0.0497139 -0.499443 0.0194315 -0.131378 -0.984263 0.118176
-0.191484 0.0300878 0.206924 -0.632611 -0.0902718 -0.769191
0.0921813 -0.236141 -0.109613 -0.48738 -0.0318898 -0.872607
0.105625 0.358263 0.0331733 0.525184 0.30558 0.794231
0.184129 -0.232713 -0.147481 0.763401 0.220451 -0.607141
-0.0825272 0.438854 0.150311 0.102427 0.773876 0.624999
0.342233 0.0689927 -0.355224 -0.709305 0.0613396 -0.702228
-0.15362 0.288245 0.184027 -0.763901 0.05602 -0.642898
-0.165006 0.144722 0.176333 -0.828643 0.201858 -0.522116
-0.101158 -0.25374 0.0777361 -0.811623 -0.184431 -0.554305
0.0941719 0.215549 -0.0430823 -0.181557 0.968422 0.17087
0.0959755 -0.0989207 -0.0078639 -0.394324 0.799977 0.452268
0.152652 -0.0459712 -0.161166 -0.67346 0.00812219 -0.739179
0.27243 0.0959592 -0.159751 0.73399 -0.0271881 0.678615
-0.03615 -0.109596 0.152362 0.673416 -0.0566808 0.737087
0.156085 -0.184442 -0.0653304 0.652025 -0.0524809 0.756379
0.152509 0.326034 -0.0233801 0.732164 -0.0533167 0.679038
-0.174657 0.213129 0.191042 -0.675056 0.0866085 -0.732665
-0.192413 0.0373194 0.0757019 -0.760283 0.0287613 -0.648956
-0.121578 0.0953834 0.257965 0.667171 -0.0305838 0.744277
-0.220108 -0.0693087 0.233646 -0.435765 -0.0833954 -0.896188
0.297532 0.250785 -0.26073 0.833642 0.536919 -0.129457
0.207343 -0.183704 -0.235761 -0.735951 0.059965 -0.674374
0.0302496 -0.290302 0.0713158 0.779184 -0.0365757 0.625728
0.322882 -0.179648 -0.333317 0.77799 -0.35806 0.51626
0.0293778 0.155193 -0.0256226 -0.817368 -0.023385 -0.575641
0.0162877 -0.483941 0.0601962 0.771186 -0.0356125 0.635613
0.198212 -0.0564455 -0.101985 0.551183 0.0109506 0.834313
-0.192272 0.36942 0.219746 -0.863287 0.130964 -0.487427
-0.0300875 0.214903 0.100845 -0.181176 0.952365 0.245309
0.0538096 0.32316 -0.0411096 -0.857739 0.107262 -0.50277
-0.0653606 -0.274498 0.0864419 -0.258613 -0.945195 0.199315
-0.0536794 -0.0121125 0.113514 0.679824 0.133548 -0.721113
0.0624596 0.239336 -0.0546942 -0.817963 -0.0317187 -0.574395
-0.228508 -0.328295 0.232416 -0.922891 -0.158974 -0.350713
0.158036 0.143819 -0.15501 -0.731205 -0.0229248 -0.681772
0.217597 -0.386858 -0.17311 0.298981 -0.821149 -0.486132
0.0715444 -0.0135078 -0.16165 -0.686676 -0.00703287 0.72693
-0.125057 -0.169424 0.0770198 -0.558741 -0.67208 0.485918
-0.206007 -0.0903943 0.208549 -0.825836 0.0483789 -0.561831
0.175061 -0.369175 -0.134167 -0.155324 0.608332 0.778336
0.175997 0.263534 -0.163398 -0.781371 0.312835 -0.539994
0.020578 -0.215437 -0.0694785 0.0769866 -0.990646 0.112662
-0.0771745 -0.391114 0.171045 0.165399 -0.97778 -0.1288
0.220479 -0.302715 -0.145369 -0.6653 0.1097 0.738473
0.238691 0.404892 -0.108399 0.731434 -0.1123 0.672602
0.0479615 -0.363255 0.0236927 -0.333191 -0.680193 0.652933
0.0286563 -0.228989 -0.0522395 -0.814196 -0.0334839 -0.579624
-0.0723119 0.201159 0.0785909 -0.121635 0.983241 0.135805
-0.0302772 0.224063 0.16721 0.725701 -0.0474408 0.686373
0.0127984 -0.469774 0.0387126 -0.704318 -0.691092 -0.162257
-0.254931 0.163454 0.366612 -0.979057 0.197627 -0.0488937
-0.203157 -0.270278 0.315536 0.825628 -0.0988109 0.555495
0.200921 -0.352851 -0.107766 0.438302 -0.70888 -0.552611
-0.137557 0.0690714 0.0704078 0.243966 0.0280661 -0.969378
-0.279295 -0.0822026 0.378142 -0.985866 -0.108922 0.127297
0.102611 0.0294114 -0.0702661 -0.637247 -0.317389 0.702268
0.295972 -0.12397 -0.232977 -0.0746273 -0.992347 0.0983762
-0.0976057 -0.282955 0.120604 -0.0300839 0.995614 0.0885912
0.308685 0.014494 -0.196299 0.690264 0.04602 0.722093
0.108849 -0.360904 -0.129556 -0.674811 -0.0165622 -0.737805
0.162563 -0.220944 -0.0621958 0.69009 -0.0384693 0.722701
0.033898 -0.193403 0.0782705 0.706514 -0.0317062 0.706988
0.191869 -0.330884 -0.180863 -0.400201 0.749698 0.52706
0.26074 -0.296072 -0.258337 0.650644 -0.443583 -0.616358
0.150547 0.162234 -0.0173765 0.878143 -0.0315779 0.477355
-0.0497565 -0.0227134 0.167937 0.744461 0.0450432 0.666145
0.0857454 0.0407374 -0.205031 -0.333303 0.0541682 -0.941262
-0.00205738 0.123554 0.0255709 0.102023 -0.984603 0.141943
0.0715516 0.124145 -0.071477 -0.349038 -0.838322 0.418795
-0.061683 -0.155777 0.171251 0.790341 -0.275115 0.547424
-0.164039 -0.0387513 0.140189 -0.638938 -0.227195 0.734943
0.166611 0.436085 -0.0273673 0.779971 -0.0249725 0.625318
0.262657 -0.165173 -0.153837 0.76945 -0.0644658 0.635445
-0.0549877 0.288335 0.0732368 -0.631091 0.362132 -0.685991
-0.0335272 0.0750216 0.11479 0.530168 -0.564144 -0.63298
0.303493 -0.24045 -0.316256 0.84596 -0.273987 0.457474
-0.108334 -0.094163 0.226505 0.808329 0.0361164 0.587622
0.160905 -0.203911 -0.190194 -0.798294 0.0056954 -0.602241
0.0647586 0.198792 -0.0851586 0.230368 0.956459 -0.179212
-0.195867 0.313313 0.300112 -0.753609 0.475575 0.453764
0.245202 0.417004 -0.124549 0.257463 0.913537 -0.314901
-0.209088 -0.0407683 0.212158 -0.587008 -0.0240424 -0.809224
-0.0848619 0.198476 0.0476228 -0.274198 0.958617 0.076611
0.20008 0.192286 -0.192879 -0.769949 0.0227498 -0.6377
0.205612 -0.1806 -0.202359 -0.600145 -0.545744 0.584798
0.14481 -0.307815 -0.0455042 0.632446 -0.0684496 0.771574
0.0404602 0.18295 0.0795306 0.742621 -0.0401441 0.668508
-0.00120523 0.37197 0.142228 0.866423 -0.198431 0.458188
0.217115 -0.136344 -0.205047 -0.113662 0.978821 0.170267
0.0892651 0.220775 0.0385837 0.633285 0.0510776 0.772232
-0.187289 0.365565 0.249856 -0.089235 0.631549 0.770184
0.0224769 -0.106749 -0.153315 -0.688614 -0.150737 -0.709288
-0.022255 -0.465225 0.0694146 -0.272542 -0.945203 -0.179758
0.0623735 0.316716 0.0666051 0.687419 -0.0578922 0.72395
0.173158 -0.140544 -0.192951 -0.810797 0.127817 -0.571201
0.189548 -0.327607 -0.146889 0.294335 -0.676389 -0.675178
-0.00133021 -0.124896 0.0224932 0.291191 0.940551 -0.174849
-0.0789412 0.292366 0.0995905 0.151984 -0.959724 -0.236286
-0.286119 -0.0412624 0.410036 0.783248 -0.0893685 0.615252
-0.256119 0.151217 0.275175 -0.684275 -0.00480765 -0.729209
-0.19901 0.0688669 0.218828 -0.796752 0.0608022 -0.60124
0.360657 0.0419181 -0.309007 0.30133 0.119663 -0.945982
-0.119211 -0.300679 0.209033 0.568715 -0.521008 -0.636486
0.104068 0.0729439 -0.109101 -0.613736 -0.45547 0.644885
-0.225559 0.205326 0.353325 0.867112 0.200781 0.455855
0.00284263 0.456427 0.0891747 -0.211839 0.96999 0.119345
0.103136 0.48488 -0.0733571 0.26558 0.950868 -0.159111
0.0630444 -0.333076 -0.0468701 0.720937 -0.114335 -0.683504
-0.170384 0.00152505 0.297465 0.616835 -0.0506957 0.785458
0.139786 -0.0171256 -0.0380941 -0.662099 0.407842 0.628721
-0.253623 0.203131 0.263415 -0.67518 0.022881 -0.737298
-0.10428 0.438203 0.131466 -0.811898 -0.0068579 -0.583759
0.315113 0.118234 -0.200824 0.690931 0.0489918 0.721259
-0.190961 0.323475 0.219864 -0.586088 0.0866259 -0.805603
-0.0822162 -0.343804 0.120181 -0.433508 -0.839601 0.327324
-0.086954 0.239723 0.183778 -0.265616 0.872972 0.409106
0.00944497 -0.191445 -0.136699 -0.462329 -0.0808155 -0.883018
-0.288921 0.030891 0.309462 -0.783982 0.046161 -0.619065
0.0634037 -0.0651303 -0.139761 -0.579997 0.564886 0.586948
-0.166907 -0.449922 0.160439 -0.484134 -0.73107 0.480782
0.0838188 -0.431013 -0.0322001 -0.19505 0.976036 0.096485
0.227751 0.103956 -0.228829 -0.634697 0.134913 -0.760893
-0.282389 -0.24503 0.283554 -0.813324 0.0165975 -0.581574
-0.167201 -0.170873 0.285556 0.650736 -0.161912 0.741841
-0.0792084 0.269775 0.149411 0.373207 -0.835613 -0.403073
0.0488947 -0.409366 0.038361 0.376577 0.474108 0.795872
-0.123468 -0.448369 0.104124 -0.851248 0.0267274 -0.524083
-0.0924071 -0.135218 0.0186313 0.327334 0.892844 -0.309326
-0.164216 -0.21802 0.286607 0.736327 0.0379342 0.675562
-0.142006 -0.0307705 0.0842032 0.632793 0.363854 -0.683508
-0.293839 0.121649 0.311263 -0.497616 0.110916 -0.860277
-0.0379948 0.277194 0.0440951 -0.503567 0.232005 -0.832222
0.118251 0.403172 -0.0990446 -0.869561 -0.303637 -0.389445
-0.113131 0.0801941 0.0851716 0.632096 -0.481506 -0.607129
-0.0315266 -0.165163 -0.0456708 -0.118957 0.983109 0.139087
0.218803 -0.120435 -0.229579 0.122434 -0.971902 -0.201037
0.290575 -0.0241485 -0.309036 -0.742832 0.0236481 -0.66906
-0.0833196 0.0528145 0.0864224 -0.742729 -0.330037 -0.582606
0.338426 0.0225245 -0.325198 0.966381 0.010487 -0.256901
-0.0681583 -0.00629968 0.180917 0.690556 -0.0120005 0.723179
-0.0258411 0.164871 -0.0800012 -0.37414 -0.89499 0.242924
-0.00585383 0.405474 0.145987 0.756376 -0.00146018 0.654136
-0.0950942 0.00307906 0.0961574 -0.844085 -0.0390759 -0.534783
-0.235259 0.0197831 0.249634 -0.398513 0.107243 -0.910871
0.0662349 0.137225 -0.184575 -0.778651 0.0426082 -0.626009
-0.145573 -0.077043 0.150005 -0.679807 -0.33202 0.653931
-0.174444 0.308086 0.320787 0.680178 -0.0820914 0.728436
-0.072201 -0.159678 -0.0253731 0.414482 0.808232 -0.418289
0.0763036 0.296752 -0.0024621 0.0326775 0.995019 -0.0941749
0.317833 0.283226 -0.222433 -0.0512157 0.497112 -0.866174
-0.0373629 0.304677 0.0536417 -0.177857 0.957548 0.226867
-0.229356 0.276669 0.255399 -0.654743 0.281175 -0.701607
0.297043 0.376486 -0.179316 0.633349 0.557606 -0.536605
0.358187 0.243382 -0.253698 0.581671 0.524504 -0.621734
-0.259659 -0.0705943 0.391615 0.9126 0.187528 0.36331
-0.151819 0.407831 0.185587 0.67035 0.209628 0.71182
-0.02586 -0.416551 0.124451 0.618165 -0.0545304 0.784154
0.080933 0.106113 -0.0925716 -0.423459 -0.758854 0.494795
-0.254182 -0.135958 0.264986 -0.764979 0.0334457 -0.643186
-0.0209707 0.298196 0.113797 0.134492 -0.990897 0.00591113
0.0654376 -0.040356 -0.191015 -0.709807 0.0517214 -0.702494
0.0692125 -0.345119 0.0243192 0.554493 -0.247669 -0.794479
0.0566131 -0.298185 -0.0723449 -0.768516 -0.000461753 -0.639831
0.106468 0.0539342 -0.195459 0.476578 0.360938 -0.801622
0.118143 -0.443069 -0.0300669 0.806505 -0.108694 0.581151
-0.0702104 -0.390039 0.0812548 0.189869 0.961138 -0.200409
0.279177 -0.202463 -0.258766 0.630191 -0.232229 -0.740898
0.319706 0.0232948 -0.208449 0.583007 -0.0758759 0.808916
-0.201232 0.319171 0.337909 -0.335409 0.532212 0.777336
0.328624 0.177689 -0.29242 0.820867 0.394536 -0.41294
-0.307379 0.19779 0.34471 -0.692529 0.646909 0.319236
0.175954 0.328657 -0.0430581 0.64896 -0.00319004 0.760816
-0.19465 0.217223 0.212278 -0.837124 0.0668573 -0.542911
0.0489625 0.346906 0.0856587 0.759899 -0.063585 0.646924
0.128729 -0.238293 -0.0265053 0.691075 -0.0318513 0.722081
0.109371 -0.383727 -0.120555 0.339092 -0.850603 -0.40186
0.0787648 0.215117 -0.0241937 0.2629 0.93899 -0.221769
0.0605613 0.097151 -0.0502564 -0.64669 0.0624047 -0.760196
0.275543 -0.14659 -0.29967 -0.665691 0.0781296 -0.742126
0.257804 -0.385033 -0.186039 -0.809296 0.0618714 -0.584133
0.0336879 -0.424171 0.0181639 0.0309276 0.998958 0.0335756
-0.000748006 0.221463 -0.0556666 0.387897 0.906849 -0.164808
0.106278 -0.0344206 -0.0658832 -0.60744 0.209039 0.766367
-0.0250524 -0.487389 0.104277 -0.368822 -0.921931 0.118381
0.351139 0.190781 -0.268534 0.239534 0.337739 -0.910251
0.318723 -0.00273268 -0.216697 0.743331 -0.0347458 0.66802
0.124453 -0.289293 -0.0626302 0.658021 0.107279 -0.745319
0.1204 -0.0150232 -0.0553268 -0.604415 0.0273385 0.796201
-0.226714 -0.0668858 0.353583 0.660566 0.0826098 0.74621
-0.013069 0.220047 0.137758 0.922851 0.00294772 0.385147
0.152348 -0.257853 -0.139606 -0.494342 -0.782763 0.378033
-0.105182 0.421273 0.137857 -0.889036 0.208581 -0.407564
0.0463105 0.111349 -0.123457 -0.640036 -0.53967 0.54691
0.0769884 -0.222611 -0.0907182 -0.826625 0.0601772 -0.559527
-0.142862 0.21871 0.285797 0.77766 -0.0615145 0.625669
0.168946 0.0221605 -0.0529041 0.642356 -0.0878497 0.761355
-0.0982925 0.416621 0.204933 -0.354161 0.925127 0.136788
-0.0189258 0.476353 0.0731094 0.401318 0.442264 0.802089
-0.0824132 0.446118 0.111664 -0.510534 0.0590991 -0.857824
-0.00786701 0.142005 0.136469 0.644667 -0.125915 0.754022
0.222877 0.139134 -0.229837 -0.710471 0.0410693 -0.702527
-0.0261992 0.242408 0.0455271 -0.683182 -0.0688454 -0.726996
-0.184624 -0.0636093 0.130309 -0.584964 -0.408715 0.700549
0.20344 0.326953 -0.0810671 0.797126 0.0150127 0.603626
0.398208 0.027762 -0.304489 -0.545188 0.0185424 -0.838109
0.104048 -0.312186 -0.0603606 -0.402531 -0.738967 0.540274
0.0229733 -0.124605 0.0230189 0.122173 0.978677 -0.165122
0.0148271 -0.369267 0.0769082 0.436267 -0.5498 -0.712314
0.00425204 0.284209 0.00635802 -0.769458 -0.00295899 -0.638691
-0.0818759 -0.209612 0.0356586 -0.313544 -0.905531 0.28584
-0.161272 -0.0814119 0.0447578 0.677302 0.417659 -0.60566
0.379165 -0.133281 -0.301193 0.469132 -0.0509714 -0.881656
0.189624 0.367583 -0.181095 -0.734937 0.0360547 -0.677176
-0.193706 0.190817 0.33404 0.710447 -0.064104 0.700825
0.113856 -0.254453 -0.0710308 0.165529 -0.885969 -0.433196
-0.088472 -0.109655 0.208008 0.384849 -0.202812 0.900421
0.0289442 -0.455236 0.0641873 0.761288 -0.00120326 0.648413
-0.0965453 0.165315 0.139239 -0.55244 0.563322 0.614392
-0.336612 0.00548559 0.365924 -0.457154 -0.198533 0.866946
0.197377 -0.370888 -0.219794 -0.692734 0.151133 -0.705179
-0.110282 -0.331388 0.090577 -0.596369 0.103126 -0.796058
-0.219378 -0.353572 0.243043 0.128491 -0.655001 0.744623
0.210724 -0.257349 -0.189107 0.333315 0.875871 -0.348929
0.228449 0.168334 -0.228473 -0.663551 -0.186447 -0.724525
0.187396 0.0275292 -0.078673 0.484845 -0.135034 0.864113
-0.144082 0.378111 0.247909 -0.695752 0.687941 0.206557
0.232791 0.259857 -0.108799 0.19957 -0.116839 0.972893
0.0694483 -0.170211 0.0261164 0.968408 -0.0862193 0.233993
0.220134 0.188226 -0.111311 0.733936 -0.0207029 0.678903
0.0531779 0.227207 -0.00136361 0.175206 0.969081 -0.173736
0.0661586 -0.382047 -0.0899744 -0.6325 0.0203513 -0.774293
0.01266 -0.139118 0.0968616 0.87105 -0.0149664 0.490966
0.0465765 0.440349 -0.0304905 -0.769286 0.0413166 -0.637567
-0.215997 -0.311378 0.208253 -0.520592 0.219029 -0.825234
-0.0707569 0.0307548 0.0989054 0.662591 -0.269344 -0.698875
-0.116026 0.0445559 0.239226 0.775304 -0.0536344 0.629306
-0.084079 -0.198403 0.0814828 -0.669898 0.00470036 -0.742438
-0.0386152 0.185851 -0.0732212 -0.762472 0.0881628 -0.640987
0.179579 -0.199987 -0.0856104 0.60874 -0.144673 0.780067
-0.294169 -0.165995 0.29342 -0.84902 -0.045956 -0.526358
-0.121144 -0.177697 0.00922519 -0.768029 -0.0445743 -0.638862
0.23816 0.0323211 -0.116828 0.756261 -0.069254 0.650595
-0.141209 -0.316532 0.18509 0.571017 -0.540522 -0.617879
-0.10194 0.308567 0.116086 -0.160494 0.436068 -0.885486
0.0733749 0.0939029 -0.0319268 -0.680567 -0.463612 0.567356
0.238614 0.343433 -0.220743 -0.759146 0.127365 -0.638338
-0.0596891 0.448081 0.125864 0.253984 0.766281 0.590174
0.406362 0.00285178 -0.30899 0.693634 -0.0053798 -0.720307
-0.188917 0.117817 0.203469 -0.46684 0.174829 -0.866888
0.0965961 0.187399 -0.0810306 -0.640051 0.116264 -0.759485
-0.116618 -0.166168 0.122546 -0.598765 -0.0184378 -0.800713
-0.0399901 0.360649 0.177116 0.796315 -0.0427451 0.60337
0.109595 -0.318552 -0.124195 -0.598879 0.312759 0.737242
0.255934 -0.00991189 -0.147747 0.783987 0.0313791 0.619983
0.270923 -0.147117 -0.22082 -0.278143 -0.928051 0.247705
0.309351 -0.211749 -0.329803 0.645053 -0.477421 -0.596637
0.194047 -0.384754 -0.202527 0.751477 -0.65972 0.00721409
0.251277 0.231982 -0.140895 0.892359 -0.0432184 0.449253
-0.128459 0.301425 0.26494 0.749283 -0.0600702 0.65952
0.013896 0.206684 -0.110047 0.14059 0.950156 -0.278276
0.0134996 -0.125754 0.040228 0.150553 0.982807 -0.106882
0.18585 -0.091187 -0.193277 -0.767671 0.0500396 -0.638888
0.289963 0.309601 -0.209998 0.35467 0.374801 -0.856582
0.259987 -0.313957 -0.296084 0.612251 -0.760074 -0.217801
0.21459 0.34284 -0.212365 -0.778436 0.045014 -0.626108
-0.270859 -0.155719 0.354624 -0.993982 -0.109361 -0.00628272
0.169845 -0.285294 -0.143587 -0.135188 0.919263 -0.369702
-0.139547 -0.0751271 0.259503 0.686743 -0.0670139 0.723805
0.219916 -0.377315 -0.236649 0.428669 -0.755016 -0.496179
-0.122043 0.161325 0.247664 0.654859 -0.146262 0.741463
-0.116632 -0.427894 0.183493 -0.491354 -0.870788 -0.0173102
0.218268 0.310071 -0.204424 -0.601189 0.0293482 -0.798568
0.140463 0.38961 -0.123714 -0.630154 0.111101 -0.768481
0.258498 0.343236 -0.248213 0.33295 0.799595 -0.499792
-0.0983604 0.330985 0.122825 -0.695496 0.0522783 -0.716625
-0.10024 0.192069 0.232134 0.780624 -0.0500812 0.622991
-0.0390395 0.381008 0.181035 0.685745 -0.0444101 0.726486
0.0417146 -0.206226 -0.107649 0.47363 -0.758647 -0.447359
-0.289569 -0.00192991 0.387802 -0.987429 0.0943988 -0.126777
0.08305 0.183361 0.0387137 0.862921 -0.155056 0.480962
-0.0916138 -0.444794 0.154047 -0.671758 -0.667089 -0.322077
0.327953 0.254253 -0.241458 0.0164677 0.411022 -0.911477
-0.119199 -0.385642 0.18714 0.619161 0.478871 -0.622352
-0.106203 -0.18843 -0.0215739 -0.582732 0.0668123 -0.809914
0.0398059 -0.118201 -0.0457762 -0.776665 0.0604569 -0.627006
-0.0735421 0.264092 0.180631 0.355588 -0.835639 -0.418646
-0.0452405 -0.376898 0.0845358 0.505852 0.688841 -0.519241
0.116748 0.0204122 -0.0600287 -0.725856 -0.115888 0.678014
0.085163 -0.355672 -0.0562002 -0.516401 0.587441 0.623091
0.145455 0.285955 -0.0265934 0.67733 -0.0334749 0.734918
0.159934 -0.309253 -0.183422 -0.690026 0.038419 -0.722764
-0.206012 0.023665 0.107887 -0.787875 0.0630479 0.612599
0.236474 0.352688 -0.109642 0.512263 0.0755254 0.855501
-0.279911 0.133539 0.292553 -0.581666 -0.0885504 -0.808594
0.124354 -0.337736 -0.102212 -0.579095 0.581044 0.571871
-0.167946 -0.102015 0.286848 0.762659 0.0100666 0.646722
-0.174475 0.287 0.20515 -0.835656 0.0553464 -0.546458
0.0932406 0.45865 -0.0136486 -0.149333 0.987647 0.0474641
0.0682307 0.502042 0.0733264 0.0488954 0.998702 0.0142633
0.286154 0.0944651 -0.181356 0.801817 0.00493653 0.597549
0.0787054 0.204875 -0.0753285 0.12349 0.973179 -0.194097
0.303594 0.270394 -0.182189 0.929666 -0.140186 0.340689
0.163865 -0.311618 -0.143986 -0.621165 0.0466897 0.782288
0.0391823 -0.149163 0.0669131 0.761082 0.0195936 0.64836
0.180891 -0.40127 -0.0940977 0.662292 -0.0351806 0.748419
-0.113143 -0.23793 0.103318 -0.820758 -0.0905232 -0.564058
0.344057 -0.112523 -0.345138 0.67 -0.191909 -0.717127
-0.0249986 0.0769101 0.146515 0.65695 0.0906013 0.74847
0.0489015 0.122752 0.0728606 0.779439 -0.261924 0.569097
0.0419077 0.30309 0.0524031 0.203073 0.97902 0.0167613
-0.0709331 -0.0711614 0.0745852 0.594425 0.570039 -0.567199
-0.127535 -0.283587 0.244294 0.866218 -0.137611 0.480344
0.0902789 -0.471713 -0.10647 0.871459 -0.315416 0.375595
-0.0976454 -0.439782 0.0769994 -0.80261 0.094304 -0.589002
0.134823 -0.448944 -0.0527527 0.83947 -0.0603353 0.540046
-0.193893 -0.0409356 0.0712325 -0.795397 0.171637 -0.581278
0.0188535 0.216079 -0.0368568 0.129995 0.98622 -0.102328
0.157544 -0.446842 -0.177282 0.31375 -0.82586 -0.468526
0.202557 -0.189159 -0.144286 -0.425262 0.76047 0.490751
0.203597 -0.231297 -0.215712 -0.696549 0.168911 0.697344
0.121922 -0.265631 -0.149177 -0.685578 -0.0610212 -0.725437
-0.232304 -0.0150533 0.24131 -0.653972 0.0269896 -0.756037
0.0759943 -0.379429 -0.0467725 0.227903 0.890748 -0.393227
-0.217525 0.0493882 0.229284 -0.903433 0.298512 -0.307734
-0.127555 0.0649897 0.266819 0.73194 -0.0466492 0.67977
0.146957 0.361117 -0.126011 -0.635612 0.0736969 -0.768483
-0.00993366 -0.45789 -0.00852372 -0.670981 -0.0581068 -0.739194
0.194244 -0.289668 -0.195546 0.524834 -0.68626 -0.503584
0.103868 -0.288708 -0.116905 -0.19922 -0.936815 0.287557
-0.183393 -0.0612559 0.187775 -0.867995 0.0939887 -0.487597
0.255917 0.289427 -0.12849 0.638101 -0.0919283 0.764445
-0.14179 -0.453798 0.135205 -0.142129 -0.971541 0.189493
0.347365 0.120918 -0.233166 0.615215 -0.0460862 0.787011
-0.181073 -0.027086 0.1958 -0.803545 -0.0148888 -0.595058
0.137295 0.258539 -0.0104808 0.71241 -0.0955269 0.695232
0.121197 -0.462992 -0.0637273 -0.104462 -0.939745 -0.325526
-0.00514753 0.146814 0.0185988 -0.537407 0.170229 -0.825963
0.0677302 -0.0972938 -0.11787 -0.541418 0.605183 0.583627
0.179921 -0.267865 -0.167573 -0.252966 -0.945863 0.203349
0.24346 0.360446 -0.201347 0.864279 0.284971 0.414503
0.293494 0.204823 -0.163094 0.607656 0.0210588 0.793921
0.0723161 0.23399 0.0581507 0.722635 -0.0428069 0.689903
-0.122994 -0.185847 0.0511519 -0.290152 -0.915161 0.279807
-0.0160736 0.457862 0.15969 0.680217 -0.0660851 0.730026
0.179137 -0.339199 -0.210173 -0.652285 -0.133712 -0.746087
-0.22697 0.271122 0.364476 0.793545 -0.132834 0.593837
0.0682327 0.0814834 -0.19 -0.729594 0.0613205 -0.681125
-0.0849298 0.402092 0.226727 0.732195 -0.0591215 0.678524
0.214086 0.210433 -0.0874008 0.54422 -0.288517 0.787771
0.192076 0.414891 -0.0572897 0.770366 -0.188977 0.608953
0.0175471 -0.24377 0.0903884 0.568072 0.0169158 0.822805
-0.154061 0.385873 0.224985 -0.283123 0.60277 0.745996
0.247986 -0.129202 -0.141044 0.714937 -0.0388508 0.698109
0.241491 -0.196093 -0.189037 -0.626076 -0.485833 0.609913
0.272675 -0.285675 -0.306036 0.319983 -0.379667 -0.868023
-0.165241 -0.243959 0.281744 0.730738 0.0162684 0.682464
-0.0281909 0.11435 0.0399537 -0.830109 0.0100061 -0.557512
0.273306 -0.172461 -0.297356 -0.934864 -0.0746998 -0.347058
0.0664003 -0.0587056 -0.0777909 -0.584934 0.414653 0.697076
0.00884122 -0.484016 -0.0380354 -0.587174 -0.130973 -0.798794
-0.0868459 -0.00225702 0.211435 0.571327 0.0144733 0.820595
0.21948 -0.07144 -0.225986 -0.71147 0.0349062 -0.701849
0.00740361 0.105125 0.112855 0.699707 -0.0545275 0.712347
-0.164844 0.0490671 0.0583793 -0.655907 0.0166552 -0.754658
0.204143 0.239617 -0.209919 -0.756671 0.038268 -0.652674
-0.0337101 -0.0384515 0.144602 0.875015 -0.0855186 0.476482
0.0961756 -0.237679 0.00894642 0.468067 0.0692623 0.880975
-0.179123 0.0212831 0.188261 -0.652353 0.0729473 -0.754396
-0.0315136 -0.463357 0.000924844 -0.660903 0.0906263 -0.744979
0.223873 -0.215954 -0.237782 0.0348133 0.998425 -0.0440023
-0.0780385 -0.131638 0.184222 0.681156 -0.00264702 0.732133
0.15476 -0.421007 -0.142163 0.401796 -0.912557 -0.0761613
0.189929 0.307694 -0.180962 -0.75323 0.0558495 -0.655382
0.139753 -0.476525 -0.0646391 0.720311 -0.0375347 0.692635
-0.0197606 -0.219134 -0.0547616 -0.0101123 -0.989893 0.141453
0.24441 -0.0326339 -0.137536 0.716113 -0.0164017 0.697792
-0.0174543 -0.450297 0.113175 0.817742 -0.0246819 0.575055
0.0231014 -0.322194 0.0752217 0.73464 0.121045 0.667572
0.0139571 -0.24709 -0.0335649 -0.266558 0.0113277 -0.963752
-0.104787 0.427832 0.243531 -0.292099 0.954856 0.0541138
-0.191747 0.0169751 0.322286 0.671158 0.0471157 0.739816
0.257732 -0.0965838 -0.279731 -0.750449 -0.020542 -0.660609
0.326543 0.0424272 -0.346793 -0.919224 -0.134058 -0.370211
-0.124765 -0.275362 0.153577 0.188965 -0.948684 -0.253556
0.325397 -0.141813 -0.308332 0.890934 -0.293399 -0.346632
0.101096 0.242705 -0.092954 -0.963658 -0.108289 -0.244207
-0.154961 -0.424029 0.127124 -0.903948 0.0826547 -0.419578
-0.184966 0.0943747 0.198825 -0.915024 0.00884402 -0.403303
-0.213879 0.302538 0.288491 -0.270328 0.62298 0.734043
0.262547 -0.174088 -0.201205 0.635674 0.0525677 -0.770166
-0.0508093 -0.381383 0.0353998 -0.671328 -0.0077652 -0.741119
-0.291322 -0.0213734 0.40794 -0.538825 -0.258802 0.801679
0.104288 -0.0233036 -0.203025 0.587111 0.182628 -0.788636
0.284867 0.306418 -0.161375 0.654796 -0.0446705 0.754484
-0.192052 -0.339707 0.177977 -0.66351 -0.00739817 -0.748131
-0.109154 0.132636 0.0369616 0.412954 -0.78339 -0.464509
-0.0268671 -0.499451 0.00321552 -0.086459 -0.995646 0.0348435
-0.182406 0.100583 0.122288 -0.640469 0.434997 0.632912
0.249767 -0.326886 -0.272505 0.514595 -0.750575 -0.414524
0.0539121 -0.046537 -0.168938 -0.654765 0.33281 0.678617
-0.31452 0.0190507 0.335073 -0.737463 -0.115459 -0.665446
-0.0529654 -0.420273 0.145896 0.625783 -0.0161434 0.77983
0.174633 -0.263188 -0.194512 -0.61164 -0.0465547 -0.789765
-0.142482 0.134665 0.124254 -0.567174 0.560459 0.603489
-0.0933491 -0.24242 0.198816 0.842211 -0.133058 0.522472
0.40141 0.0603335 -0.300248 0.702434 0.0796357 -0.70728
0.160301 -0.213889 -0.129916 0.541725 -0.594124 -0.594602
-0.132377 -0.465281 0.116816 -0.206746 -0.957447 0.201372
0.0838696 0.486315 0.0392259 -0.880774 0.0782647 -0.467024
-0.0968031 -0.127233 0.227074 0.70923 -0.0451263 0.703531
0.248433 0.0158709 -0.25771 -0.769828 0.144517 -0.621675
0.104946 0.439117 0.0392997 0.55931 0.0304262 0.8284
-0.146364 0.0794905 0.265916 0.509723 0.246557 0.824253
-0.197833 -0.0932368 0.0818168 -0.73173 0.039325 -0.68046
0.156951 -0.169044 -0.17065 -0.746923 0.0405504 -0.663673
-0.179057 -0.287577 0.157242 -0.717171 0.0312343 -0.696197
