ply
format ascii 1.0
comment Created by Open3D
element vertex 835
property double x
property double y
property double z
property double nx
property double ny
property double nz
end_header
-0.144081 0.311392 -0.375054 -0.386546 0.266418 0.882952
-0.315413 -0.302056 0.422544 -0.447316 0.172685 0.877546
-0.356455 -0.291295 0.102386 -0.599988 -0.799585 -0.0260299
0.112883 -0.191774 0.490021 0.596686 -0.597593 0.535582
-0.168189 0.450861 0.0591486 -0.158398 0.942413 -0.294565
0.268289 -0.192958 -0.323543 0.537724 -0.272595 -0.797838
-0.368298 -0.00809841 -0.24363 -0.810738 -0.112218 -0.574553
0.435246 0.108548 -0.309619 0.45245 -0.19186 -0.870907
-0.128958 0.18844 -0.521779 -0.696756 0.564421 -0.442673
0.12194 -0.547474 -0.169156 -0.0859259 0.137841 0.98672
0.0165968 -0.132805 -0.482707 0.507772 -0.217887 -0.833482
-0.406861 -0.277434 0.270766 -0.580554 -0.812271 -0.0563258
-0.253914 -0.158795 -0.544991 -0.90248 -0.237263 -0.359495
0.247781 0.378648 -0.140953 0.248972 0.964787 0.0848521
-0.309324 0.409165 0.251557 -0.472426 0.0834715 0.877409
0.180226 -0.308939 0.263751 0.537545 -0.702934 0.465757
-0.0105413 0.461767 0.138403 0.226814 0.965625 -0.126982
-0.37849 0.42959 0.205667 -0.528647 0.263615 0.80687
-0.568232 0.120332 0.171669 -0.548331 0.270655 0.791252
-0.300524 -0.2422 -0.264714 -0.781964 -0.381107 -0.493244
-0.0085267 0.460898 0.0981579 0.0637168 0.997449 -0.0321712
0.0255625 0.330056 0.459046 -0.475023 0.192512 0.858657
0.436635 0.176463 0.0450544 0.792075 0.459556 0.401778
-0.253036 -0.291321 -0.31073 -0.84197 -0.430344 -0.325407
-0.456033 -0.226566 0.229931 -0.765057 -0.618503 -0.179284
-0.357087 -0.23085 -0.104483 -0.818351 -0.550693 -0.164436
0.128289 -0.175337 -0.410124 0.506798 -0.26558 -0.820136
0.186153 0.284311 -0.489711 0.48449 -0.213614 -0.848315
0.184621 0.40156 -0.171871 0.20716 0.976865 -0.0530979
0.560568 -0.245234 -0.101227 0.862455 -0.285386 0.418002
0.0835314 -0.238264 0.457593 0.466629 -0.659159 0.589717
-0.2478 -0.348071 -0.166316 -0.678104 -0.720515 -0.145028
-0.0277709 -0.401827 0.205293 0.132899 -0.950549 0.280704
0.353131 -0.0562159 -0.313488 0.492761 -0.217345 -0.842584
-0.200767 0.490601 0.237541 0.00583122 0.974955 -0.222327
-0.0606084 -0.111011 0.515957 -0.52991 0.321399 0.784792
0.0424938 -0.232842 0.509717 0.581423 -0.679122 0.44804
-0.307847 0.160223 -0.277129 -0.755658 0.383497 -0.530953
-0.0766871 0.47638 0.178674 0.153104 0.939809 -0.30548
-0.186514 0.33381 -0.223155 -0.299366 0.803263 -0.514926
0.0752325 0.40202 -0.237662 -0.0487065 0.982895 -0.177609
0.525843 0.0704064 -0.239314 0.502284 -0.108819 -0.857828
-0.168299 0.296652 -0.308042 -0.332485 0.79028 -0.514695
0.232979 0.371307 -0.418846 0.094356 0.9836 -0.153714
-0.0827292 -0.457055 -0.201147 -0.220292 -0.974775 0.035856
0.00220216 0.406744 0.431208 -0.478657 0.127399 0.86871
0.503457 -0.031794 -0.226409 0.48132 -0.266437 -0.835071
-0.291249 0.439912 0.138486 -0.198372 0.84262 -0.500639
0.320739 -0.480549 -0.0572409 0.283291 -0.806486 0.518967
0.0288791 0.119173 -0.5393 0.454284 -0.164156 -0.875602
-0.379184 0.262382 0.244172 -0.395651 0.1345 0.908499
0.240427 0.19642 0.393366 0.800251 0.304275 0.516735
0.366474 0.217502 0.127679 0.769409 0.532601 0.352626
0.0556956 0.0475941 -0.505788 0.480051 -0.202152 -0.853631
0.450072 0.0490146 -0.284294 0.475315 -0.302838 -0.826054
-0.0969429 -0.448223 -0.286402 -0.57195 -0.818996 -0.0460333
0.0137023 0.231968 -0.572891 0.509958 -0.221135 -0.831289
-0.188361 0.362588 -0.152134 -0.369148 0.837517 -0.40286
-0.0655108 -0.508803 -0.347697 -0.71847 0.408316 -0.563098
0.169535 -0.179687 0.432287 0.721628 -0.461469 0.516041
0.0712839 0.439652 0.111661 0.286615 0.95803 -0.00557142
0.0569192 0.407322 -0.340773 -0.992048 -0.125599 -0.00809174
0.345252 -0.487241 -0.090519 -0.76591 -0.528481 -0.366183
0.372773 -0.0938563 0.234354 0.898704 -0.21962 0.379602
0.0602086 0.440959 0.00722702 0.175862 0.980306 -0.0898527
0.251909 -0.417237 -0.278026 0.434296 -0.171346 -0.884323
-0.23135 -0.110966 0.430164 -0.488831 0.224124 0.843097
-0.200601 0.502953 0.282486 -0.513978 0.247159 0.821425
0.194282 0.0910128 -0.435389 0.522471 -0.260997 -0.811729
-0.35711 0.158269 0.283125 -0.48343 0.185458 0.855512
0.0206316 0.2946 -0.537298 -0.356786 0.815548 -0.455615
-0.341231 0.148163 -0.232596 -0.843165 0.393278 -0.366613
0.378092 -0.334852 0.0412343 0.575974 -0.637658 0.511513
0.144206 -0.23484 0.405304 0.560137 -0.634831 0.5322
-0.302896 0.393821 0.0290715 -0.505989 0.78617 -0.354841
0.216902 -0.513197 -0.166725 -0.13569 -0.919507 0.368911
-0.0506887 -0.14224 -0.51884 0.363628 0.0104118 -0.931486
0.111331 -0.55707 -0.227702 -0.766491 -0.0666277 -0.638789
0.19074 -0.372244 0.15943 0.380782 -0.818636 0.429931
-0.0226187 -0.182897 0.553531 -0.513515 0.277411 0.812001
0.430063 0.247088 -0.0494854 0.683218 0.643688 0.344787
-0.00907886 0.344057 -0.391527 -0.317307 0.885968 -0.338197
-0.219334 0.401514 0.304651 -0.48083 0.129764 0.867159
0.464018 0.139839 0.0338096 0.805846 0.364822 0.466386
-0.394661 0.342983 0.215448 -0.492359 0.225156 0.840766
-0.454797 0.345568 0.14305 -0.733999 0.595815 -0.32596
0.0143161 0.457148 0.306651 0.404632 0.88993 0.210471
-0.31778 0.325364 -0.0655189 -0.559065 0.690646 -0.458753
-0.438949 -0.069495 0.296148 -0.567195 0.280534 0.774332
0.304557 -0.0356563 0.336811 0.89382 -0.0663689 0.443486
-0.437341 -0.14574 0.310984 -0.566459 0.358087 0.742225
-0.14362 0.319853 0.36567 -0.52814 0.280906 0.801349
0.559364 -0.166511 -0.0628805 0.784874 -0.205046 0.584747
0.335624 -0.426976 -0.226162 0.487528 -0.140512 -0.861726
0.0900662 0.234821 -0.531717 0.466425 -0.204397 -0.860622
0.234287 -0.349441 0.154646 0.48078 -0.802227 0.353952
0.196797 0.361579 -0.457997 0.217578 0.924288 -0.313611
-0.259397 -0.109327 -0.534897 0.38089 -0.476063 -0.792645
-0.174188 0.139815 0.391522 -0.428461 0.172596 0.886923
0.067949 -0.384224 -0.391628 0.482214 -0.20952 -0.85063
0.0359317 0.0344922 0.535115 -0.485984 0.218932 0.846102
0.0937804 -0.041846 -0.462794 0.485293 -0.213645 -0.847848
-0.0593938 0.378502 -0.242544 -0.434841 0.856168 -0.279086
-0.060221 -0.357846 0.339056 0.0337746 -0.915097 0.401817
0.107818 -0.4858 -0.0679135 0.00435944 -0.968142 0.250362
0.170868 0.257838 0.472732 0.814842 0.365149 0.450221
0.130558 -0.467541 -0.0125099 0.111197 -0.948781 0.295718
0.109667 -0.535773 -0.266942 -0.249381 -0.937026 0.244522
0.483202 -0.346128 -0.0278901 -0.322684 0.635853 0.701117
0.0238834 -0.453424 0.0231529 -0.0772661 -0.966998 0.242784
0.373266 -0.210831 0.167148 0.673008 -0.436824 0.596863
0.468998 -0.329597 0.00540818 0.502643 -0.12261 -0.855755
0.589886 0.0306862 -0.127741 0.846162 0.267979 0.460648
-0.448586 -0.165693 0.0515761 -0.753652 -0.63335 -0.175716
-0.226133 0.0944525 -0.461926 -0.655004 0.437281 -0.616243
-0.282874 0.246382 0.305483 -0.497063 0.225188 0.837985
-0.160733 -0.424385 -0.397797 -0.411614 0.216935 0.885163
0.0339873 -0.399437 -0.409582 0.479744 -0.178366 -0.859088
0.500561 -0.191172 -0.191927 0.496028 -0.273693 -0.824044
-0.151433 0.0443605 -0.621768 0.482173 -0.181122 -0.857149
-0.105696 0.495288 0.346367 0.284625 0.957715 -0.0420749
-0.265837 -0.157661 -0.422046 -0.864765 -0.206703 -0.457662
-0.21747 -0.357045 0.298115 -0.389587 -0.885783 0.252211
0.499586 -0.0690009 0.0390325 0.855584 -0.0190334 0.517315
0.518809 -0.106788 -0.205925 0.453258 -0.0553925 -0.889656
0.395341 -0.33115 -0.218951 0.533701 -0.259127 -0.804995
0.28415 0.290549 0.191817 0.602775 0.792754 0.0905761
-0.134711 0.48521 0.209995 0.177543 0.951737 -0.250351
-0.119228 0.305643 -0.348554 -0.492408 0.781897 -0.382323
-0.144267 -0.412699 0.0793453 -0.311107 -0.940147 0.139054
0.386612 -0.287037 -0.235335 0.479155 -0.140303 -0.866444
0.0951619 0.0725604 -0.492741 0.556035 -0.243252 -0.794766
-0.137218 -0.427459 -0.114898 -0.464016 -0.885541 0.0225172
0.602436 -0.156611 -0.120307 0.866748 -0.108165 0.486876
0.392794 0.238192 0.0445141 0.722364 0.573184 0.386847
-0.527743 -0.126943 0.191371 -0.794181 -0.572604 -0.203474
0.577474 0.027931 -0.206403 0.488672 -0.215986 -0.84531
0.0200466 -0.392434 0.210558 -0.0480767 -0.81534 0.576983
-0.17235 0.460713 0.098351 -0.101428 0.933308 -0.344454
-0.548714 0.0197398 0.205833 -0.503047 0.228115 0.833611
0.262022 0.00129316 0.404078 0.763037 -0.119363 0.635238
0.258498 -0.253597 -0.316529 0.483772 -0.258532 -0.836137
0.115349 0.262258 -0.527906 0.463766 -0.189542 -0.865445
0.210896 0.34502 0.232239 0.613397 0.7642 0.199355
-0.127916 0.40902 0.354824 -0.475523 0.194237 0.857992
0.239235 -0.532025 -0.220992 0.133232 -0.96221 0.23749
0.351448 0.352139 -0.358894 0.199169 0.97966 0.0244624
0.0391997 -0.346208 0.315095 0.328305 -0.869062 0.370064
0.303481 0.404022 -0.1965 0.328521 0.942875 0.055314
0.543959 -0.226408 -0.00318818 0.696465 -0.341161 0.631305
-0.029611 0.131624 0.479506 -0.500854 0.220702 0.83692
0.350427 -0.228099 -0.269104 0.452947 0.0586057 -0.889609
-0.390323 0.000312729 -0.20768 -0.939201 -0.0705355 -0.336045
0.27717 -0.384048 -0.275227 0.483763 -0.219978 -0.847103
0.441962 -0.0229835 0.129829 0.85614 -0.0387455 0.515289
-0.465013 0.0383976 -0.0541458 -0.914723 0.0338492 -0.40266
-0.287445 0.470781 0.211438 -0.222306 0.923338 -0.313093
0.0862575 0.437139 0.0382785 0.355827 0.934004 -0.0319971
0.194663 0.37423 -0.403183 0.0624092 0.981639 -0.180249
0.13563 0.372282 -0.392731 -0.0528887 0.974095 -0.219867
-0.0629398 -0.181807 0.536836 -0.477302 0.201557 0.855312
-0.187863 -0.148905 -0.595104 0.485502 -0.158009 -0.859837
-0.221094 0.336124 -0.172931 -0.447429 0.759008 -0.472984
0.0682746 -0.44822 0.0443236 -0.0125974 -0.914824 0.403657
0.000556845 -0.424649 -0.420877 0.494319 -0.243064 -0.834607
-0.121163 0.0805453 -0.617594 0.52674 -0.252464 -0.811669
0.195236 -0.438188 -0.307322 0.514928 -0.36926 -0.773625
0.221855 0.425288 -0.234932 0.642493 -0.178545 -0.745201
0.423106 -0.269818 0.0510534 0.710189 -0.478852 0.516074
-0.233253 0.290686 0.319786 -0.481145 0.189711 0.855868
0.359465 0.113658 -0.348892 0.456454 -0.167407 -0.873856
-0.100424 0.0170749 -0.584936 0.455903 -0.15828 -0.875843
0.242387 0.375168 -0.338366 0.197221 0.973385 -0.116729
0.064246 -0.326219 0.331026 0.202651 -0.813895 0.544525
0.0367917 -0.00586706 0.550587 -0.523199 0.35583 0.774369
-0.180694 -0.391561 -0.23848 -0.668697 -0.739243 -0.0797692
-0.293301 -0.0384405 0.370571 -0.482194 0.234784 0.844017
-0.0820199 -0.276621 0.530756 0.209475 -0.856121 0.472416
0.0886598 -0.429711 -0.36935 0.509531 -0.0461911 -0.859212
-0.491883 -0.181768 0.193911 -0.728487 -0.637637 -0.250451
-0.291474 -0.331721 0.336361 -0.172009 -0.979473 0.105097
0.399544 -0.0572019 -0.284048 0.486224 -0.227185 -0.843785
-0.118767 -0.122546 0.487354 -0.513561 0.239216 0.824033
0.208057 -0.0983441 -0.381873 0.513374 -0.269219 -0.814842
-0.0272448 -0.487307 -0.369579 -0.511946 -0.858003 -0.0417401
0.319319 -0.215707 0.221027 0.665886 -0.479318 0.571708
0.154331 0.403832 0.15125 0.608535 0.777111 0.160576
-0.504165 0.133966 0.203792 -0.490942 0.291551 0.820959
-0.0631046 0.0445239 0.481935 -0.529462 0.268047 0.804873
0.38697 -0.0235687 0.221713 0.797618 -0.0313188 0.60235
-0.24477 0.446394 0.0979509 -0.219809 0.916052 -0.33546
-0.368116 0.0663001 -0.233399 -0.850037 0.194644 -0.48944
-0.293939 0.00899593 0.356685 -0.482991 0.238564 0.8425
0.366878 -0.494318 -0.189599 0.345513 -0.83855 0.421255
-0.538164 0.123899 0.108268 -0.912582 0.123674 -0.389741
0.197323 0.382378 -0.31902 0.106173 0.983717 -0.145008
0.349122 0.318465 -0.404106 0.49167 -0.227165 -0.840629
0.308134 0.2652 -0.417821 0.437706 -0.13416 -0.889053
0.289099 -0.496621 -0.161376 0.23632 -0.907552 0.347133
-0.105237 -0.347062 0.389426 0.0976489 -0.936944 0.335561
0.256203 -0.154941 0.350579 0.620671 -0.52128 0.585692
0.0344163 -0.521514 -0.364797 -0.374719 -0.923641 0.0804554
0.157665 0.312101 -0.514199 0.41783 -0.142941 -0.89721
-0.387771 0.165121 -0.145674 -0.799645 0.333934 -0.499055
0.178463 0.381561 0.197955 0.555796 0.815511 0.161346
-0.169574 0.367937 0.335975 -0.444287 0.166258 0.880322
0.00864355 0.419946 -0.14506 -0.0488963 0.97621 -0.211241
0.141 -0.297649 0.32843 0.382157 -0.693682 0.610542
0.156325 0.228507 -0.493354 0.52589 -0.238628 -0.816392
0.428762 0.0154462 0.144573 0.791364 -4.28495e-05 0.611345
-0.17612 -0.406726 -0.0914281 -0.511922 -0.858903 0.014862
0.432823 0.16449 -0.31873 0.433957 -0.175329 -0.883709
-0.192094 -0.383239 -0.202524 -0.630125 -0.769011 -0.107534
-0.32433 -0.147693 0.382877 -0.480271 0.195545 0.855045
0.10702 0.10741 -0.490169 0.447189 -0.131491 -0.884722
0.461838 -0.403233 -0.164607 0.543591 -0.373888 -0.751476
0.366011 0.344335 -0.31628 0.267417 0.958615 0.0977013
-0.52089 -0.0635231 0.105964 -0.891103 -0.287285 -0.351288
-0.245238 -0.331539 0.401588 -0.195474 -0.957983 0.209902
-0.450855 0.127722 -0.0557308 -0.843213 0.222349 -0.489441
0.484487 -0.19668 0.0268345 0.740432 -0.313342 0.594623
0.0890048 -0.179381 -0.430649 0.490456 -0.256128 -0.832977
-0.499631 0.111947 0.0217055 -0.849073 0.147473 -0.507274
-0.253982 0.254208 -0.260202 -0.644405 0.617842 -0.45057
0.36844 0.191456 0.159201 0.88405 0.274946 0.377968
0.00831382 0.4585 0.3417 0.548715 0.810104 -0.206503
0.355537 0.341838 -0.239649 0.404246 0.91096 0.08208
0.103496 0.179748 -0.516569 0.485615 -0.222868 -0.845286
0.131071 -0.077999 0.559051 0.729552 -0.3824 0.567031
0.161612 0.406972 0.0713004 0.360797 0.923117 0.132967
0.00538844 0.00122632 -0.525531 0.482809 -0.209848 -0.850211
0.031732 -0.379439 0.245021 0.24102 -0.920658 0.307079
-0.194451 -0.272608 0.481235 -0.559579 0.252335 0.789429
0.25422 -0.256311 0.263607 0.366089 -0.7141 0.596691
0.0837618 -0.215873 -0.427896 0.477087 -0.237547 -0.846143
0.0125833 -0.103335 0.555937 -0.515674 0.252148 0.818842
0.250602 -0.507039 -0.151152 -0.314223 -0.428718 -0.847033
0.0482063 -0.0947948 0.582371 -0.566727 0.250188 0.785001
-0.168287 0.12678 -0.595229 -0.595911 -0.755973 0.270913
-0.0663543 0.22288 0.433123 -0.553471 0.274216 0.786432
0.0729465 -0.494428 -0.114616 -0.191153 -0.951194 0.242263
-0.297495 -0.143819 -0.360618 -0.915343 -0.0969187 -0.390837
-0.384676 0.127159 0.27764 -0.483022 0.213671 0.849138
-0.327835 -0.311294 0.0543259 -0.721242 -0.682259 -0.119719
-0.156548 -0.408097 -0.256034 -0.637293 -0.767365 -0.0707677
-0.0141548 0.266351 -0.556662 -0.567868 0.739682 -0.361105
0.460819 0.0185133 -0.267984 0.441843 -0.0270331 -0.896685
-0.215052 -0.381307 0.0424579 -0.39009 -0.92034 0.0283514
-0.441202 -0.0178385 -0.0966118 -0.961924 -0.0184971 -0.272691
0.591085 -0.223061 -0.133154 0.782905 -0.253516 0.568145
-0.0515769 0.3613 0.406743 -0.484389 0.224142 0.845652
0.0709069 -0.530693 -0.332271 -0.350133 -0.931718 0.0964801
-0.231996 0.138133 -0.415513 -0.825062 0.393893 -0.405119
0.163473 -0.466466 -0.321996 0.47637 -0.173142 -0.862029
0.115281 -0.522466 -0.206818 -0.645265 0.435002 0.628018
-0.187305 0.27642 0.348371 -0.494619 0.294724 0.817612
-0.0207429 0.211866 0.461173 -0.574812 0.362993 0.733367
0.207037 0.179153 0.470276 0.780062 0.268844 0.565
0.0532593 -0.12775 -0.468456 0.556601 -0.271812 -0.785056
-0.220308 -0.303497 -0.381366 -0.813257 -0.563872 -0.143736
-0.505596 0.195812 0.0768273 -0.86248 0.275086 -0.424801
-0.0521665 0.214936 -0.609511 0.49726 -0.191549 -0.846192
-0.49512 0.238927 0.187967 -0.489321 0.215042 0.845176
-0.0988191 0.398413 0.374207 -0.504214 0.255672 0.824864
-0.495339 -0.200575 0.293539 -0.525339 0.293015 0.79885
-0.511543 0.206702 0.1843 -0.512929 0.291956 0.807258
-0.0984536 0.245288 -0.569939 -0.668231 0.685765 -0.288432
0.0814058 0.0400285 0.561194 -0.413255 0.0361058 0.909899
-0.0508744 -0.209633 0.548987 -0.578724 0.402263 0.709411
0.313797 0.362224 -0.312717 0.23508 0.97195 -0.00707022
0.341575 -0.124396 -0.296999 0.500137 -0.23364 -0.833831
-0.0679215 0.472722 0.12628 0.151681 0.972749 -0.175363
0.154881 0.00703776 0.573317 0.823055 -0.186629 0.536424
-0.299989 -0.336679 0.122619 -0.592138 -0.80577 0.0103565
0.388151 -0.415284 -0.069656 -0.699364 -0.685935 -0.200956
0.167745 -0.115844 -0.398396 0.516831 -0.257593 -0.816414
-0.191214 -0.397794 -0.0505801 -0.633054 -0.767686 -0.0994976
0.0715411 -0.461656 -0.367777 0.464224 -0.318187 -0.826591
0.348626 0.336354 -0.152084 0.523841 0.844085 0.114503
-0.144586 -0.223488 0.497045 -0.496399 0.231903 0.836546
-0.344917 0.369401 0.234182 -0.493725 0.240941 0.835574
0.394642 -0.390099 0.0129408 -0.577832 0.296055 0.760567
0.104089 -0.393261 0.17575 0.215053 -0.888614 0.405114
0.50092 0.0538947 0.0171659 0.813874 0.195474 0.547174
0.197024 0.304033 0.356749 0.736625 0.587565 0.33489
0.537861 -0.0383252 -0.206723 0.478531 -0.147165 -0.865651
0.241005 -0.374022 -0.290213 0.287321 -0.0971749 -0.952892
-0.332034 0.0609346 -0.29571 -0.924269 0.0716793 -0.374953
0.135539 0.379193 0.312905 0.698162 0.681531 0.219284
0.253195 -0.451899 -0.0259432 0.286831 -0.871927 0.396827
-0.000969453 -0.48836 -0.15291 -0.114839 -0.986094 0.120125
0.170946 -0.114984 0.485996 0.768221 -0.359564 0.529671
0.0162251 -0.0905419 -0.4942 0.482788 -0.210051 -0.850173
-0.37487 -0.0902656 -0.210953 -0.894386 -0.0745687 -0.441036
0.595598 0.102698 -0.199261 0.808705 0.428929 0.402512
-0.547187 -0.0254226 0.142429 -0.911045 -0.260766 -0.319372
-0.187938 0.107204 -0.519312 -0.843596 0.407481 -0.349721
0.0432343 -0.48322 -0.0931777 -0.29855 -0.917781 0.261812
-0.263771 -0.354716 0.185079 -0.463201 -0.885379 0.0393487
-0.0183225 -0.455741 0.0205295 -0.166781 -0.933853 0.31639
-0.202663 0.408837 -0.0305276 -0.396556 0.872779 -0.284604
-0.434563 0.161187 -0.0711692 -0.87171 0.234884 -0.43006
0.322813 0.310042 0.0435107 0.657687 0.726006 0.200905
0.355259 -0.391649 -0.0115552 0.4505 -0.721336 0.526046
-0.20862 -0.215598 -0.516222 -0.865564 -0.326584 -0.37966
0.491675 -0.322753 -0.166286 0.42045 -0.147724 -0.895209
0.520298 0.124173 -0.261565 0.530157 -0.278102 -0.800995
-0.451394 0.227879 0.00534379 -0.824838 0.38768 -0.411518
-0.282576 -0.235023 0.424916 -0.484989 0.219917 0.846417
-0.209199 0.478482 0.175612 -0.0952117 0.906997 -0.410232
-0.329107 -0.268375 -0.115948 -0.76916 -0.610709 -0.188224
0.389703 0.332426 -0.270281 0.454107 0.886133 0.0924915
-0.252529 -0.334646 0.363024 -0.243202 -0.928807 0.27959
-0.396149 -0.199036 -0.0508261 -0.850738 -0.432419 -0.298762
-0.0408837 -0.139825 0.540611 -0.497555 0.2613 0.827141
-0.427594 0.317552 0.205886 -0.483914 0.181561 0.856074
-0.201231 0.016712 -0.617469 -0.285593 -0.953891 0.0923457
0.183811 0.395583 -0.472535 0.833723 0.273544 0.479666
0.416735 -0.390193 -0.0105063 0.656283 0.704463 0.27023
-0.317829 -0.263057 -0.154912 -0.799978 -0.482007 -0.357357
-0.171246 -0.351301 -0.417831 -0.805633 -0.541129 -0.241112
-0.113124 -0.368332 0.304174 0.0497736 -0.977512 0.204924
-0.058376 0.14424 0.45484 -0.482167 0.207001 0.851273
0.25117 0.380321 -0.238519 0.253114 0.967175 -0.0224724
-0.507137 -0.00232668 0.0451739 -0.896869 -0.163719 -0.410881
0.383895 -0.292455 0.0817054 0.499293 -0.598642 0.626366
0.0543851 0.441799 0.244517 0.489013 0.866082 0.103771
0.16096 0.408122 -0.138221 0.30542 0.94736 -0.0960588
0.413679 0.247963 -0.350214 0.4752 -0.0761839 -0.876573
-0.073817 -0.434989 0.0526294 -0.22899 -0.955114 0.187938
-0.100133 -0.433643 -0.3957 -0.637313 -0.762222 -0.113352
0.287463 0.075896 -0.378799 0.484321 -0.211789 -0.848869
0.0750999 -0.364875 0.250776 0.261471 -0.880564 0.395272
0.41831 0.338878 -0.163296 0.499818 0.829794 0.248239
0.218273 0.388696 -0.0612525 0.405121 0.91418 0.012353
0.0250735 -0.182965 0.583164 -0.492499 0.110998 0.863206
-0.466229 0.00170563 0.260485 -0.476834 0.139209 0.8679
-0.209591 0.334641 0.324752 -0.447899 0.117731 0.886299
0.478555 0.0302775 0.059136 0.844603 0.167957 0.508366
-0.183494 -0.322642 0.459448 0.134734 -0.96767 0.213216
0.30888 -0.385388 0.0482259 0.470333 -0.738572 0.483009
-0.214512 0.25182 -0.310895 -0.680016 0.612745 -0.402644
-0.242791 -0.0875917 -0.496132 -0.949546 -0.0356856 -0.311591
-0.495326 -0.00200133 0.247273 -0.513099 0.24882 0.821473
-0.17053 0.496411 0.308759 -0.486951 0.214868 0.846588
0.290515 0.315038 0.111804 0.623661 0.730248 0.278901
-0.166964 -0.387774 -0.345895 -0.685973 -0.691175 -0.227416
-0.187542 0.148402 -0.478841 -0.752283 0.45839 -0.473231
-0.0451612 -0.318599 0.426262 0.214578 -0.885797 0.411485
-0.204882 -0.276353 -0.464523 -0.85223 -0.43485 -0.290877
-0.19539 -0.392128 -0.121549 -0.560231 -0.827033 -0.0464463
0.143607 0.400646 0.204094 0.44434 0.880965 0.162673
0.104704 -0.0101803 0.582696 -0.526265 0.344012 0.777625
0.200957 0.342244 0.268836 0.66856 0.699008 0.253803
-0.384798 -0.247489 0.0148722 -0.734987 -0.647034 -0.202831
0.365135 0.252319 -0.37863 0.476101 -0.201026 -0.856105
-0.273699 -0.281917 0.441331 -0.427236 0.130413 0.894685
0.591731 -0.102337 -0.161717 0.471664 -0.19854 -0.859136
-0.257869 -0.356309 0.22315 -0.495471 -0.85394 0.159044
-0.0537239 -0.445277 0.0189347 -0.247963 -0.942597 0.223664
0.0910791 -0.157804 0.549833 0.737232 -0.50856 0.444811
-0.284286 -0.305767 -0.170064 -0.659378 -0.739642 -0.134719
0.196509 -0.0395665 0.488968 0.846681 -0.246552 0.471533
0.269855 -0.0759547 -0.35741 0.502497 -0.227761 -0.834039
-0.445734 -0.101821 -0.0506377 -0.881685 -0.248135 -0.401324
-0.251544 -0.0531569 -0.480703 -0.679527 0.108709 -0.725551
-0.117115 0.285293 0.391593 -0.489262 0.217041 0.844699
-0.039428 0.0579451 -0.564872 0.55016 -0.299169 -0.779629
0.282836 0.142164 -0.402788 0.482976 -0.262156 -0.835469
0.192908 -0.105907 0.4598 0.785818 -0.407715 0.465036
0.371025 -0.146029 -0.278885 0.474993 -0.206722 -0.855364
-0.319109 -0.298454 -0.0689328 -0.753781 -0.614131 -0.233789
0.52266 -0.17022 0.00115744 0.283537 0.958953 -0.0039215
-0.231603 -0.209474 -0.569716 -0.909241 -0.251669 -0.331578
0.218165 0.302269 0.30574 0.684041 0.609289 0.401066
0.11601 -0.0995095 -0.439715 0.485186 -0.2854 -0.826523
0.305228 -0.283565 0.177497 0.593621 -0.602353 0.533652
0.209502 -0.204901 0.359463 0.653974 -0.518841 0.550565
-0.215904 0.126165 -0.451137 -0.780291 0.470049 -0.412553
-0.110469 0.340974 -0.342314 0.724476 0.606057 0.328373
0.219848 -0.466338 -0.0412763 0.146061 -0.800092 0.581824
-0.32664 -0.0730843 -0.32617 -0.896228 -0.125724 -0.425405
-0.150493 -0.0471736 0.451555 -0.489939 0.35031 0.798275
0.288721 -0.162321 -0.321292 0.369382 -0.120539 -0.921427
-0.220926 -0.379074 0.125235 -0.34059 -0.935644 -0.0925687
0.196802 0.155341 -0.451549 0.5211 -0.324529 -0.789389
0.391941 0.33431 -0.338666 0.379051 0.924779 0.0332346
-0.260552 -0.267531 -0.326073 -0.84364 -0.465986 -0.2667
0.395205 -0.0718786 0.200204 0.869018 -0.107274 0.483011
0.0707807 0.439859 0.0740266 0.316438 0.946544 -0.0626267
0.348785 -0.112123 0.257897 0.797085 -0.24332 0.552676
-0.337683 -0.00647745 -0.308823 -0.895363 0.00523454 -0.445307
0.226677 0.188058 -0.444266 0.48282 -0.214576 -0.849024
0.152533 0.412755 -0.107561 0.251673 0.965002 -0.0737023
-0.0690154 -0.045884 0.495208 -0.475939 0.189158 0.858895
-0.558979 -0.0716256 0.225046 -0.524143 0.263519 0.809834
0.0977365 -0.507451 -0.147575 -0.0447927 -0.968932 0.243239
0.0816183 0.210859 0.51866 -0.488723 0.217839 0.844805
-0.257267 -0.237448 -0.482673 -0.845619 -0.305462 -0.437745
-0.374991 0.381719 0.0936023 -0.496163 0.756849 -0.425443
0.023341 -0.367954 0.286005 0.290137 -0.898581 0.3292
0.106362 0.404053 0.302081 0.560638 0.827995 -0.010501
-0.0163013 0.390915 -0.239444 -0.223039 0.956709 -0.186978
-0.41084 0.0397968 -0.155359 -0.861215 0.18678 -0.472675
0.256517 0.379385 -0.197038 0.25023 0.968186 -0.000554572
0.220255 -0.294363 0.250421 0.471373 -0.640112 0.606683
0.427234 0.289618 -0.349825 0.47553 -0.193555 -0.858142
0.485435 -0.284525 -0.0303393 0.628476 -0.497241 0.598138
0.454204 -0.0936902 0.108494 0.760537 -0.0732157 0.645153
0.197056 -0.287838 -0.344625 0.459324 -0.184369 -0.868924
-0.0346474 -0.191891 -0.503084 0.495004 -0.172476 -0.8516
-0.314617 0.0928424 0.324184 -0.480199 0.205908 0.852649
-0.195119 -0.115194 -0.586909 -0.927036 -0.12909 -0.352052
0.113562 0.382331 -0.342673 -0.144936 0.975976 -0.162681
0.485051 0.134571 -0.00546216 0.807816 0.390965 0.441113
0.111583 0.0269063 0.584891 -0.458225 0.119769 0.88073
-0.282933 -0.16651 0.404083 -0.479965 0.18661 0.857211
-0.423464 0.00138255 0.283614 -0.495689 0.309536 0.811468
-0.188054 0.0390895 -0.564466 -0.695008 0.371462 -0.615614
0.180263 0.222965 0.491756 0.884663 0.363394 0.292089
-0.408137 -0.13106 0.328349 -0.485742 0.214834 0.847291
0.0781707 0.325903 -0.519855 -0.255645 0.902038 -0.347813
0.0188212 -0.228827 0.538178 0.496457 -0.711746 0.496938
0.119715 0.364266 0.405873 0.68138 0.684346 0.259599
-0.344397 -0.177201 0.374286 -0.482517 0.151476 0.862689
0.0920775 -0.534948 -0.299817 -0.267439 -0.949851 0.162046
-0.00304579 -0.0264525 0.53473 -0.485877 0.265162 0.832834
-0.278493 0.458047 0.252652 -0.418916 0.161686 0.893514
0.0586748 0.265105 0.496872 -0.467471 0.178629 0.865773
0.436939 0.314286 -0.126863 -0.732326 0.44546 0.515037
0.417672 0.0327263 -0.296288 0.471313 -0.0849501 -0.877865
0.554348 0.130615 -0.245758 0.486142 -0.0651938 -0.871445
0.107904 -0.361144 0.243999 0.299914 -0.858408 0.416158
-0.125754 -0.325813 0.422928 0.0608804 -0.934701 0.350182
0.249946 0.0653429 0.43001 0.844938 0.0351141 0.533711
0.275483 -0.176638 0.312019 0.700203 -0.434195 0.566737
0.159101 -0.0270628 -0.432035 0.483745 -0.219782 -0.847164
-0.0973061 -0.486371 -0.345509 -0.558876 -0.828768 0.0282982
-0.189375 0.253278 -0.353979 -0.583798 0.654625 -0.480257
-0.543263 0.0358127 0.108081 -0.906345 -0.11915 -0.405392
-0.108543 0.489669 0.257269 0.12543 0.98518 -0.116996
0.129278 0.146486 -0.492362 0.521321 -0.260869 -0.81251
-0.0626505 -0.462632 -0.117362 -0.436221 -0.893237 0.108803
-0.155602 -0.276372 0.503836 -0.468981 0.380682 0.796956
-0.162116 0.480308 0.161811 -0.141114 0.969707 -0.199388
-0.366218 -0.204752 -0.138181 -0.882881 -0.442947 -0.155947
0.522132 -0.26159 -0.00948797 -0.119048 -0.986551 -0.112003
0.187834 -0.514951 -0.293953 0.473516 -0.163839 -0.865413
0.20115 0.258303 0.408748 0.783107 0.456069 0.422782
0.138444 0.226149 0.549733 -0.508378 0.287838 0.811604
0.422681 -0.0466897 0.155618 0.780274 0.0250176 0.624937
-0.0634177 0.393784 0.387524 -0.54485 0.226521 0.807358
0.420797 0.303984 -0.234379 0.56296 0.824712 0.0540847
0.368214 0.258079 0.0615387 0.75297 0.583577 0.304094
-0.501345 0.0245655 0.0269165 -0.769755 0.025214 -0.637842
-0.0416753 0.466197 0.388688 -0.431567 0.128833 0.892834
0.236637 0.383082 -0.293415 0.217281 0.972545 -0.0833428
-0.420766 0.0840411 -0.126696 -0.817008 0.174753 -0.549508
-0.153116 0.431201 0.330391 -0.539871 0.257702 0.801329
-0.306422 -0.289847 -0.133324 -0.775802 -0.592517 -0.216922
-0.362947 0.0237112 0.307912 -0.529096 0.246629 0.811931
-0.0306681 -0.433308 0.0875917 -0.102073 -0.949519 0.296638
0.0744781 -0.265978 -0.420852 0.659492 -0.317753 -0.681252
0.402247 -0.255683 0.087613 0.71533 -0.491113 0.497102
-0.347134 0.23307 -0.152596 -0.675436 0.480426 -0.559443
0.0816015 -0.517468 -0.218367 -0.272859 -0.902119 0.33426
-0.491053 0.103849 0.223227 -0.480061 0.317816 0.81764
0.156715 -0.0804868 -0.421094 0.424716 -0.175401 -0.888173
0.00547681 0.366231 -0.340721 -0.282143 0.91513 -0.287981
0.222421 -0.328744 0.19995 0.506121 -0.711661 0.487217
-0.472103 -0.0732146 0.275017 -0.475551 0.154478 0.866018
-0.315222 0.251178 0.284273 -0.35876 0.186344 0.914641
0.139296 -0.388634 0.161993 0.178511 -0.762677 0.621657
0.255922 0.329205 0.160778 0.632168 0.738279 0.235178
0.122788 -0.397424 -0.356049 0.417498 -0.0992527 -0.903241
-0.0784046 0.404688 -0.160744 -0.215746 0.925359 -0.311712
0.186761 -0.34038 0.221341 0.362453 -0.756504 0.544362
0.178655 0.40978 -0.0764984 0.284375 0.958708 0.00303014
-0.132463 0.377205 0.355309 -0.37928 0.0821177 0.921631
0.521483 0.00323252 -0.00484814 0.84483 0.13926 0.516593
0.0646757 0.0668272 0.543818 -0.443793 0.14877 0.883694
-0.0352837 -0.0786297 -0.524045 0.483749 -0.166282 -0.859266
-0.0606293 0.0261749 -0.566851 0.463029 -0.0630952 -0.884094
-0.551698 0.063843 0.199583 -0.458574 0.195465 0.866893
-0.365058 -0.300799 0.316078 -0.3825 -0.923633 -0.0244189
-0.113776 -0.0806569 0.482177 -0.468115 0.144246 0.871815
-0.45649 -0.0312394 0.271342 -0.47269 0.195625 0.859241
0.0616629 0.167675 -0.531025 0.413078 -0.176708 -0.893387
0.00952685 -0.37112 -0.426958 0.472962 -0.204463 -0.857031
-0.0586007 0.448263 -0.00289649 0.0784634 0.964399 -0.252542
0.585363 -0.157549 -0.151902 0.49184 -0.0699974 -0.867867
0.105117 0.104943 0.561467 -0.482915 0.203366 0.851725
0.324329 -0.00246412 0.318413 0.835547 -0.0645202 0.545617
0.20221 0.0351931 0.505404 0.747612 -0.0909719 0.657876
0.130998 0.335623 -0.533806 0.463586 -0.157243 -0.871988
0.0754581 0.418495 -0.154453 0.0389951 0.985348 -0.166041
-0.52451 0.0110274 0.0824017 -0.869217 -0.0139029 -0.494234
0.0328394 0.416277 -0.314992 -0.416476 0.188689 0.88935
-0.256935 -0.345476 -0.122568 -0.662443 -0.737223 -0.132934
-0.255513 -0.362398 0.128382 -0.327946 -0.944696 -0.000405696
0.107647 -0.255136 0.408185 0.554152 -0.684626 0.4735
-0.287918 -0.319117 -0.120346 -0.726698 -0.670831 -0.147968
0.43637 0.311 -0.276448 0.51124 0.800656 0.312384
-0.532779 0.0938003 0.203377 -0.402927 0.133582 0.905431
0.271723 0.36744 -0.368721 -0.10977 0.991571 0.0688322
-0.446182 0.288951 0.0635016 -0.765826 0.568028 -0.301422
-0.315349 -0.317471 0.382969 -0.189441 -0.974826 0.117589
0.285783 -0.236071 -0.305446 0.482756 -0.214267 -0.849139
0.00784007 -0.272039 -0.448387 0.476736 -0.438787 -0.761701
0.380863 -0.109182 -0.27664 0.487903 -0.214657 -0.846093
-0.503987 0.0668459 0.219291 -0.475853 0.324764 0.817369
0.0616192 0.354366 -0.423673 -0.313811 0.910518 -0.269221
0.426214 -0.415966 -0.057754 -0.516064 -0.78343 -0.346289
0.565331 0.185444 -0.242589 0.828622 0.487749 0.274747
-0.272949 0.397888 0.274363 -0.475522 0.150349 0.866761
0.0222221 0.364559 0.450902 -0.459225 0.0976594 0.882936
-0.111746 -0.440745 -0.1469 -0.496942 -0.867517 0.0215231
-0.0758061 0.237846 -0.598908 -0.564612 0.683331 -0.462895
0.340574 -0.34662 0.0613741 0.496994 -0.681033 0.537765
0.022846 0.433792 -0.072565 -0.119151 0.991503 -0.0522022
-0.376862 0.0299762 -0.228155 -0.860489 0.091514 -0.501182
0.0483819 -0.518811 -0.289619 -0.341778 -0.934515 0.0993443
-0.57395 -0.0201653 0.205952 -0.532703 0.264237 0.803994
-0.344585 -0.248632 0.394438 -0.450754 0.340377 0.825206
-0.385895 -0.0441723 -0.202913 -0.881278 -0.0728612 -0.466948
0.562226 -0.211772 -0.154064 0.523818 -0.294615 -0.79926
0.00844885 -0.260378 0.496759 0.459948 -0.779279 0.425643
0.575905 -0.130283 -0.0126527 0.816912 -0.122366 0.563632
-0.199791 -0.0772086 -0.578376 -0.886637 0.027545 -0.461644
0.31806 0.353571 -0.422213 0.26889 0.961516 -0.0564421
0.390972 0.226335 -0.356533 0.411957 -0.0946971 -0.906269
-0.164715 0.109445 0.405039 -0.480956 0.232056 0.845477
0.112321 0.349445 -0.46568 -0.0431386 0.899591 -0.434597
-0.0655508 -0.3895 0.226878 0.0274284 -0.98135 0.190263
0.572841 -0.0203869 -0.194761 0.477656 -0.17083 -0.861778
0.301874 -0.321477 0.134619 0.509895 -0.659236 0.552644
-0.186104 -0.378167 -0.274382 -0.743814 -0.642989 -0.182497
-0.0768174 0.33643 0.397498 -0.507081 0.358259 0.783913
-0.374628 -0.22775 -0.0704707 -0.756608 -0.587812 -0.286393
0.478499 0.252799 -0.197944 0.672686 0.709234 0.210905
0.0351599 0.452584 0.204876 0.296563 0.954073 0.0423625
0.494934 -0.357966 -0.152752 0.448939 -0.160054 -0.879111
-0.223172 -0.113462 -0.552785 -0.128997 -0.959055 0.252138
-0.0609517 0.16637 -0.602371 0.492714 -0.234102 -0.838111
-0.209415 -0.384941 0.0876234 -0.466657 -0.883476 0.0412401
-0.387725 0.193565 -0.12914 -0.766436 0.418071 -0.48764
0.211307 -0.407496 -0.305627 0.524986 -0.272594 -0.806277
0.550988 0.000335456 -0.210024 0.511429 -0.252003 -0.821544
0.399626 0.182106 0.109601 0.808751 0.445401 0.384108
0.273327 0.376923 -0.301343 0.282125 0.958486 -0.0413506
0.267137 0.105655 0.396278 0.878259 0.118548 0.463258
-0.3472 -0.292237 0.399313 -0.477428 0.232925 0.847236
0.425398 0.22538 -0.0188218 0.71206 0.629389 0.311191
-0.153073 0.41589 -0.0626286 -0.163392 0.881012 -0.443983
0.369475 -0.448051 -0.0346063 0.380896 -0.731655 0.56533
-0.217337 0.0378199 -0.514123 -0.890162 0.189903 -0.414183
-0.190582 0.217402 0.369465 -0.525833 0.258378 0.810395
0.147474 -0.162771 0.479294 0.483448 -0.528976 0.697469
0.119807 0.195936 0.541965 -0.491948 0.243849 0.835778
0.222726 0.214463 0.416834 0.777088 0.351072 0.522382
-0.0399794 0.286293 0.431592 -0.442176 0.125678 0.88808
0.197992 0.28126 0.383826 0.744186 0.576489 0.337413
-0.481103 -0.201328 0.225113 -0.724376 -0.683584 -0.0893963
0.323512 -0.281378 -0.270499 0.468846 -0.207572 -0.858544
-0.0459996 0.462973 0.0945221 0.111187 0.966299 -0.232174
0.386273 -0.46103 -0.072384 -0.0396104 -0.587808 -0.80803
0.386939 -0.378363 -0.0292623 0.565998 -0.71996 0.401625
-0.229514 -0.343008 0.336126 -0.20756 -0.963245 0.170524
0.247313 0.324613 -0.46402 0.493944 -0.239626 -0.835822
0.298424 0.234817 0.250672 0.728282 0.615988 0.300274
-0.144518 -0.391943 0.17184 -0.167951 -0.972928 0.158759
0.47254 0.0904787 -0.282245 0.541308 -0.279608 -0.792973
0.566485 -0.0135132 -0.0742595 0.878577 0.131163 0.459238
0.398098 -0.299085 0.051603 0.563986 -0.495454 0.660639
0.557588 -0.193119 -0.00519418 0.710455 -0.263264 0.652645
-0.291396 -0.0463269 -0.39784 -0.924241 -0.0138502 -0.381559
-0.334366 -0.161357 -0.263389 -0.934779 -0.201812 -0.292335
-0.338865 0.291998 0.260927 -0.567975 0.251126 0.783799
-0.133901 -0.451526 -0.434958 -0.720037 -0.677496 -0.150151
0.294125 0.337979 0.00929142 0.664398 0.731826 0.151678
-0.233915 -0.135488 -0.489872 -0.868687 -0.156327 -0.470048
-0.023846 0.302635 -0.549959 -0.326035 0.159328 0.931835
0.228155 -0.163421 0.377078 0.601171 -0.528693 0.59923
-0.402096 0.409443 0.194942 -0.468012 0.409774 0.782975
0.162384 -0.186016 -0.391944 0.483388 -0.210771 -0.849654
-0.0252812 0.378814 -0.287769 -0.207647 0.895192 -0.394352
-0.0651658 0.273516 -0.491768 -0.483893 0.715152 -0.504386
-0.371518 -0.262679 0.378537 -0.546585 0.288397 0.786176
0.460165 -0.0125635 0.109787 0.815171 0.0283638 0.578525
0.458955 -0.299381 -0.00518023 0.509601 0.838152 0.194443
-0.16925 0.00546034 -0.621762 -0.834396 0.219624 -0.505519
0.256177 0.223947 0.34655 0.817363 0.340982 0.464381
-0.227537 0.387464 -0.0702048 -0.350261 0.83101 -0.432134
-0.368125 0.345762 0.0188989 -0.499691 0.711797 -0.493613
-0.42347 -0.0323707 0.29382 -0.496064 0.268739 0.825651
0.032247 0.292268 0.469166 -0.460399 0.151456 0.874696
-0.333784 -0.311528 0.329946 -0.466834 -0.881764 0.0675124
0.092407 -0.178608 0.52337 0.647324 -0.566606 0.509832
0.502435 0.0039577 0.0412646 0.810783 0.0639229 0.581847
-0.233614 -0.121407 -0.595467 -0.844026 -0.0604822 -0.532882
-0.263032 -0.224682 -0.37475 -0.841644 -0.423566 -0.335004
-0.197872 0.373665 -0.118533 -0.327846 0.804662 -0.495011
-0.263481 0.387191 -0.0190841 -0.361746 0.820796 -0.442078
-0.178162 -0.386953 0.183233 -0.27437 -0.947258 0.165601
0.156899 0.136355 0.573748 0.834508 0.122873 0.537121
0.0724352 0.426391 -0.0980863 0.0630423 0.993409 -0.0957305
-0.0337324 0.332738 0.423308 -0.46695 0.172293 0.867337
0.324912 -0.241603 0.196337 0.682667 -0.52551 0.507745
-0.0849823 0.379601 -0.223157 -0.342762 0.910706 -0.230498
0.303151 0.14211 0.318936 0.865655 0.263635 0.425604
0.0287929 0.441309 0.372411 0.458564 0.88172 0.110851
0.0966796 0.414036 -0.347527 0.370521 -0.14347 -0.917677
-0.123118 -0.315515 0.462608 0.227669 -0.95369 0.196575
-0.0291721 -0.343098 0.362358 0.152702 -0.904499 0.398201
0.569075 0.0677924 -0.218579 0.504283 -0.234041 -0.831218
0.251429 0.366293 0.00841441 0.468048 0.870404 0.152733
0.0909557 0.362003 0.478195 0.697256 0.653818 0.293864
0.206996 -0.231735 -0.350213 0.503143 -0.240035 -0.830199
-0.321887 0.134859 0.310726 -0.386184 0.129858 0.913235
-0.190557 -0.393337 -0.159842 -0.800473 -0.599172 0.0153573
-0.357782 -0.278334 0.0146982 -0.707443 -0.682725 -0.182788
0.283663 -0.349428 -0.27668 0.437581 -0.104557 -0.893079
0.27229 -0.475064 -0.254764 0.543027 -0.366312 -0.755604
-0.237881 -0.321817 -0.29084 -0.699342 -0.615231 -0.363885
-0.308932 0.236068 -0.202979 -0.651305 0.484967 -0.583617
0.406956 -0.0346911 0.189891 0.842818 0.011548 0.538075
-0.109722 -0.138699 -0.5555 0.480589 -0.200866 -0.853632
0.17058 -0.448777 0.0179452 0.246423 -0.939775 0.236851
0.145244 0.283722 0.499398 0.799905 0.4924 0.343065
-0.0154322 0.438979 0.40528 -0.472857 0.125422 0.872167
-0.265513 -0.344743 -0.0648864 -0.714621 -0.698692 -0.0338578
0.192014 -0.475881 -0.297093 0.541076 -0.256884 -0.80078
-0.466488 0.168758 -0.00362682 -0.802056 0.295051 -0.51928
-0.21092 -0.29004 -0.523793 0.444505 -0.889201 -0.108338
0.534324 -0.196996 0.0306538 0.815775 -0.279782 0.506194
0.429882 -0.236683 0.0766496 0.648052 -0.439413 0.622049
-0.477082 0.31761 0.146291 -0.615067 0.609774 -0.499869
0.119278 -0.205521 -0.404722 0.484937 -0.227576 -0.84442
0.228841 0.144248 -0.43311 0.551874 -0.219122 -0.804625
0.250866 0.318069 0.201925 0.545972 0.811209 0.209414
0.34211 0.334592 -0.09617 0.481489 0.865378 0.138887
-0.0869753 -0.445014 -0.426103 -0.498827 -0.865919 -0.036828
0.0128902 0.393024 -0.259001 -0.158628 0.952126 -0.261331
-0.130975 0.456173 0.0665272 -0.0700193 0.94761 -0.311661
-0.1718 -0.375575 0.25104 -0.25764 -0.94011 0.223194
-0.153641 -0.137998 -0.578439 0.538899 -0.327361 -0.776159
-0.12303 0.00619152 0.459431 -0.534956 0.264087 0.802546
0.234685 -0.20665 -0.34426 0.506307 -0.249219 -0.825556
0.158266 0.248135 0.513113 0.814664 0.411753 0.40839
0.0484753 -0.513609 -0.222763 -0.262051 -0.954214 0.144239
0.20466 -0.135143 -0.376211 0.458575 -0.152916 -0.8754
-0.152813 -0.356454 -0.475425 -0.809255 -0.542489 -0.225415
0.235825 -0.115971 -0.361 0.481401 -0.187404 -0.856232
-0.127205 -0.384325 -0.499586 -0.728321 -0.674097 -0.123052
-0.108095 0.155791 -0.592857 -0.735772 0.539973 -0.40874
0.144476 -0.517895 -0.18105 -0.0933378 -0.958883 0.268013
-0.0820131 -0.443333 -0.00852544 -0.293016 -0.94784 0.125461
0.245285 0.143445 0.426301 0.831017 0.224211 0.509058
-0.342633 0.323154 0.251499 -0.430678 0.146539 0.890529
-0.176798 -0.327394 -0.45732 -0.798539 -0.500564 -0.334322
-0.155697 -0.166194 -0.57578 0.39894 -0.0496251 -0.915633
0.133157 0.412499 -0.172959 0.104749 0.989627 -0.0983179
-0.261369 -0.321104 0.438167 -0.125567 -0.970138 0.207521
-0.27432 0.343192 -0.0925238 -0.582071 0.718123 -0.381435
-0.0799835 -0.166579 -0.528156 0.576341 -0.334891 -0.745439
0.0297157 -0.490075 -0.385616 0.470918 -0.0823138 -0.878328
0.430029 -0.0792701 0.143577 0.791634 -0.0730622 0.606611
-0.156706 0.332843 -0.259136 -0.58006 0.763416 -0.284123
-0.284911 0.0764928 0.346308 -0.498552 0.125519 0.857724
0.263168 -0.308879 -0.301482 0.512384 -0.0265078 -0.858347
-0.183965 -0.0992311 0.444817 -0.455351 0.18588 0.870692
-0.396093 -0.119565 -0.14622 -0.896239 -0.257749 -0.361001
-0.455222 0.124929 0.234366 -0.468109 0.121107 0.875333
0.394267 0.112175 -0.330761 0.467659 -0.170122 -0.867383
0.0171752 -0.0241123 -0.510759 0.504129 -0.264161 -0.822237
-0.114915 -0.37975 0.26044 -0.104585 -0.956511 0.272303
-0.0179672 0.0165073 0.513475 -0.438058 0.176519 0.881445
0.189876 0.163489 0.501052 0.844419 0.22857 0.484471
-0.0198879 0.436501 -0.05745 -0.18362 0.96715 -0.175795
0.485708 0.230573 -0.157924 0.710576 0.649449 0.270735
-0.0969996 -0.0934294 -0.559076 0.429867 -0.163262 -0.888009
0.317155 -0.472396 -0.10869 0.312591 -0.85153 0.420931
0.258454 -0.359282 0.120881 0.432116 -0.734349 0.523457
-0.482076 0.2693 0.188136 -0.56464 0.42896 0.705106
-0.333947 -0.316509 0.236033 -0.530487 -0.847691 0.00189818
0.201416 0.001966 0.497558 0.876347 -0.103869 0.470348
-0.156638 0.0727 0.417039 -0.468282 0.208637 0.858593
-0.12729 0.212017 -0.570533 -0.630437 0.60162 -0.490513
0.0449109 -0.0436878 0.559796 -0.57364 0.265899 0.774748
0.247078 -0.535216 -0.125544 0.15697 -0.918788 0.362201
-0.105126 -0.397821 0.197901 -0.0479563 -0.979297 0.196667
0.147773 0.282524 -0.515019 0.457723 -0.163294 -0.87397
-0.0663324 -0.000323038 0.487391 -0.483116 0.210034 0.849991
0.0924115 -0.470739 -0.0283258 0.0186076 -0.957105 0.289143
0.464373 0.184008 -0.0168056 0.782737 0.535834 0.316551
-0.341967 -0.0761145 -0.291275 -0.897237 -0.0865721 -0.432979
-0.336838 0.431532 0.227173 -0.485735 0.217225 0.846685
0.505151 -0.283312 -0.056236 0.641218 -0.395707 0.657462
0.00544357 -0.442942 0.0546737 -0.109109 -0.960857 0.254654
0.176793 0.294556 0.413156 0.671865 0.690726 0.267387
0.165485 0.380344 -0.362964 0.134163 0.970915 -0.198306
0.413077 0.0818459 -0.308104 0.47597 -0.32396 -0.81762
-0.217642 0.325555 -0.204779 -0.484039 0.750702 -0.449613
0.154549 -0.257355 0.363895 0.591568 -0.65803 0.46588
0.297686 0.365793 -0.34238 0.212609 0.97703 -0.0144499
-0.0146444 0.0793812 -0.555987 0.531397 -0.275208 -0.801173
-0.23814 -0.0928825 -0.572678 0.481729 -0.38136 -0.788988
-0.358235 0.324011 -0.0200007 -0.691 0.643771 -0.328753
-0.0140575 0.466961 0.286692 0.334994 0.942182 0.00847641
0.123006 0.228289 -0.513499 0.48696 -0.215452 -0.846434
-0.381707 0.0731095 -0.200805 -0.895123 0.176258 -0.409496
0.223088 -0.25807 -0.333553 0.50764 -0.108572 -0.854701
0.383335 0.321315 -0.176557 0.438242 0.875111 0.205245
0.406644 0.238157 0.00654265 0.695311 0.637342 0.332172
0.358111 -0.26621 -0.257021 0.439505 -0.13092 -0.888648
0.0780906 -0.101523 -0.457575 0.580188 -0.239448 -0.77849
0.0156033 0.45476 0.175823 0.139882 0.988705 -0.0538104
0.059611 -0.195335 0.535489 0.503352 -0.645644 0.574265
-0.230566 -0.0479162 -0.578999 0.110004 0.967971 -0.225678
0.270466 -0.323571 0.163665 0.636659 -0.660568 0.397889
0.219504 0.0842384 0.480139 0.850916 0.0352609 0.524117
0.178166 0.191874 -0.473699 0.540837 -0.257306 -0.800805
-0.235198 0.420052 0.0168152 -0.41584 0.84764 -0.329521
-0.354793 -0.301708 0.360548 -0.245356 -0.963147 0.110221
0.442328 -0.435125 -0.162485 0.429319 -0.490241 -0.758517
-0.21094 0.067875 0.389934 -0.431093 0.11574 0.894854
-0.213694 -0.0779849 -0.607278 0.493716 -0.317571 -0.809564
-0.23258 -0.334479 -0.255429 -0.779699 -0.572248 -0.254169
0.12478 -0.0558666 -0.441145 0.414655 -0.147334 -0.897972
0.229955 -0.531426 -0.264928 0.47743 -0.11602 -0.870976
0.315143 -0.507016 -0.182018 0.195872 -0.882523 0.427536
0.275379 0.369415 -0.417621 0.166474 0.975635 -0.142908
-0.247554 -0.195716 -0.491524 -0.388827 0.198715 0.899626
-0.235317 0.149843 0.351985 -0.467744 0.157716 0.869679
-0.415883 -0.0960278 0.314387 -0.533559 0.252244 0.807272
0.0661539 -0.169982 0.563642 0.553284 -0.59773 0.580169
-0.22925 -0.0473531 0.406433 -0.509427 0.257362 0.821126
-0.0402094 -0.528942 -0.324047 -0.542408 0.285381 -0.790159
-0.148215 -0.150595 0.480476 -0.534684 0.364239 0.762524
0.390242 -0.125968 0.185701 0.750357 -0.271257 0.602814
-0.184598 0.20482 -0.419295 -0.596083 0.617994 -0.512609
-0.435761 -0.200333 0.067487 -0.79276 -0.54058 -0.281611
0.465332 0.301146 -0.334994 0.464273 -0.35727 -0.810437
-0.0788899 -0.298103 -0.496016 0.477994 -0.208934 -0.853152
0.383203 0.276777 -0.0225739 0.653782 0.68553 0.320339
0.105435 -0.4539 0.0261778 0.0839088 -0.95969 0.268244
0.0247966 0.455704 0.271423 0.230782 0.965631 0.119567
-0.174308 0.297046 -0.390083 -0.683543 0.661196 -0.309175
-0.305457 -0.17767 -0.322096 -0.888098 -0.405929 -0.215645
0.40831 -0.264614 -0.232029 0.468097 -0.114194 -0.876267
-0.237577 0.338804 -0.145758 -0.544406 0.773157 -0.325347
0.00427431 -0.21932 0.564327 0.525872 -0.716681 0.458069
0.385041 0.058286 0.20527 0.826288 0.122359 0.549797
0.06827 -0.394568 0.190351 0.031156 -0.892891 0.449194
0.471989 0.275205 -0.100788 0.660269 0.701292 0.268764
0.318403 0.336654 -0.0596775 0.345362 0.911675 0.222651
-0.250904 0.228543 0.328924 -0.523641 0.248959 0.814751
-0.155137 0.426313 -0.0323614 -0.121203 0.913143 -0.389203
0.405942 -0.137784 0.155299 0.772853 -0.262328 0.577826
-0.33025 0.30006 -0.091677 -0.756057 0.568118 -0.324991
-0.077474 -0.497091 -0.382886 0.480427 -0.272414 -0.833655
0.504642 0.261987 -0.29905 0.63037 0.741162 0.230896
-0.385305 -0.164061 -0.135324 -0.808801 -0.405237 -0.426173
0.588729 0.0884665 -0.165296 0.81529 0.364059 0.450292
-0.240464 -0.293753 -0.341113 -0.758866 -0.600414 -0.252243
-0.170403 -0.220666 -0.567311 0.486277 -0.228919 -0.843286
-0.105667 -0.318548 -0.508325 0.475701 -0.192281 -0.858334
-0.113864 -0.41946 0.0887561 -0.276122 -0.950979 0.139267
0.528198 -0.249927 -0.0682569 0.870614 -0.270742 0.410768
0.287302 -0.101933 -0.336374 0.451727 -0.113065 -0.884963
-0.470106 -0.132999 0.29045 -0.468058 0.188969 0.863257
-0.296371 -0.332897 0.040902 -0.661617 -0.705781 -0.253249
-0.182894 -0.394513 0.0964542 -0.300648 -0.953535 -0.0195654
0.264705 0.371596 -0.106871 0.593196 0.804463 -0.0309537
0.485371 0.176365 -0.0586917 0.840139 0.385989 0.381023
0.124945 -0.501649 -0.116045 0.0722921 -0.996098 0.0506313
-0.394449 0.222341 -0.0873001 -0.774145 0.452199 -0.442963
-0.41994 -0.0757394 -0.126685 -0.899246 -0.182872 -0.397385
-0.300227 -0.259514 -0.224165 -0.825844 -0.483027 -0.290974
-0.278249 0.094796 -0.374283 -0.824519 0.305578 -0.476225
-0.265649 -0.345794 0.302702 -0.423777 -0.903076 0.0697695
0.278626 -0.458006 -0.0588048 0.349123 -0.861378 0.368973
0.310735 0.0663436 0.337006 0.858876 0.18554 0.477396
0.142617 -0.533488 -0.121579 -0.481541 0.150668 0.863376
-0.117487 0.427548 -0.0652638 -0.124807 0.950369 -0.284994
-0.257971 -0.0749625 -0.461471 -0.893651 -0.0153911 -0.448499
-0.0721424 -0.312579 0.450659 0.251922 -0.884798 0.392005
-0.25685 -0.257399 -0.365195 -0.843963 -0.430827 -0.319555
-0.155914 0.285361 -0.35168 -0.568976 0.732087 -0.374588
0.55426 -0.00591423 -0.0388891 -0.215641 0.960988 -0.173209
-0.234005 -0.371441 0.15112 -0.389704 -0.917049 0.0845692
-0.35726 0.245189 0.261851 -0.48478 0.183883 0.855088
0.0380162 -0.443814 0.0747445 0.0770015 -0.978592 0.190861
0.295808 -0.246775 0.222468 0.683593 -0.547721 0.482392
-0.560251 0.0440632 0.143919 -0.912122 -0.171072 -0.372515
-0.487067 -0.0326671 0.0145716 -0.895352 -0.209481 -0.393017
-0.0767992 0.479084 0.363435 -0.491015 0.223773 0.841921
0.127159 0.396848 0.271185 0.688054 0.708957 0.154797
-0.331 -0.307087 0.0252349 -0.700807 -0.702559 -0.123614
-0.299389 0.0455387 -0.361886 -0.854321 0.178772 -0.488033
0.0887034 0.167084 0.536526 -0.419568 0.147714 0.895624
-0.148928 -0.305339 0.489494 0.0880017 -0.935739 0.341539
-0.460824 -0.129546 0.0223398 -0.900121 -0.24806 -0.358118
-0.179667 0.303749 -0.281622 -0.490256 0.736072 -0.466742
0.100092 -0.376299 -0.374343 0.583782 -0.303298 -0.753133
-0.17291 0.464976 0.132725 -0.110363 0.969425 -0.219171
-0.299352 -0.329483 0.00739307 -0.632131 -0.763788 -0.130529
-0.0145911 -0.473548 -0.10134 -0.294168 -0.942439 0.158975
0.554075 -0.116815 -0.177404 0.469583 -0.200623 -0.859792
0.544591 -0.115559 0.0474938 0.821488 -0.104439 0.56058
0.488817 -0.384529 -0.13044 0.637042 -0.627649 0.447475
0.284722 0.373241 -0.268436 0.283059 0.958926 0.0183901
0.250609 -0.519186 -0.188253 0.12216 -0.94177 0.313283
0.26036 -0.517383 -0.248203 0.458876 -0.146702 -0.876305
0.568594 0.0766493 -0.120376 0.760817 0.320595 0.564249
-0.311647 -0.0735496 -0.356483 -0.897122 -0.0554287 -0.438292
0.244333 -0.0039143 0.44081 0.864148 -0.0992915 0.493345
-0.00745738 0.16127 -0.572381 0.482148 -0.207774 -0.851095
-0.393731 0.4025 0.159208 -0.548948 0.744174 -0.380606
-0.254724 -0.109147 -0.468345 -0.921896 -0.124039 -0.367044
0.0986447 0.285239 0.509437 -0.459693 0.0929784 0.883197
0.101719 -0.0938342 0.584086 0.692093 -0.435881 0.575339
-0.26796 0.466227 0.174834 -0.237743 0.930906 -0.277295
0.19197 0.240307 0.449004 0.80861 0.446107 0.383586
0.503171 0.017971 -0.243643 0.503464 -0.264777 -0.822446
-0.101936 -0.353666 0.347698 0.0810537 -0.951242 0.297605
-0.397208 0.166299 0.259912 -0.434014 0.109456 0.894232
-0.0560967 0.480473 0.327581 0.214735 0.976667 0.00322097
-0.347578 0.00826397 -0.280831 -0.904625 0.0818619 -0.418272
-0.390613 -0.265078 0.104535 -0.681802 -0.731529 -0.00336144
0.0703029 -0.0235604 0.57026 -0.516351 0.243464 0.82104
-0.244268 0.36835 -0.0956373 -0.480215 0.78771 -0.385884
-0.0326434 -0.484942 -0.276744 -0.514617 -0.840546 0.169268
0.32832 0.0868903 0.300844 0.801036 -0.0256089 0.598069
0.346785 -0.433671 -0.0704707 0.406661 -0.78877 0.460944
