ply
format ascii 1.0
comment Created by Open3D
element vertex 512
property double x
property double y
property double z
property double nx
property double ny
property double nz
end_header
0.304473 -0.0325944 0.0380141 -0.155705 -0.578292 0.800834
0.0696703 0.491722 0.376637 0.181047 -0.615612 0.766971
-0.128157 -0.318958 -0.25006 0.0173276 -0.713946 0.699986
0.395411 0.082546 0.136218 -0.00705388 -0.631905 0.775014
0.359244 -0.065147 0.0233764 -0.184809 -0.573297 0.798233
-0.141515 0.0899603 0.0411098 -0.160646 -0.57609 0.801445
-0.390213 0.0704881 -0.0228468 0.290535 0.394386 -0.871808
0.127772 0.0593297 0.0647056 0.235474 0.56474 -0.790962
0.234062 0.0690946 0.0935197 0.0715758 0.622099 -0.77966
0.261971 -0.132916 -0.0520364 -0.206945 -0.417581 0.88476
0.554246 -0.190264 -0.0321203 0.158315 0.576923 -0.801309
0.168494 0.444341 0.351693 0.223581 0.543415 -0.809142
0.0388274 0.388863 0.285524 0.145041 0.586409 -0.796923
-0.437436 0.231176 0.0894459 0.133799 0.610979 -0.780258
0.100203 -0.0216937 -0.00126606 0.406717 0.377331 -0.831987
0.185603 -0.0918657 -0.0271248 -0.224982 -0.489942 0.842223
0.446788 0.00608882 0.0982171 -0.234465 -0.502944 0.83191
-0.0869257 0.324501 0.214434 0.458603 0.155403 -0.874947
-0.173016 0.1843 0.103247 -0.0605641 -0.613001 0.787758
-0.239306 -0.359782 -0.310204 0.262665 0.493271 -0.829271
-0.0922099 -0.343279 -0.263071 -0.177625 -0.530415 0.828921
-0.0926158 -0.425121 -0.331246 -0.265062 0.581998 -0.768779
0.35575 -0.0266835 0.0548733 -0.196148 -0.537415 0.82019
0.0207673 0.507427 0.369291 -0.570457 0.706573 0.418729
0.153613 -0.375678 -0.243662 0.389774 0.389016 -0.834711
0.299189 0.23476 0.222953 0.974941 -0.221763 0.0176409
0.18039 -0.330859 -0.21155 0.0560367 0.58594 -0.808415
0.144149 -0.290435 -0.17697 -0.347598 -0.504173 0.79056
0.272495 -0.182865 -0.0855633 -0.361675 -0.517181 0.775703
-0.124628 -0.0333484 -0.0467726 -0.0203342 0.644413 -0.764408
0.531484 -0.00539532 0.0999671 -0.232971 -0.524493 0.818921
-0.0704847 -0.0736957 -0.070483 0.419595 0.366507 -0.830429
0.227409 0.0179103 0.0663497 -0.0223687 -0.68497 0.728228
0.479853 -0.140849 -0.01452 -0.0823407 0.600315 -0.795514
0.217652 0.216747 0.201887 -0.0795997 -0.810603 0.58016
-0.210075 -0.00560778 -0.0425434 0.314189 0.502488 -0.805475
-0.166694 0.0298114 -0.000709699 -0.0873417 -0.594813 0.799105
0.0992234 0.359198 0.294757 -0.120753 -0.616227 0.778257
0.576948 -0.101225 0.0320851 -0.0808708 -0.664889 0.742552
0.038937 0.0434596 0.0409025 -0.438767 -0.341646 0.831121
0.166049 -0.409518 -0.279276 0.919446 -0.316118 -0.233854
0.255642 -0.142897 -0.0534298 -0.11098 -0.630727 0.768028
0.227694 0.135995 0.131026 0.175939 0.547192 -0.818307
-0.193456 -0.193712 -0.180411 0.172655 0.572133 -0.801782
-0.0599831 0.354554 0.246173 -0.102693 -0.623778 0.774826
-0.0694546 -0.091817 -0.0787082 -0.078946 -0.648633 0.756996
-0.441306 0.236603 0.088922 -0.208117 -0.567949 0.796317
-0.493038 0.0658964 -0.0433692 0.126641 0.67815 -0.72393
0.11089 -0.412794 -0.287025 -0.0177819 0.646395 -0.762795
0.29456 0.128118 0.151938 0.026764 0.656414 -0.753926
0.353889 0.0959915 0.137263 0.0104184 -0.758742 0.651308
-0.00329967 0.351841 0.250284 0.00584857 0.686936 -0.726694
-0.605039 0.086373 -0.0483161 0.145944 0.582264 -0.799793
0.303931 0.0569193 0.0984445 -0.0474922 -0.625677 0.778635
-0.167347 -0.14261 -0.130389 0.245022 0.476191 -0.844516
-0.472404 0.0277594 -0.0608721 0.0990856 -0.622776 0.776101
0.219044 -0.0574014 -0.00627827 0.0184083 0.620453 -0.784028
-0.166995 0.308743 0.188195 0.00453257 0.64581 -0.763485
-0.576947 0.170172 0.0328205 -0.175986 -0.543255 0.820916
-0.0323987 -0.22162 -0.160647 -0.000691277 0.706845 -0.707368
-0.435216 -0.00246683 -0.0826134 0.129229 0.604235 -0.786257
0.173672 0.327636 0.263269 0.0620596 0.610993 -0.789199
-0.146858 0.222645 0.126597 -0.113915 0.675387 -0.728612
-0.22067 0.199573 0.106842 0.125042 -0.606373 0.785287
0.370958 -0.213401 -0.0912966 0.163787 0.554465 -0.81593
0.180532 0.152432 0.148344 0.0288032 -0.683316 0.729554
0.0778069 -0.301132 -0.196411 -0.0856128 -0.64208 0.761842
0.128962 -0.15126 -0.0849726 -0.168026 -0.542705 0.822945
-0.00969363 0.0493338 0.0269443 0.289963 0.51693 -0.805422
0.552221 0.00289097 0.102028 -0.0911088 -0.630848 0.770539
0.119547 0.464762 0.350839 0.365196 0.44497 -0.8177
0.0418363 0.0829715 0.0822775 -0.24309 -0.50454 0.82846
-0.165805 0.185863 0.101172 0.120118 0.603794 -0.788038
0.0233807 0.315561 0.228197 -0.0104562 -0.628328 0.777879
-0.0146148 -0.449986 -0.330762 0.0901924 -0.735231 0.671789
0.401967 0.0848586 0.131963 -0.0597314 -0.627994 0.775922
-0.266053 0.0771519 -0.000330835 0.0522695 0.714119 -0.69807
-0.0830703 -0.520195 -0.400769 -0.0294235 0.642681 -0.765569
0.267434 0.175415 0.171631 0.0494294 0.621566 -0.781801
-0.235329 0.251042 0.135854 -0.05532 -0.60314 0.795715
0.078599 -0.290798 -0.204103 0.219266 0.493276 -0.841785
0.0605197 0.157273 0.121816 0.0506899 0.589588 -0.806112
-0.257815 0.134557 0.051538 -0.311349 -0.355031 0.881484
0.469307 -0.0736852 0.0397424 -0.0719986 -0.615102 0.785154
0.343807 -0.106272 -0.0111326 -0.273052 -0.486366 0.829995
0.569978 -0.0306108 0.0789395 -0.121508 0.870703 -0.476564
0.0255454 -0.366641 -0.259347 -0.0429574 -0.652218 0.756813
0.1265 -0.32223 -0.220685 -0.302071 -0.538025 0.786945
-0.122731 -0.394537 -0.310402 0.164367 0.566981 -0.807165
0.208903 0.354573 0.29615 -0.245278 0.68688 -0.684131
-0.306446 -0.317931 -0.28461 0.252703 0.533191 -0.807371
-0.108745 0.36129 0.231992 0.256414 0.512138 -0.819735
-0.270016 -0.17474 -0.189323 0.397527 0.418501 -0.816596
0.143328 -0.352597 -0.240865 0.0395169 0.613317 -0.788847
-0.377202 -0.0459275 -0.0939642 -0.280701 -0.490246 0.825146
0.0666049 0.417534 0.317831 -0.232367 -0.432899 0.870979
-0.107101 -0.0340746 -0.0563978 0.184037 0.553243 -0.812436
-0.276984 -0.134434 -0.155133 0.139614 0.58314 -0.800285
-0.00962568 0.348604 0.262782 -0.0313264 -0.680636 0.731952
0.466759 -0.163754 -0.0357244 0.350432 0.479814 -0.804348
0.0751933 0.495313 0.360734 0.232796 0.54291 -0.806879
0.0391494 -0.00962436 0.00236908 0.339978 0.379541 -0.860444
0.121843 0.367871 0.285241 0.306827 0.447408 -0.840049
0.174351 0.0225392 0.0495545 0.319287 0.403764 -0.857339
-0.185253 -0.356951 -0.290674 -0.236198 -0.484116 0.842521
-0.482171 0.260958 0.102682 -0.591369 0.685311 0.425009
0.00257605 0.210539 0.154619 -0.297704 -0.418298 0.858137
0.350396 -0.0222801 0.0574769 0.0500548 -0.648537 0.759536
-0.51571 -0.0607529 -0.136374 0.307312 0.322439 -0.895317
-0.0344083 -0.517841 -0.385637 0.571 -0.724988 -0.385164
0.191933 0.283013 0.245398 -0.262639 -0.442176 0.857614
-0.00444579 -0.0219244 -0.0198688 -0.0823489 -0.629079 0.772967
0.0427522 -0.247985 -0.17016 0.228831 0.380586 -0.895986
-0.205148 -0.114964 -0.115116 0.179373 0.521422 -0.834233
0.224616 0.402752 0.333339 -0.29194 -0.454526 0.841533
0.315478 -0.142037 -0.0487655 0.227122 0.439654 -0.868976
0.0447215 0.195386 0.150178 0.00908159 0.71341 -0.700688
0.105653 -0.209551 -0.131709 -0.207241 -0.54207 0.814378
-0.176257 -0.400143 -0.308859 0.0128524 -0.661143 0.75015
-0.18916 0.0839003 0.0126829 0.0822252 0.671533 -0.736399
-0.0220724 -0.0693552 -0.0483135 -0.187699 -0.558907 0.807708
-0.133237 0.262082 0.171237 -0.301448 -0.378809 0.875004
-0.100958 0.169373 0.112311 0.0673195 -0.657352 0.750571
-0.00403476 -0.188078 -0.135661 0.237317 0.386621 -0.891181
0.598594 -0.149042 0.00166838 -0.10398 -0.595686 0.796458
0.0143978 -0.328176 -0.236951 0.134902 0.593835 -0.793197
-0.0255069 0.387189 0.277315 0.0997271 0.620666 -0.777707
-0.522027 0.025878 -0.0657085 -0.0450373 -0.756559 0.652373
-0.117312 -0.0801304 -0.0830832 0.0847939 0.734542 -0.673244
0.316218 0.0639227 0.0984945 -0.201654 0.645206 -0.736916
0.31602 0.313511 0.276874 0.0212309 0.673798 -0.738611
-0.19563 0.146014 0.067648 -0.232074 -0.42633 0.874291
-0.444444 0.14501 0.0165249 0.298889 0.447865 -0.842664
-0.0982827 -0.247679 -0.193963 -0.123197 -0.59549 0.793861
-0.461015 -0.10083 -0.154796 -0.158114 -0.949667 -0.27043
-0.340111 -0.131369 -0.152699 0.298056 -0.785799 -0.541924
-0.154722 -0.474555 -0.370766 -0.019523 0.734845 -0.677954
0.302035 0.00912143 0.0575259 -0.326257 -0.552985 0.766658
0.0907244 -0.163667 -0.109958 0.224678 0.529443 -0.818052
-0.464365 0.175713 0.0439055 0.0444096 0.642188 -0.765259
0.276875 -0.0632464 0.00420211 0.124051 -0.689372 0.713707
-0.271943 0.244285 0.113978 0.111945 0.648407 -0.753019
-0.0670431 0.421411 0.296602 -0.328831 -0.533986 0.778928
0.497164 0.0304434 0.113327 -0.337763 -0.42959 0.837477
0.0544522 0.278333 0.220946 -0.156033 -0.54543 0.823505
-0.279036 0.17752 0.0806527 0.247458 0.52532 -0.814127
0.0636237 -0.0705253 -0.037708 -0.0252187 -0.641532 0.766681
0.0942952 -0.250764 -0.157577 -0.179884 -0.559929 0.808778
-0.130036 0.274601 0.170766 0.344095 0.541771 -0.766866
-0.134542 -0.262771 -0.217043 0.484601 0.378922 -0.788403
0.645614 -0.109683 0.0473309 0.289987 0.497547 -0.81753
-0.25047 -0.0411828 -0.0705378 -0.291056 -0.31923 0.901875
-0.0270238 -0.374506 -0.274846 0.0786447 0.681298 -0.727769
0.261859 0.347092 0.296659 0.198166 0.514435 -0.834318
-0.0107215 0.242496 0.175643 -0.111047 0.605967 -0.787701
0.308175 0.309984 0.280378 -0.267319 0.732657 -0.625903
-0.322563 0.261499 0.134332 0.0549072 0.628398 -0.775951
0.352792 0.0245334 0.0943679 -0.0795025 -0.711895 0.697771
0.0166613 0.419553 0.313482 -0.134842 -0.592376 0.794297
-0.0961406 0.128751 0.0688849 0.171816 0.569501 -0.803833
-0.478137 -0.0122373 -0.0984916 0.469278 0.369524 -0.802016
0.36548 -0.254861 -0.116521 -0.123532 -0.609733 0.782921
-0.168184 -0.073508 -0.08522 -0.0513669 -0.693426 0.718694
-0.322377 0.158188 0.0557809 -0.204186 -0.493055 0.845698
0.155764 0.321011 0.275132 -0.112173 -0.624148 0.773212
-0.383908 0.0704996 -0.0233865 0.0697936 0.644392 -0.761503
-0.0398656 0.0913551 0.0645647 0.122719 -0.626176 0.769963
-0.272235 -0.188066 -0.17714 -0.0584841 -0.607818 0.79192
-0.0386458 -0.506845 -0.377751 -0.144844 -0.582701 0.799674
0.038954 -0.468429 -0.330024 -0.0858774 0.612935 -0.785452
0.157457 -0.256765 -0.156771 0.111902 -0.593625 0.796924
-0.308227 -0.275737 -0.250114 0.263273 -0.6949 0.66918
0.151368 -0.0539606 -0.00900707 -0.221317 -0.486235 0.845337
0.00275911 0.0773891 0.0480282 -0.137204 -0.585287 0.799133
-0.0361055 -0.333647 -0.240173 -0.109854 -0.62999 0.768795
0.220549 0.410729 0.329119 -0.0815812 0.780853 -0.619365
-0.36674 0.18597 0.0693235 -0.0710226 -0.667296 0.741398
0.0504551 -0.00438086 0.000790814 -0.201631 0.583935 -0.786362
-0.122913 0.0153806 -0.0147431 0.148594 0.580331 -0.80071
-0.537903 0.0681864 -0.0441477 -0.0836447 -0.63703 0.766287
-0.127546 0.0551965 0.0186111 -0.242087 -0.488859 0.838099
0.271899 0.17347 0.167771 0.223444 0.460469 -0.859093
0.417397 -0.281441 -0.131351 0.0186038 0.615305 -0.78807
0.126629 0.525372 0.406126 0.00122213 0.649749 -0.760148
0.00212519 0.471571 0.34443 0.218015 0.555624 -0.802341
0.267064 0.0977958 0.108815 -0.0297513 0.666218 -0.745164
-0.041295 -0.335697 -0.251851 0.23086 0.502721 -0.833052
-0.217999 0.197068 0.110794 -0.179889 -0.564006 0.805939
0.178581 -0.000367088 0.0283792 0.149049 0.55464 -0.818632
-0.113209 -0.463305 -0.364 0.235172 0.571734 -0.786011
-0.0232305 0.167828 0.131655 -0.169588 -0.576777 0.799105
-0.0666985 0.0472675 0.0179837 -0.29428 -0.504621 0.811638
0.0262345 0.506524 0.370367 0.125327 0.60929 -0.782981
-0.099581 -0.208923 -0.164114 -0.0405376 -0.60955 0.79171
-0.0246048 -0.157151 -0.118295 0.0601484 -0.703143 0.7085
-0.429118 0.0890071 -0.00383173 -0.0493117 -0.709347 0.703132
0.134078 -0.0757336 -0.0416121 0.10362 0.598515 -0.794382
0.482161 -0.0740795 0.0212226 0.0148822 0.635346 -0.772085
-0.423135 0.198651 0.06567 -0.142702 -0.601916 0.785706
0.0501316 -0.200555 -0.133715 0.0270617 0.773828 -0.632817
0.398753 -0.196328 -0.0630052 0.140672 0.589743 -0.795245
0.365443 -0.150446 -0.0471772 0.133639 0.584892 -0.800026
0.0448334 0.457753 0.348316 -0.306077 -0.282097 0.909251
0.189466 0.0758483 0.093948 -0.277095 -0.513051 0.812402
0.0793347 -0.362914 -0.248994 -0.0973841 -0.605782 0.789648
-0.0898376 -0.417204 -0.333633 0.154176 0.581344 -0.798918
0.570437 -0.210438 -0.0462806 -0.306807 -0.444158 0.84178
-0.128889 0.320989 0.208121 -0.0504897 0.696737 -0.715547
0.445466 -0.25285 -0.105082 -0.212711 0.79919 -0.562183
-0.415313 -0.0977776 -0.160756 0.0535866 0.590395 -0.805334
-0.10084 -0.251731 -0.195941 -0.0585419 -0.622253 0.780624
-0.0046174 0.265974 0.189496 0.177797 0.576579 -0.797462
-0.111493 0.0615188 0.0133243 -0.007113 0.676964 -0.735982
0.351841 -0.0999507 -0.00676302 -0.131881 -0.592234 0.7949
-0.370513 -0.000914631 -0.0754207 0.17313 0.564568 -0.807025
-0.0876393 -0.387147 -0.295041 -0.107316 -0.648409 0.75369
-0.547926 -0.00354466 -0.110346 -0.0274585 0.603388 -0.796975
-0.482875 0.10597 -0.0122233 0.0929914 -0.665466 0.740613
0.117623 -0.0845189 -0.0452637 0.158178 0.580116 -0.799028
-0.043612 0.305868 0.208883 0.280235 0.412896 -0.866594
0.350526 -0.251697 -0.124075 0.00025617 0.751651 -0.659561
0.0805548 -0.129101 -0.0718778 0.0749575 0.631461 -0.771776
-0.41947 -0.0967127 -0.146589 -0.253111 -0.559983 0.788894
0.510008 -0.0407514 0.0562967 0.189791 0.551253 -0.812465
-0.458977 0.180198 0.0476557 -0.461135 -0.504973 0.729628
-0.440609 0.0748235 -0.0233509 -0.14406 -0.584319 0.798635
-0.280145 0.040652 -0.0200261 0.0973265 -0.601365 0.793024
-0.107488 -0.476722 -0.359018 0.118989 -0.754481 0.645446
-0.203865 -0.427943 -0.361531 0.151165 0.576836 -0.802751
0.265052 -0.215926 -0.113546 0.206453 0.542307 -0.814421
0.0889932 -0.442015 -0.307707 0.0200883 0.669788 -0.742281
0.664193 -0.163617 0.0158834 -0.242732 -0.495713 0.833877
-0.515536 0.171807 0.0226239 0.0147338 0.649147 -0.76052
-0.295332 -0.048939 -0.0827261 -0.340264 -0.448598 0.826426
-0.40956 0.154589 0.0476148 -0.360214 -0.429226 0.828258
-0.666396 0.139712 -0.0184041 -0.0375638 -0.744505 0.66656
-0.228393 -0.151302 -0.149952 -0.0370448 -0.632632 0.773566
-0.076533 -0.133498 -0.115805 -0.156627 -0.57472 0.803221
0.29771 -0.100971 -0.01921 -0.505684 -0.287036 0.813569
0.395538 -0.0455551 0.0484831 0.139097 0.589792 -0.795486
-0.567547 0.107186 -0.0206371 -0.169375 -0.561907 0.809675
0.177771 0.430975 0.349986 0.305982 0.362123 -0.880478
-0.0654868 -0.169591 -0.139717 0.164027 0.547221 -0.820759
-0.18311 0.242902 0.146983 -0.219493 -0.552328 0.804212
0.430733 -0.0293245 0.056386 -0.255666 -0.353321 0.899889
0.426346 -0.071681 0.0295973 -0.152777 -0.56048 0.813954
-0.569142 0.211662 0.0463048 0.0240195 0.626741 -0.778857
-0.251488 -0.267375 -0.234904 -0.158361 -0.559645 0.813462
-0.168834 0.39377 0.252445 -0.457924 -0.382928 0.802292
-0.094262 0.0084382 -0.0130706 -0.344253 -0.450209 0.823894
-0.190421 0.283349 0.172591 -0.934366 0.350374 -0.0647946
0.0134406 -0.362349 -0.268243 0.0840363 0.62018 -0.779945
0.0927373 0.0235753 0.031512 0.0363443 -0.707883 0.705394
0.0881519 0.255872 0.208598 -0.31811 -0.369002 0.873295
-0.0781257 -0.300208 -0.224804 0.0502208 -0.763224 0.644179
-0.593283 0.0483769 -0.0771162 0.438578 0.376331 -0.816103
-0.356918 -0.128624 -0.148302 -0.331777 -0.590311 -0.735838
-0.222086 0.0273518 -0.0221826 -0.347858 -0.308785 0.885238
0.163597 0.378877 0.30604 0.259947 0.0830114 -0.962048
0.266781 -0.0683377 0.00324733 -0.0437415 -0.618984 0.784184
0.225426 -0.159914 -0.074851 -0.0635215 -0.731082 0.679326
-0.393486 0.248447 0.10476 0.484463 0.401033 -0.777475
-0.0227418 -0.29983 -0.226052 0.0840225 0.694402 -0.714665
0.125219 0.293799 0.236313 -0.0573351 0.659756 -0.749289
-0.0777743 -0.304078 -0.230941 -0.232492 -0.527192 0.817323
-0.329686 0.214671 0.0927832 -0.093788 -0.627169 0.773216
-0.30912 0.115762 0.0338486 0.0349097 -0.703824 0.709516
-0.330107 0.0542587 -0.0182482 -0.290144 -0.414569 0.862525
0.623716 -0.065979 0.0629796 0.840564 0.353555 0.410428
0.0335242 0.0465519 0.0486387 0.0624046 -0.699441 0.71196
-0.359519 -0.000396665 -0.0703473 0.189225 0.563425 -0.804205
-0.555606 0.218948 0.0421803 0.0077772 0.608742 -0.79333
0.0769165 0.402161 0.309404 -0.335995 -0.564208 0.754173
0.216985 0.167016 0.170485 0.272593 0.452669 -0.84899
-0.0531626 -0.460768 -0.333351 -0.0988985 -0.670077 0.735674
-0.0148422 0.445453 0.313286 0.48519 0.335793 -0.807362
-0.517787 0.159641 0.0276528 0.0608346 0.672943 -0.737188
0.0503068 -0.196124 -0.14078 0.0465096 0.696561 -0.715989
0.178483 0.0285242 0.0548584 0.166071 0.549305 -0.818953
-0.036737 -0.21089 -0.172533 0.299046 0.555374 -0.775971
0.128277 0.141431 0.126692 -0.0545589 0.624055 -0.779473
-0.31765 0.253697 0.124265 0.0457756 0.677979 -0.733655
-0.133125 -0.319825 -0.257541 -0.302199 -0.459594 0.835135
0.488321 -0.232353 -0.0807765 0.130367 0.5942 -0.793682
-0.190307 -0.387348 -0.321804 -0.298473 -0.401818 0.865711
-0.12315 -0.546429 -0.418529 -0.146491 -0.751475 -0.643293
-0.0119591 0.0340604 0.0236965 0.314372 0.454716 -0.833309
-0.649643 0.166312 0.00560729 0.23315 0.521617 -0.820705
-0.145243 0.144704 0.0820656 -0.610112 -0.357837 0.706906
-0.154451 -0.184992 -0.16551 0.203693 0.531225 -0.82238
0.483251 -0.0071532 0.0734051 0.403109 0.347026 -0.846803
0.487051 -0.129926 0.000225436 -0.110374 -0.60735 0.78673
0.45588 -0.20818 -0.0698501 0.240078 0.475585 -0.846275
0.183425 -0.0940596 -0.043709 -0.207303 0.665078 -0.717424
0.184621 0.240673 0.208983 -0.0643153 -0.702938 0.708338
0.26411 -0.266491 -0.141751 0.0415665 -0.740664 -0.670589
0.225663 0.0908649 0.117436 -0.189375 -0.542084 0.818708
-0.0155656 -0.0793765 -0.0588775 0.225311 0.464663 -0.856343
0.149244 -0.234809 -0.149893 0.213786 0.546084 -0.809992
-0.0398269 0.0118033 -0.00948554 0.283994 0.543188 -0.790123
0.12521 0.0392763 0.0555165 -0.540687 -0.491284 0.68286
0.36014 -0.149604 -0.0452889 0.277901 0.481447 -0.831252
0.0739898 0.123366 0.107614 -0.192119 0.633493 -0.749518
0.0803957 0.527324 0.405312 -0.116545 -0.693939 0.710539
0.163707 0.190561 0.173874 -0.396559 -0.244028 0.884981
-0.232016 -0.154787 -0.157747 0.0201713 0.689108 -0.724378
-0.0649864 0.141423 0.0923327 -0.00709139 -0.635547 0.77203
-0.228783 0.24838 0.137195 0.182771 0.486362 -0.854428
0.227721 -0.192368 -0.105812 0.586326 0.301153 -0.752016
-0.214274 -0.318149 -0.274299 -0.0204338 0.68198 -0.731085
0.298014 0.270235 0.250334 -0.0399158 0.689949 -0.722757
0.117088 0.430472 0.325299 0.0187143 0.625003 -0.780398
0.532323 -0.105332 0.0233947 -0.0456493 -0.68512 0.726998
-0.0710935 -0.129329 -0.110089 0.080708 0.667291 -0.740411
0.140611 -0.197132 -0.117389 0.134012 0.585744 -0.79934
-0.0793563 0.460046 0.323032 -0.573807 0.712179 0.404408
-0.51842 0.0328642 -0.0839234 0.143384 0.584124 -0.7989
0.217173 -0.227101 -0.12847 -0.0283544 -0.818647 0.573596
0.402886 -0.146189 -0.0267818 -0.12765 -0.600539 0.789341
-0.298709 -0.267336 -0.257685 0.423434 0.410089 -0.807794
-0.0353898 -0.417833 -0.302461 0.124956 -0.788605 0.60207
-0.137832 0.149376 0.08027 0.274616 0.551512 -0.787668
-0.323441 0.0131919 -0.0438892 -0.162844 -0.569251 0.805875
0.0370463 -0.105238 -0.0638043 0.204805 0.464048 -0.861809
-0.590083 0.0385316 -0.0808631 -0.359709 -0.41592 0.835236
0.414506 -0.281 -0.128642 -0.278536 -0.525078 0.804183
0.0147582 0.135019 0.0931048 0.292432 0.528485 -0.796986
0.0498978 0.233593 0.182941 -0.168946 -0.552851 0.815974
-0.228846 -0.316347 -0.280282 0.270121 0.48217 -0.833394
0.0123058 0.141944 0.094054 0.26343 0.468735 -0.843144
0.312793 -0.214644 -0.0931077 -0.411103 -0.435127 0.801036
0.500964 0.0800044 0.155631 0.809133 0.390136 0.439428
-0.281204 -0.223257 -0.220233 0.166734 0.567548 -0.806281
-0.291799 -0.217499 -0.213234 -0.0743614 -0.644998 0.760558
-0.650664 0.166763 0.00507915 -0.0232804 -0.724859 0.688504
-0.352924 0.136793 0.0297962 -0.0450774 0.662923 -0.74733
-7.44383e-06 -0.406985 -0.29627 -0.168294 0.584969 -0.793403
0.053843 -0.40601 -0.282749 0.0983026 0.650562 -0.753064
0.17101 0.115648 0.123818 -0.0121771 -0.669948 0.742308
-0.146812 -0.3579 -0.277047 -0.0788906 -0.60186 0.794695
-0.187704 -0.269127 -0.224455 0.0594675 0.720879 -0.690505
-0.19115 -0.0381145 -0.0579784 -0.0576995 -0.763612 0.643092
0.0538896 0.234127 0.181126 0.331833 0.455267 -0.826207
0.232968 0.316823 0.271486 0.265624 0.500794 -0.823802
0.136089 0.255377 0.213795 -0.14133 -0.586271 0.797691
0.0960413 -0.206856 -0.139624 0.100907 0.619796 -0.778248
-0.0992564 0.278513 0.187434 -0.0637227 -0.601196 0.796557
0.331993 -0.169192 -0.072635 0.307847 0.38705 -0.86915
-0.196785 -0.270983 -0.23098 0.148862 0.581764 -0.799619
-0.384943 -0.0641863 -0.123703 0.180985 0.554803 -0.812058
-0.0585717 0.132789 0.0899451 0.101458 -0.594876 0.797389
0.0380891 -0.157767 -0.100106 0.131387 -0.575427 0.807231
-0.195447 -0.345798 -0.29879 0.232471 0.556002 -0.798009
-0.508978 0.212631 0.0615498 -0.255185 -0.522132 0.813793
-0.17517 0.0391805 -0.0038619 -0.22167 -0.516408 0.827155
0.306867 -0.0445599 0.0243335 -0.0801184 -0.638299 0.765608
0.405901 -0.242857 -0.0935501 -0.238371 -0.494856 0.835641
-0.128675 -0.512633 -0.388605 -0.0395418 -0.659556 0.750615
-0.394948 0.107054 0.00414059 0.156739 0.574402 -0.803427
0.11711 0.13328 0.117446 -0.217664 -0.495515 0.840885
0.13089 0.102689 0.0951575 0.134044 0.591199 -0.795309
0.186294 -0.216015 -0.119791 0.202493 0.510462 -0.835719
-0.254642 -0.377073 -0.320805 0.0177058 0.609841 -0.792326
-0.243432 0.0377819 -0.0184424 -0.0300702 -0.625535 0.779616
-0.247641 -0.0741897 -0.103491 0.428042 0.517963 -0.740604
-0.0792927 0.244114 0.161856 0.361592 0.474445 -0.802592
0.103307 -0.253987 -0.161974 0.0103758 0.718309 -0.695647
-0.220135 -0.226758 -0.202242 0.25292 0.552013 -0.794552
-0.460405 0.0382226 -0.0684386 0.476922 0.315132 -0.820511
-0.373498 0.191029 0.0685615 0.433916 0.426834 -0.793429
0.0816479 0.0746908 0.0670362 0.0711176 0.627445 -0.775406
0.0263177 -0.282983 -0.203775 0.206524 0.525102 -0.825601
-0.271915 -0.139619 -0.149417 -0.0965021 -0.606341 0.789328
0.542813 -0.0703773 0.0437955 0.12551 0.710523 -0.692391
0.23744 0.246808 0.234505 -0.350999 -0.333744 0.87488
0.0893516 0.0173779 0.0359397 -0.299613 -0.495935 0.815034
-0.209519 -0.116311 -0.138294 0.215441 0.517948 -0.827838
-0.409131 0.0318901 -0.0676581 0.165602 0.557492 -0.813498
-0.195683 0.125775 0.0575114 -0.0874621 -0.673534 0.733963
0.224876 -0.192317 -0.102557 0.0984805 0.622969 -0.776022
-0.0706123 -0.176868 -0.131497 -0.00719547 -0.728394 0.685121
-0.145548 -0.433588 -0.343707 0.173688 0.564504 -0.80695
0.143886 -0.0107611 0.0136212 0.130669 0.585754 -0.799886
-0.227391 0.0994858 0.0201372 0.0297886 0.638272 -0.769235
-0.180006 -0.229161 -0.193003 0.0139786 -0.659362 0.751696
0.0933589 -0.359357 -0.22999 -0.0671194 -0.622946 0.77938
0.0876954 -0.0255369 -0.00729944 0.400547 0.355426 -0.844532
-0.480618 -0.0805171 -0.151904 0.0913872 0.602132 -0.793149
-0.42234 0.263226 0.115261 0.00312255 -0.628969 0.777424
-0.0440854 -0.415236 -0.316598 0.106026 0.686755 -0.719115
-0.260612 -0.091271 -0.105706 -0.181735 -0.578094 0.795475
-0.238312 0.166725 0.0820309 0.00774903 -0.695088 0.718883
0.11369 0.190097 0.153613 0.0225259 0.70813 -0.705723
-0.00763964 -0.117762 -0.087628 0.0209812 -0.683545 0.729607
0.307697 -0.267043 -0.135079 -0.304573 -0.805724 -0.50798
-0.0456567 -0.255147 -0.197003 -0.0242267 -0.663269 0.747989
0.266458 -0.00903945 0.0428601 0.17349 0.535516 -0.826513
-0.431052 -0.0499177 -0.113256 -0.0267443 -0.677169 0.735341
-0.432513 -0.00568616 -0.0852293 0.0130734 0.766939 -0.641587
-0.130059 -0.156821 -0.141856 0.0296434 -0.613629 0.789038
-0.252738 -0.00748324 -0.0476435 0.531864 0.25645 -0.807065
-0.0538383 0.199238 0.143174 -0.410856 -0.417296 0.810593
-0.0263617 -0.151667 -0.108779 0.34276 0.414993 -0.842791
-0.509834 0.092502 -0.0173455 0.00843141 -0.753814 0.657034
-0.376231 0.284613 0.140695 0.0652396 -0.784743 0.616378
0.135688 0.228528 0.188295 0.454107 0.450455 -0.768685
-0.254384 -0.257654 -0.231001 0.0221933 0.688079 -0.725296
-0.4361 0.283677 0.123694 -0.585765 0.765784 0.265433
0.342765 0.072904 0.109726 0.189319 0.557616 -0.808222
0.279659 0.352692 0.305469 0.259454 0.448489 -0.855302
-0.177384 -0.306102 -0.263826 -0.00326156 -0.59514 0.803615
0.154072 -0.423665 -0.275273 0.0875114 0.659774 -0.746351
0.0241728 -0.288558 -0.201821 0.149933 0.515766 -0.843508
0.223188 -0.095665 -0.0286593 -0.359932 -0.438755 0.823373
0.26761 0.0302439 0.0763609 -0.281772 -0.441762 0.851734
-0.102229 0.220729 0.135871 0.394623 0.423656 -0.815345
0.544151 -0.147519 -0.0184001 0.120585 0.595669 -0.794127
0.422266 0.0599497 0.109586 0.459234 0.388702 -0.798759
-0.0390985 -0.374546 -0.283339 0.381251 0.478215 -0.791175
-0.622387 0.183241 0.0310326 -0.531386 0.772602 0.347442
0.480448 0.0771961 0.148015 -0.114863 -0.605878 0.787222
-0.287902 -0.015816 -0.0666794 -0.265176 -0.449911 0.852796
-0.0068246 -0.116325 -0.092206 -0.303044 -0.520505 0.798272
-0.388068 0.232074 0.0927626 0.0953098 0.669759 -0.736437
-0.279335 -0.336954 -0.289246 -0.484885 -0.327962 0.810757
0.0733445 0.529466 0.402851 -0.584339 0.733417 0.347344
0.391171 0.00667666 0.0829504 -0.00786102 -0.822807 0.568266
-0.213332 -0.224681 -0.20931 0.282831 0.476129 -0.832651
-0.554764 0.140707 6.25394e-05 -0.216456 -0.573334 0.790212
-0.531883 -0.0229255 -0.108244 -0.517106 -0.251435 0.818157
-0.304856 -0.107612 -0.134627 0.000920574 0.706418 -0.707795
0.25173 0.0638744 0.101675 -0.0149208 -0.59462 0.803869
0.0717309 0.319112 0.242246 0.180043 0.564036 -0.805883
0.169493 0.117958 0.127109 -0.133896 -0.587412 0.798135
-0.611956 0.126264 -0.0101692 0.144732 0.584676 -0.798252
-0.372873 0.289274 0.146116 0.24708 0.79067 0.560171
0.417939 -0.160344 -0.035803 -0.230988 -0.498623 0.835476
0.014689 -0.419895 -0.305265 0.129379 0.665683 -0.734934
-0.287876 0.176463 0.0746077 0.0839933 0.584245 -0.80722
0.0476489 -0.481272 -0.343761 0.536747 -0.833055 -0.133876
0.526012 -0.23467 -0.0657378 -0.0858872 -0.67864 0.729432
0.393704 -0.105946 -0.0105884 0.266329 0.479568 -0.836112
0.440207 -0.118259 0.00141889 0.0581269 -0.697232 0.714485
-0.0930272 -0.210807 -0.169632 -0.226086 -0.505497 0.832682
-0.162629 -0.130062 -0.119509 -0.130704 -0.59624 0.792095
-0.0402769 0.473629 0.34431 -0.537457 0.771437 0.340625
-0.13751 -0.505588 -0.392476 0.0966125 0.624723 -0.774846
-0.51372 0.240722 0.0845417 0.194292 0.525093 -0.82857
0.00420847 -0.255177 -0.181105 -0.202592 -0.57006 0.796234
0.086065 0.32608 0.250869 -0.139171 -0.583636 0.800001
0.241391 -0.0868974 -0.0192991 -0.2175 -0.549433 0.806732
-0.0437259 0.0111063 -0.00239189 0.109992 0.672276 -0.732083
-0.0513895 0.221757 0.143028 -0.0731071 -0.653172 0.753672
-0.0207097 0.182092 0.133322 0.13663 -0.68686 0.713832
0.223258 0.351307 0.29946 -0.254084 -0.490222 0.833741
-0.41767 0.0400056 -0.0472953 0.285335 0.443319 -0.849736
0.0344394 -0.142764 -0.106302 0.0466379 0.677187 -0.734331
0.446987 -0.208389 -0.0683502 0.228494 0.523052 -0.821101
-0.651317 0.102013 -0.044899 -0.0408211 0.61021 -0.791188
-0.124824 0.433827 0.295018 0.354797 0.526692 -0.772473
0.325388 -0.215003 -0.0946967 -0.241509 -0.437936 0.865959
-0.146551 0.348188 0.233825 -0.278217 -0.462453 0.841863
-0.207147 -0.0724559 -0.0934115 -0.152718 -0.57129 0.806415
-0.036285 0.30909 0.208979 0.036709 0.593693 -0.803854
-0.0787427 0.0834072 0.0439047 0.0655661 0.71567 -0.695354
0.122256 -0.127469 -0.0602297 -0.20228 -0.534809 0.820404
0.0726785 -0.403837 -0.278074 0.132016 0.595922 -0.792117
0.600811 -0.145565 0.0117003 0.0548185 -0.637464 0.768527
-0.0915141 0.3973 0.272914 0.0790244 -0.750547 0.656075
-0.161634 -0.00857216 -0.043479 0.235967 0.507787 -0.828536
-0.280444 0.0769979 0.0016706 -0.139082 -0.583077 0.800423
-0.0644008 -0.0297525 -0.0341004 -0.247248 -0.475229 0.844409
0.167392 0.372864 0.31234 -0.165102 -0.491121 0.855302
0.260408 0.281717 0.258285 0.170299 0.567686 -0.805438
-0.343911 0.0634817 -0.0266655 0.0574128 0.617094 -0.784793
-0.112007 -0.120282 -0.102713 -0.059776 -0.623353 0.779652
-0.336689 -0.0677755 -0.113033 -0.048175 -0.617229 0.785307
-0.0484326 0.270895 0.184236 0.246047 0.53206 -0.810169
0.180899 -0.171393 -0.0926147 0.0643013 0.717824 -0.693249
0.036897 0.348428 0.255311 0.402971 0.353746 -0.844084
0.498764 0.0284113 0.118482 0.19491 0.562425 -0.803547
0.0449932 -0.323143 -0.228385 -0.464385 -0.120079 0.877455
-0.0298756 0.386127 0.267682 0.170258 0.573757 -0.801134
-0.0199852 -0.487868 -0.348773 -0.201252 -0.562203 0.802138
0.168586 0.479463 0.384075 -0.308519 -0.406061 0.860192
0.249407 -0.0161158 0.0405606 0.185015 0.547399 -0.816164
0.347903 0.0378054 0.0868296 0.207853 0.541728 -0.814449
0.087728 0.216533 0.171738 -0.153185 -0.576959 0.802279
0.440094 0.0532295 0.119629 -0.207797 -0.505819 0.837238
0.499297 -0.186803 -0.0470245 -0.188813 -0.45666 0.869374
0.029697 -0.062421 -0.0363601 -0.28931 -0.554722 0.780118
0.167995 0.295276 0.246529 -0.0846669 -0.642752 0.761381
-0.428744 -0.0575057 -0.120809 -0.290972 -0.426837 0.856239
0.631301 -0.114151 0.0327075 0.197367 0.48024 -0.854643
-0.178965 -0.481384 -0.391678 -0.743133 -0.554326 -0.374801
0.275868 0.100179 0.120117 0.160546 0.57563 -0.801795
0.217437 0.308892 0.275714 -0.326597 -0.151983 0.932864
0.164105 -0.138199 -0.0684387 -0.0573081 -0.614859 0.786552
0.280703 0.200234 0.20392 0.083594 -0.626649 0.774805
0.119539 0.50684 0.393607 -0.0415955 -0.608076 0.792789
-0.229245 -0.410857 -0.355023 -0.823204 -0.484077 -0.296655
0.67112 -0.162662 0.00471125 0.155904 0.573673 -0.80411
-0.338223 0.0965594 0.00879762 -0.113483 -0.585582 0.80263
0.0836915 -0.450749 -0.313934 0.575728 -0.702682 -0.418061
0.182852 -0.293949 -0.177081 0.111259 -0.746049 0.656531
-0.163019 0.402307 0.267614 -0.147658 -0.580873 0.800489
0.174194 0.0825962 0.0786715 0.221154 0.494052 -0.840835
-0.322695 0.152482 0.0574127 -0.268612 -0.545869 0.793646
0.149574 -0.0529201 -0.00929361 -0.139501 -0.586783 0.797637
-0.11669 0.432519 0.295039 0.228413 0.412624 -0.881799
-0.0997266 0.176361 0.108208 -0.0368727 -0.647993 0.760753
0.613757 -0.181217 -0.0241387 0.130039 0.600313 -0.789122
