ply
format ascii 1.0
comment Created by Open3D
element vertex 830
property double x
property double y
property double z
property double nx
property double ny
property double nz
end_header
-0.139755 -0.156836 0.399138 0.300545 -0.124495 0.945608
0.174284 -0.41109 0.103825 0.308962 -0.774975 0.551322
-0.0346618 0.000506916 -0.199552 -0.434094 -0.601931 -0.670255
0.153032 0.13236 -0.202435 0.350169 0.532832 0.770371
0.473132 -0.179037 0.0261595 0.908433 -0.384628 -0.163739
0.457988 -0.0713467 -0.10933 0.350287 -0.779267 0.519655
0.0924503 0.360084 -0.264804 0.252626 0.633046 -0.731733
-0.227254 -0.16996 0.069586 -0.409552 -0.639172 -0.650942
-0.276299 0.173202 0.193882 0.93741 0.188897 0.292541
0.35411 -0.296434 0.0867325 0.876862 0.042262 -0.478881
-0.274577 0.132032 0.164198 0.922873 -0.265974 -0.278502
-0.00514855 0.37164 -0.338968 -0.0474598 0.76441 -0.642982
-0.0459469 0.0130591 -0.138356 0.0230367 -0.750455 0.66052
0.441197 -0.234691 -0.00447567 0.873745 -0.479264 -0.0829205
0.454233 -0.0765722 -0.193118 0.918126 -0.14551 -0.368607
-0.245132 0.222399 -0.283098 -0.390436 -0.616848 -0.683417
0.461823 -0.0875647 -0.160775 0.919422 -0.209346 -0.332922
-0.463768 0.0807945 0.14119 0.0492517 -0.843767 0.534445
0.154897 -0.387639 0.048777 -0.372335 -0.608939 -0.7004
-0.328968 -0.110959 0.0749174 -0.431825 -0.617854 -0.657103
-0.427378 -0.128746 0.141109 -0.480138 -0.614294 -0.626188
0.434763 -0.227285 -0.10528 0.897281 -0.429576 -0.101737
-0.0844023 -0.130645 0.170292 0.42058 0.571521 0.70461
-0.178931 -0.0781667 0.276604 0.673218 0.222116 -0.705296
0.261888 0.19193 -0.152985 -0.174557 0.315718 0.932659
0.0145919 -0.188318 -0.0508387 -0.402152 -0.625453 -0.668642
0.225702 -0.326691 0.296525 0.842293 -0.00193499 -0.539016
0.44443 -0.191538 -0.0943517 0.289246 0.61145 -0.736523
-0.236867 0.399547 -0.0725309 -0.913417 0.354025 0.200838
0.189473 -0.199094 0.289491 0.387503 0.619595 0.682601
-0.168513 -0.147551 0.00807081 -0.327718 -0.710325 -0.622928
-0.0408879 0.146565 -0.106821 0.454246 0.529757 0.716253
-0.298298 0.192993 -0.221311 -0.342014 -0.565422 -0.75055
0.0923945 -0.201295 0.135922 0.32115 0.67655 0.662679
0.320018 -0.318577 -0.020676 0.584247 -0.745467 0.320833
0.122212 0.172252 -0.439019 -0.400657 -0.629052 -0.666159
-0.261008 -0.204327 0.115526 -0.386264 -0.610445 -0.691489
0.428141 0.0209408 -0.0495331 0.479242 0.522636 0.705109
-0.455303 -0.086433 0.120476 -0.365923 -0.616734 -0.696949
0.219691 -0.208616 0.283906 0.430695 0.603223 0.671285
0.0891744 -0.163811 -0.118543 -0.421475 -0.633729 -0.64865
0.0451099 -0.445726 0.158992 -0.490001 -0.616978 -0.615822
0.0505093 0.00539117 -0.250106 -0.367367 -0.645971 -0.66915
-0.244366 -0.00029635 0.346829 0.386135 0.621583 0.681567
-0.384011 0.0751239 0.325765 -0.306623 0.321168 0.89601
0.0160302 -0.446368 0.199406 -0.780518 -0.17481 0.600194
-0.186713 -0.390656 0.243701 -0.298794 -0.732528 -0.611658
-0.408383 -0.134876 0.227371 0.175054 -0.775607 0.606457
0.286087 -0.30008 0.221159 -0.228753 -0.699393 0.677142
0.440615 -0.104409 -0.212332 0.919081 -0.102797 -0.380424
-0.270313 0.0836943 0.0789277 0.415981 0.640455 0.645583
-0.235197 0.314286 -0.332948 0.784456 0.177218 -0.594325
-0.193592 -0.24023 0.108826 -0.434778 -0.637857 -0.635694
-0.0423772 -0.22309 0.22216 0.394848 0.603082 0.6931
0.350246 -0.0656113 -0.307694 0.438981 0.510752 -0.739207
-0.132774 -0.0349367 -0.0498285 0.921659 -0.306405 -0.238035
0.09352 -0.187638 0.290279 0.116924 0.984234 0.132709
0.445369 -0.027045 -0.0378253 0.872229 0.0721851 0.483742
0.0616975 0.0293271 -0.0805847 -0.681471 -0.291876 0.671123
-0.159385 -0.125559 0.204895 0.406074 0.620533 0.670852
-0.401272 0.270795 -0.142787 -0.71704 0.661008 -0.221184
0.448648 -0.0657674 -0.0442389 0.909873 -0.383267 -0.158865
-0.33025 0.185158 0.231369 0.408453 0.638635 0.652159
-0.0540608 0.404702 -0.126169 0.379658 0.600645 0.703623
0.37884 -0.123159 -0.316225 -0.337684 -0.581693 -0.740002
-0.485729 0.0812938 0.106391 -0.930613 0.157642 0.330315
-0.0813744 0.111426 -0.0482802 0.423184 0.488577 0.763026
-0.0280471 0.414432 -0.149388 0.335559 0.558346 0.758716
0.0476053 0.154668 -0.38293 -0.400292 -0.629934 -0.665545
-0.105115 -0.0464061 0.018591 0.748293 0.212904 -0.628275
0.254302 -0.366681 -0.0298675 -0.387086 -0.620031 -0.682441
-0.318261 0.153637 -0.175558 -0.393101 -0.614779 -0.683753
0.0174786 -0.0907263 0.0443917 -0.226891 0.799082 -0.556767
0.113641 0.371972 -0.241334 0.0647201 0.763862 -0.642126
0.0101566 -0.318778 0.321408 0.527427 -0.756998 0.385713
0.424982 -0.107412 -0.0844658 0.919245 -0.315472 -0.235513
-0.124719 0.0946664 -0.230365 -0.321191 -0.656683 -0.682352
-0.449752 0.0485481 -0.000549408 -0.310449 -0.518311 -0.796854
0.0596162 -0.215135 0.379157 0.497245 -0.123404 0.858789
-0.0594975 0.417275 -0.160831 -0.000630817 0.987969 0.154653
0.237801 0.0179178 -0.146708 0.504812 0.661971 0.554038
0.00382866 -0.177495 0.162137 0.243951 0.652351 0.717583
-0.392919 0.12913 0.21735 -0.538489 -0.437254 0.720304
0.232954 -0.21318 0.0934614 -0.686429 0.687219 -0.237794
0.177091 -0.222346 0.177167 -0.295379 0.759705 -0.579309
-0.157941 0.331062 -0.267918 0.0366884 0.728892 -0.683645
-0.395631 0.235568 0.196236 -0.376938 0.676802 0.632343
-0.249437 -0.302563 0.20405 -0.425534 -0.622675 -0.656656
-0.329616 -0.0305983 -0.00218328 -0.560143 -0.419893 -0.714093
0.340537 -0.00863823 -0.0382498 -0.91911 0.215389 0.329915
-0.284872 0.159142 0.0923196 0.893128 -0.425713 -0.145229
-0.0698319 -0.0802139 0.042383 0.482187 0.49679 -0.721592
0.039348 -0.322259 0.0527274 -0.408983 -0.592018 -0.69444
0.423613 -0.159372 -0.0870293 0.699169 0.284042 -0.656111
0.370721 -0.288675 -0.168127 -0.400356 -0.60927 -0.684474
0.294443 -0.247246 0.247285 0.18401 -0.0705649 0.980388
0.299612 0.212462 -0.147548 -0.124659 0.287846 0.949529
0.189444 -0.110235 -0.225484 -0.397007 -0.603464 -0.691533
0.29193 -0.397925 0.0894036 0.663581 -0.730111 0.163089
-0.445441 -0.0261469 0.225292 -0.867319 -0.00881996 0.497674
0.324666 0.0163563 -0.09156 -0.886947 0.0712721 0.456339
0.297434 -0.252365 -0.157337 -0.34169 -0.647242 -0.681415
-0.193888 0.0451887 0.0688326 0.484109 0.687672 0.54106
-0.0994415 -0.0146707 0.0301487 0.84128 0.0287537 -0.539834
0.170184 0.31305 -0.347994 0.316098 0.605513 -0.730367
-0.268186 -0.315272 0.290042 0.726715 -0.663179 0.179106
0.11166 -0.231119 0.212495 -0.271313 0.785294 -0.55651
-0.277831 -0.146807 0.0796589 -0.453845 -0.5925 -0.665559
-0.249638 0.0127914 0.226235 0.836242 0.0626189 -0.544774
-0.250919 0.225941 0.0677806 0.814686 -0.578171 0.0447661
-0.169739 0.109855 -0.219358 -0.378115 -0.660696 -0.648467
0.0163044 -0.00143762 -0.222308 -0.362432 -0.661361 -0.656692
0.359258 -0.255746 0.0495014 0.646184 -0.698085 0.308422
-0.392627 0.0723879 0.291312 -0.595772 0.747742 -0.293151
-0.218722 -0.29971 0.181336 -0.386632 -0.640259 -0.663765
-0.300791 0.21137 -0.243367 -0.274083 -0.721105 -0.636306
-0.073756 -0.388964 0.181125 -0.398639 -0.637869 -0.658946
-0.27872 0.110121 0.0561857 0.388708 0.493778 0.777875
0.00391724 0.298217 -0.375971 0.840081 0.0937116 -0.534305
-0.0111707 -0.189372 0.390899 0.265391 0.668247 0.694992
-0.00694643 0.0509438 -0.0952355 -0.169674 -0.685761 0.707773
0.320794 0.078186 -0.100866 -0.859239 -0.0419088 0.509855
-0.209559 0.202668 -0.281505 -0.390113 -0.655372 -0.64676
0.0107115 -0.210268 -0.0311111 -0.268987 -0.737183 -0.619845
-0.356928 -0.152079 0.131521 -0.385534 -0.621307 -0.682159
0.171565 -0.386891 0.200762 0.91361 -0.362475 -0.184195
0.408426 0.117319 -0.240861 0.690021 -0.685792 0.231431
-0.348259 0.000718564 -0.0181517 -0.346635 -0.592898 -0.726854
-0.309355 0.336649 0.084655 0.447142 0.576842 0.683606
-0.116378 -0.279565 0.401198 -0.149426 -0.721062 0.676566
-0.0133946 0.181872 -0.376444 -0.325504 -0.682736 -0.654155
-0.284537 0.0259761 -0.0799634 -0.372916 -0.683256 -0.627769
-0.0435151 -0.306911 0.0920629 -0.379245 -0.621641 -0.685372
-0.398416 0.0729276 0.190427 -0.855139 -0.0781493 0.512474
-0.12006 -0.402768 0.217924 -0.441705 -0.577702 -0.686409
0.456057 -0.0420883 -0.197306 0.900526 0.0174601 -0.434451
0.245816 -0.200498 0.041503 0.38842 0.616466 0.684909
-0.327317 -0.170347 0.123275 -0.405889 -0.610058 -0.680502
-0.465003 0.0220167 0.0933897 -0.680999 -0.375423 0.628727
-0.297744 0.0692132 0.139008 0.83143 -0.0547542 -0.552925
0.366822 -0.306548 0.164361 0.755009 -0.641403 0.136249
0.084414 -0.26344 -0.0247424 -0.383258 -0.617755 -0.686653
0.455838 -0.204016 -0.0414508 0.897879 -0.435041 0.0674727
0.138314 -0.42054 0.0893519 -0.353344 -0.651932 -0.670919
0.236404 0.159475 -0.343067 0.533464 0.417419 -0.735647
0.212139 -0.20803 0.162312 -0.642285 0.724026 -0.251509
-0.475681 0.146844 0.0857375 -0.896677 0.247494 0.367039
0.0913137 -0.138835 -0.139913 -0.362849 -0.600729 -0.712366
-0.362037 -0.204657 0.20541 -0.817068 -0.133436 0.560887
0.473167 -0.0511981 -0.150262 0.915521 -0.175541 -0.361947
-0.106682 0.159288 -0.0893398 0.371867 0.639132 0.67322
-0.291794 0.380221 -0.0262205 -0.0065526 0.76653 -0.642174
0.143527 0.299259 -0.165025 0.201419 -0.108117 0.97352
-0.0629818 0.364742 -0.335361 -0.331181 0.753574 -0.567842
0.024139 0.0363137 -0.0997969 -0.352662 -0.583776 0.731324
0.474939 0.0119606 -0.167329 0.872622 -0.0277291 -0.487609
0.291304 -0.143895 -0.0393702 0.473823 0.581297 0.661503
-0.147081 -0.280219 0.332646 -0.80621 -0.113164 0.580706
0.346087 -0.239168 -0.197104 -0.37185 -0.602779 -0.705964
0.00225662 -0.386346 0.232848 -0.0480477 -0.753239 0.655989
-0.277326 0.135718 0.237898 0.916083 0.342393 0.208706
0.354834 -0.211597 -0.220463 0.853697 -0.520365 -0.0205339
-0.307876 0.296473 -0.210887 -0.908106 0.0957102 0.407656
0.273253 -0.10018 -0.0663003 0.37493 0.627043 0.682821
0.370389 -0.0590406 0.0410162 -0.364336 0.678485 0.6379
-0.463359 0.173057 0.0758825 -0.919705 0.330304 0.21223
0.246484 0.00297753 -0.364322 -0.411433 -0.586869 -0.697357
-0.296582 0.144319 0.0360524 0.262394 0.660911 0.703097
-0.141647 0.312509 -0.290671 -0.504802 0.795389 -0.335457
0.240431 0.241183 -0.159662 -0.178034 0.26329 0.948147
-0.188579 -0.113226 0.207794 0.36699 0.673567 0.64158
-0.416755 -0.0738837 0.269218 -0.753216 -0.330292 0.568834
-0.397703 0.0148613 -0.00437719 -0.387974 -0.611751 -0.689374
0.0334378 -0.0273055 -0.126915 -0.788845 -0.159304 0.593588
-0.329088 0.313909 -0.23384 -0.573885 0.750287 -0.328216
-0.166298 0.447445 -0.101115 -0.0939111 0.968508 0.230594
-0.278906 0.345493 -0.157367 -0.910646 0.139066 0.389082
0.460824 -0.116738 0.0581164 0.522987 0.355274 0.774768
0.0741627 -0.336686 0.0486756 -0.4551 -0.487827 -0.744922
-0.0628619 -0.318421 0.109711 -0.325219 -0.68732 -0.649479
-0.449594 0.127177 -0.0703548 -0.901956 0.411419 0.131186
0.079896 -0.329545 0.319876 -0.69956 -0.306178 0.645655
-0.0185459 0.00325556 -0.140378 -0.189477 -0.693637 0.694958
0.0410236 -0.184787 -0.0704823 -0.373841 -0.5623 -0.737606
-0.0745662 0.414694 -0.274176 -0.885452 0.00906379 0.464642
-0.0062768 -0.154855 -0.0371916 -0.584179 0.726447 -0.361953
-0.128091 -0.00799624 -0.0701213 0.85496 -0.517566 0.0341792
0.053465 0.243719 -0.218876 -0.247687 -0.617537 0.746525
-0.0124446 -0.367696 0.264997 0.324327 -0.749558 0.577039
-0.147312 -0.325344 0.349511 -0.808951 0.580353 -0.0937495
0.413873 -0.272881 -0.0981494 0.889705 -0.438466 -0.127175
-0.111361 0.126737 -0.049177 0.359685 0.62565 0.692235
-0.0725775 0.0849074 -0.0392647 0.388602 0.618019 0.683404
-0.102335 -0.411093 0.28264 -0.271284 -0.582709 0.766064
0.0396885 -0.0764092 -0.171086 -0.38779 -0.583171 -0.713814
0.0525535 -0.0517741 -0.11225 -0.846861 -0.037411 0.530497
0.176644 -0.378658 0.176424 0.915372 -0.400967 -0.0363336
-0.0472005 0.453391 -0.23104 -0.105724 0.77825 -0.618991
-0.428309 0.122795 0.194038 -0.136886 -0.690701 0.710066
0.0362598 0.184154 -0.405328 -0.477156 -0.601376 -0.640835
-0.277554 0.150252 0.120603 0.923142 -0.321771 -0.210409
0.421856 0.0532057 -0.184117 0.338973 0.637153 -0.692194
0.366708 0.231008 -0.211774 0.0741063 0.997068 0.0190937
-0.0304782 -0.112023 0.120193 0.392355 0.626523 0.673444
0.232774 -0.458034 0.0641644 -0.351394 -0.610197 -0.710058
-0.422632 -0.11936 0.251721 -0.837439 -0.141741 0.527831
-0.206693 0.446108 -0.143684 -0.495266 0.739088 -0.456576
0.0841415 -0.212143 0.36021 0.462071 0.598544 0.654397
0.303767 0.171258 -0.33724 -0.447538 0.772303 -0.450842
-0.282398 0.169939 0.0427051 0.879712 -0.470235 -0.0706036
0.132534 -0.448879 0.116204 0.882305 -0.463252 -0.0832795
-0.0904654 0.228479 -0.368911 -0.366827 -0.714071 -0.596272
-0.309018 -0.279259 0.291073 -0.62248 -0.310416 0.718443
-0.283537 0.168996 0.0163639 0.857805 -0.510084 -0.0631343
-0.152476 -0.31916 0.162213 -0.450079 -0.528222 -0.720008
-0.41719 -0.105459 0.118633 -0.366443 -0.635304 -0.679785
0.0139676 0.0918115 -0.305415 -0.388739 -0.599411 -0.699706
-0.419772 0.194604 0.221019 -0.933862 0.256347 0.249375
-0.230901 0.438287 -0.090987 -0.287988 0.337102 0.89634
0.304103 0.113106 -0.386498 0.73008 0.278451 -0.624057
-0.00408365 -0.407327 0.153502 -0.259107 -0.641434 -0.722099
0.0438796 -0.323701 0.301869 -0.149255 -0.675252 0.722328
0.408248 -0.159772 -0.272011 0.939962 -0.293936 -0.173415
-0.189313 0.275111 -0.0539753 0.717925 -0.664433 0.207636
-0.14703 -0.236275 0.0862858 -0.42249 -0.605331 -0.674593
0.401895 0.0936767 -0.283437 0.715225 0.248145 -0.653358
0.129006 -0.275718 -0.0377004 -0.479518 -0.525231 -0.70299
0.403268 -0.042143 0.0251168 0.382635 0.622376 0.682816
-0.449713 -0.0629463 0.227184 -0.863556 -0.010517 0.504144
0.22429 0.130518 -0.372933 0.458353 0.473913 -0.751877
-0.386768 -0.133466 0.128053 -0.342522 -0.602908 -0.720542
-0.248609 0.104344 -0.168369 -0.338123 -0.608111 -0.718244
-0.183055 0.286166 -0.313863 0.136984 0.724722 -0.675287
-0.298933 0.130336 -0.162274 -0.385476 -0.658265 -0.646603
0.0166408 0.212965 -0.415892 0.184597 0.691145 -0.698744
-0.350912 0.351284 -0.0775675 -0.745738 0.645811 -0.163715
-0.454407 -0.151624 0.182761 -0.374444 -0.613093 -0.695635
0.0121665 -0.30399 0.372362 0.82834 -0.556891 0.0610323
-0.0553047 0.437736 -0.254386 -0.160823 0.773221 -0.613404
-0.233233 0.409777 -0.175259 -0.47683 0.765213 -0.432531
-0.430923 0.244728 -0.126913 -0.82229 0.568224 -0.0309864
0.401368 0.122497 -0.14752 0.909302 0.393783 0.134554
0.427092 -0.128981 -0.237284 0.914194 -0.166374 -0.369551
-0.157354 -0.164194 0.241401 0.44842 0.556804 -0.699206
0.411047 -0.0230278 0.0015119 0.377057 0.656918 0.652907
0.404512 0.123247 -0.26841 0.772777 0.181002 -0.608321
-0.307351 -0.146544 0.302146 -0.920069 0.307091 0.243245
-0.310655 -0.234853 0.318572 -0.646985 -0.3511 0.67686
0.187533 -0.160668 -0.179023 -0.391237 -0.610053 -0.689035
0.255841 0.058697 -0.414856 -0.37344 -0.625214 -0.685311
0.341801 -0.275369 0.0353768 0.836098 -0.546699 0.0453938
-0.0464357 0.231777 -0.183589 0.365081 0.63568 0.680167
0.337211 -0.344803 0.12362 0.647341 -0.671887 0.359885
-0.193699 0.104369 -0.201686 -0.354513 -0.642152 -0.679677
0.0785612 0.257616 -0.203661 -0.0912662 -0.743197 0.662819
-0.0898514 -0.225694 0.0419906 -0.386652 -0.62636 -0.676885
-0.515597 0.025053 0.0595609 -0.919249 0.213955 0.330461
0.274167 -0.0291519 -0.342789 -0.348966 -0.589804 -0.728254
-0.197145 -0.258012 0.310507 0.201831 -0.812621 0.546728
-0.368841 -0.167335 0.207638 -0.664985 -0.310442 0.67928
0.230949 -0.28563 0.297116 0.927985 0.193163 0.318641
0.290576 0.0205961 -0.399728 -0.387083 -0.621598 -0.681016
0.303775 -0.317808 -0.0928104 -0.369405 -0.635996 -0.677531
0.318028 0.244365 -0.239429 0.323178 0.945646 -0.0361834
0.260515 -0.0810085 -0.293555 -0.385002 -0.539855 -0.748552
0.291257 -0.147229 -0.242391 -0.384483 -0.565868 -0.72936
-0.364063 0.199131 0.242405 -0.0433665 0.0936644 0.994659
0.241428 0.272275 -0.171296 0.379708 0.624424 0.682581
-0.220902 -0.131724 0.0316407 -0.430897 -0.569933 -0.699646
0.156396 0.35552 -0.199618 0.437802 0.613414 0.657308
-0.418234 0.231618 0.169839 -0.920275 0.37615 0.107728
-0.308774 0.301233 -0.123381 -0.545174 0.762455 -0.348494
-0.131419 0.307166 -0.0790915 0.548152 -0.727501 0.41264
-0.231307 0.122632 0.0205017 0.401046 0.614675 0.679218
-0.432251 0.0303859 0.128658 -0.758306 -0.230913 0.609631
0.0252429 -0.0556441 -0.147832 -0.73725 -0.241859 0.630846
-0.191313 -0.0976524 0.414779 0.400822 0.57118 0.716307
-0.195961 0.314237 -0.28898 0.245715 0.693955 -0.676794
0.314135 -0.0110318 -0.113627 -0.895891 0.081026 0.436823
0.0868588 -0.0947723 -0.176865 -0.278549 -0.616818 -0.73617
-0.0653078 0.108673 -0.281573 -0.377286 -0.644237 -0.665292
-0.171726 -0.0948037 0.185264 0.338913 0.523684 0.781597
0.399087 -0.156168 -0.116877 0.921581 -0.201616 -0.331723
0.434546 -0.0915314 0.0561431 0.345122 0.539159 0.768244
-0.456823 0.02681 0.0225649 -0.367227 -0.665988 -0.64931
-0.104461 0.0251725 0.0344955 0.389044 0.66469 0.637834
0.313389 -0.119339 0.0228782 -0.843687 0.536817 -0.00430362
-0.165532 -0.261017 0.319499 -0.448615 -0.532616 0.71768
0.430201 -0.0935712 -0.238997 0.925985 -0.258076 -0.275586
-0.352689 -0.217627 0.232014 -0.892913 0.428721 0.137495
-0.239404 0.382036 -0.0192072 -0.151575 0.919935 0.361586
0.240094 -0.19609 0.25906 0.322917 0.74513 0.583529
0.426547 0.138585 -0.238412 0.756429 0.230201 -0.612228
-0.241361 -0.272227 0.166662 -0.37725 -0.439703 -0.815073
-0.0182384 -0.154086 0.333053 0.429081 0.902262 -0.0425803
-0.0973708 0.192003 -0.121864 0.404338 0.612493 0.679238
-0.196073 0.356601 0.00446795 0.442814 0.589367 0.675694
0.46801 -0.152945 0.0541139 0.908929 0.0862945 0.407924
-0.40587 0.079297 -0.0603465 -0.278079 -0.640504 -0.71584
0.38807 -0.158138 -0.184368 0.728165 -0.658209 0.191146
-0.261282 -0.14454 0.409744 -0.586859 -0.390466 0.709318
0.412168 -0.194019 -0.112937 0.60114 0.388785 -0.698195
0.330991 -0.130656 0.128003 -0.297303 0.825436 0.47986
0.305259 0.0898651 -0.396906 0.647754 0.3655 -0.668449
-0.328512 -0.169314 0.273817 -0.933077 0.185323 0.308258
0.102868 0.101403 -0.150079 0.425137 0.583725 0.691754
-0.130246 -0.26844 0.356312 -0.859504 -0.0356285 0.509886
-0.35651 0.359728 0.0545035 -0.380903 0.839447 0.387609
0.0708625 -0.105381 -0.16113 -0.40481 -0.619251 -0.672798
-0.0757156 -0.243261 0.433329 0.133093 -0.102111 0.985829
0.0640013 0.219748 -0.236305 0.412557 0.613408 0.673445
0.158443 0.267284 -0.172663 0.0108907 0.0560351 0.998369
0.134913 -0.0354222 -0.265811 -0.462793 -0.518906 -0.718721
0.0775192 0.315628 -0.155789 0.260056 -0.122174 0.957833
-0.0154537 -0.325156 0.0954064 -0.376269 -0.612603 -0.695082
-0.0966062 -0.329665 0.138324 -0.361055 -0.523002 -0.77208
0.0167371 -0.136327 0.11471 0.388802 0.603538 0.696114
0.475039 0.0410168 -0.0900813 0.460339 0.565352 0.684445
-0.310263 -0.135467 0.0827594 -0.361402 -0.6729 -0.645441
0.251494 0.255707 -0.290573 0.884496 -0.0617504 -0.462443
0.273258 -0.195669 0.237614 0.402938 0.642471 0.651822
-0.189273 0.209901 -0.0806191 0.440221 0.650724 0.618679
-0.0059823 -0.416392 0.204015 -0.0628202 -0.778589 0.624382
0.450788 0.0670242 -0.10271 0.414161 0.908564 0.0545977
0.0522426 -0.281121 0.0121225 -0.407392 -0.551366 -0.72803
0.140566 0.232721 -0.429902 0.366108 0.563949 -0.740221
0.374818 -0.0579097 -0.297161 0.0600448 0.705203 -0.706458
0.16254 -0.374144 0.28899 0.287422 -0.728128 0.622269
-0.00862783 -0.282339 0.423251 0.347114 -0.148153 0.926047
0.126677 -0.0748296 -0.218541 -0.474354 -0.456357 -0.752812
-0.118963 -0.114917 -0.01928 0.707859 0.279105 -0.648873
0.309582 -0.108445 -0.295644 -0.301553 -0.670187 -0.67817
-0.4465 0.236376 -0.0996017 -0.802923 0.590823 -0.0790105
0.253697 -0.0735259 -0.0757486 0.362714 0.61556 0.69966
0.382566 -0.322114 -0.115354 0.872999 -0.484437 -0.056521
0.178136 0.208788 -0.195698 -0.3657 -0.545399 0.75419
0.109166 -0.240794 0.359044 0.249255 -0.181868 0.951208
-0.103132 -0.172366 0.396474 -0.106555 0.118539 0.987216
-0.16093 0.148696 -0.043173 0.365353 0.600065 0.711645
-0.0986494 0.0127965 -0.16409 -0.142692 -0.64235 -0.753011
-0.231317 -0.221953 0.382541 -0.518879 -0.446356 0.729062
0.445265 0.0300793 -0.0695329 0.420367 0.613537 0.668479
-0.22932 -0.0402824 0.1693 0.284026 0.626241 0.726052
0.374311 0.0809411 -0.0778064 -0.311984 0.44465 0.839615
0.271639 -0.205385 -0.179 -0.390028 -0.64501 -0.657146
0.202642 0.225823 -0.398269 0.515631 0.432859 -0.739431
-0.0585919 0.312926 -0.124349 0.249823 -0.778943 0.575183
0.264973 -0.0109031 -0.138947 0.390479 0.614053 0.685904
-0.417225 -0.0553973 0.070847 -0.310197 -0.629092 -0.712756
-0.292057 0.321299 -0.104607 -0.56578 0.744568 -0.354276
0.0262024 -0.137242 -0.0532227 -0.78184 0.59671 -0.180731
0.196854 0.374909 -0.258209 0.417892 0.908386 0.0142213
0.472528 0.0559397 -0.124859 0.898531 0.415861 0.140359
0.186132 0.0338239 -0.135798 0.355413 0.62143 0.698216
0.471517 -0.0294773 -0.174598 0.915845 -0.19192 -0.352697
-0.391921 0.316342 0.0112095 -0.776373 0.622825 -0.0966112
-0.123978 0.433963 -0.108452 0.387675 0.661061 0.642423
-0.158739 0.448955 -0.178175 -0.47946 0.800905 -0.358704
0.0372397 0.380452 -0.326794 0.0544615 0.715055 -0.696943
0.0348014 0.0882341 -0.0989588 0.496107 0.622919 0.604855
0.291792 0.0547618 -0.15586 -0.75649 -0.19979 0.622742
-0.415247 0.204784 -0.0314199 -0.853777 -0.0542896 0.517801
-0.306946 0.0477876 -0.0851235 -0.244273 -0.668093 -0.702839
-0.445764 0.202602 -0.146642 -0.343386 -0.657728 -0.670433
-0.217659 -0.0629687 -0.0355794 -0.475205 -0.583113 -0.658907
0.224092 0.031159 -0.373733 -0.388007 -0.617915 -0.683835
0.0462029 -0.0471952 -0.197779 -0.421998 -0.505234 -0.752766
0.274324 -0.00702012 -0.36679 -0.392723 -0.60853 -0.689536
-0.166398 0.18745 -0.0717026 0.400428 0.689841 0.603139
-0.372892 0.0227342 -0.0220151 -0.45883 -0.563363 -0.687093
0.494937 -0.0166487 -0.0923245 0.921824 0.310338 0.23223
-0.233981 -0.0893956 -0.00133602 -0.406085 -0.603218 -0.686457
0.150749 0.290902 -0.378313 0.300387 0.631583 -0.714752
-0.319567 0.00732598 -0.03853 -0.390932 -0.579525 -0.715068
0.447417 -0.0778054 0.0294592 0.77067 0.637224 -0.00364222
-0.201137 -0.123549 0.22802 0.472049 0.599847 0.646029
0.406314 -0.0911679 -0.290043 0.894605 -0.0730504 -0.440847
-0.266115 0.166371 0.152105 0.889702 -0.425412 -0.165697
-0.459617 0.18467 -0.0818411 -0.60162 -0.359245 0.71344
0.259026 -0.309138 0.208014 0.143252 -0.761065 0.63266
0.399014 0.0924607 -0.0917031 0.350569 0.623786 0.698564
0.10069 0.00210534 -0.058009 0.393698 0.656339 0.6436
-0.176313 0.266751 -0.0882357 0.637395 -0.705012 0.310944
-0.20885 -0.230172 0.363315 0.469871 -0.738055 0.484247
-0.409991 0.278411 -0.0866805 -0.810107 0.586199 -0.00982534
0.268031 -0.214348 0.258895 0.456538 0.602243 0.654887
0.115562 -0.426559 0.108718 -0.33653 -0.664119 -0.667603
-0.40839 0.167748 0.239413 -0.132356 -0.701055 0.700717
0.192683 0.175096 -0.20984 -0.50749 -0.467702 0.723677
0.283636 -0.164268 -0.00381941 -0.862792 0.494155 0.106771
0.219957 -0.247422 -0.112565 -0.392339 -0.617081 -0.682115
-0.252293 -0.0759538 0.388899 -0.317236 0.58139 0.749231
0.368041 -0.208996 -0.181572 0.916514 -0.212344 -0.338988
-0.235159 0.231112 -0.0558553 0.718808 -0.666711 0.197007
0.44301 0.0747279 -0.132257 0.374799 0.92707 -0.00820173
-0.136139 0.210781 -0.112535 0.41578 0.61903 0.66628
0.0370641 0.0576529 -0.0748936 0.408068 0.735634 0.540669
0.0838496 0.278443 -0.347455 -0.290329 0.783581 -0.549282
0.222408 -0.324624 -0.0456595 -0.391944 -0.668384 -0.632172
-0.286193 -0.222119 0.14872 -0.32633 -0.63997 -0.695663
0.189348 -0.00531952 -0.320729 -0.38924 -0.611584 -0.688809
-0.131111 -0.364286 0.192161 -0.399937 -0.619293 -0.675667
0.129929 -0.20442 0.237234 -0.250873 0.783566 -0.568407
-0.256877 0.368539 -0.0627862 -0.667124 0.700486 -0.253505
-0.203036 0.251805 -0.0742695 0.676645 -0.699012 0.231375
0.337834 -0.00824094 -0.393026 0.792334 0.120789 -0.59801
0.107334 0.283567 -0.405037 0.451436 0.524484 -0.721888
0.155195 -0.0994859 -0.000141826 0.352317 0.654739 0.668722
0.105234 -0.227192 -0.0753025 -0.372554 -0.585707 -0.719827
-0.266438 -0.242366 0.160973 -0.419914 -0.61332 -0.668962
0.0578118 0.417944 -0.282796 0.0610957 0.703181 -0.708381
-0.0103672 -0.221112 0.209211 0.327129 0.710091 0.623504
-0.227968 0.356334 0.0198754 0.502961 0.699143 0.508163
0.0619538 -0.385323 0.276636 -0.802577 -0.136719 0.580671
-0.187772 0.312006 0.000878487 0.775515 -0.0446041 0.629752
-0.328297 -0.00121 0.366869 0.420579 -0.0995323 0.90178
-0.458877 0.214877 -0.100488 -0.82834 0.55004 0.106343
0.0716612 -0.072546 -0.0319795 -0.889704 0.433152 0.144245
-0.102166 0.421378 -0.11838 0.393245 0.919239 -0.0189049
0.298281 -0.207064 0.235991 0.428449 0.560148 0.70899
0.351644 -0.328767 -0.120263 -0.392171 -0.626615 -0.673465
0.484262 0.00994466 -0.0776745 0.925318 0.322392 0.199623
-0.0958271 0.374279 -0.324438 -0.135619 0.765036 -0.629545
-0.263496 0.196961 -0.24546 -0.392051 -0.602139 -0.695503
0.296305 0.0153454 -0.145344 -0.877931 0.0247237 0.478149
0.0260692 0.446174 -0.222998 0.23407 0.971986 0.0213009
-0.286283 0.347452 -0.227369 -0.494704 0.734984 -0.463753
0.0265568 -0.202208 0.387231 0.367648 0.441974 0.818226
-0.405375 0.255131 -0.172321 0.658226 0.292605 -0.693628
-0.174619 -0.332548 0.278041 -0.866975 0.0168443 0.498067
-0.135497 -0.0877807 0.155353 0.398498 0.654102 0.642923
0.050659 -0.207422 0.259795 -0.128097 0.761822 -0.634995
-0.280013 0.288658 -0.318311 -0.366181 -0.640623 -0.674917
-0.00576735 -0.329892 0.339987 0.863056 -0.50468 -0.0208065
-0.377707 0.260023 -0.155352 0.315134 0.583416 -0.748543
0.355756 -0.00979884 -0.266574 0.72607 0.24982 -0.640634
-0.0141854 0.161479 -0.136116 0.507405 0.552575 0.661213
-0.0979025 -0.170909 0.209964 0.379302 0.660179 0.6483
-0.364489 0.0950319 0.277857 -0.778623 0.62079 -0.0914681
0.159692 0.106958 -0.410914 -0.426129 -0.575016 -0.698406
0.24281 -0.181503 0.025319 0.310812 0.631281 0.710549
0.189147 -0.247053 -0.0984287 -0.388792 -0.474152 -0.78995
-0.218423 0.221231 -0.0780079 0.397293 0.618373 0.678066
0.0689233 -0.293795 0.338446 -0.055702 -0.768997 0.636821
0.103865 -0.123855 -0.159791 -0.18028 -0.502119 -0.845799
0.257254 -0.179372 0.123157 -0.768195 0.620064 -0.159365
-0.277477 0.0866297 0.294131 0.427014 0.653132 0.625361
0.313078 -0.104669 -0.0335719 -0.896801 0.439539 0.0505343
0.1875 0.165097 -0.415615 0.918669 -0.268231 -0.289997
0.33797 -0.0735787 0.0412539 -0.352258 0.762216 0.543085
-0.482042 0.0445653 0.0190954 -0.385876 -0.611198 -0.691041
-0.0757857 -0.291223 0.0903336 -0.363749 -0.601276 -0.711445
-0.110423 0.179505 -0.316765 -0.388988 -0.610479 -0.68993
-0.0261897 0.0662156 -0.263562 -0.387041 -0.534173 -0.751571
0.157033 0.0062918 -0.309197 -0.358241 -0.625709 -0.69293
-0.0340732 0.41955 -0.281286 -0.0926359 0.737157 -0.669341
0.258882 0.305656 -0.209502 0.889706 0.455417 0.0319122
0.403347 -0.277198 -0.126557 0.902129 -0.314473 -0.295416
-0.310961 0.26497 -0.279167 -0.374614 -0.619535 -0.689812
0.155167 0.0498864 -0.134141 0.282805 0.606928 0.742738
-0.214777 0.0845203 -0.17188 -0.414924 -0.724308 -0.550651
-0.0758274 0.165384 -0.10631 0.296529 0.631772 0.716194
-0.227427 -0.257391 0.33183 0.546052 -0.751239 0.370766
-0.0464126 0.168137 -0.13126 0.389308 0.62133 0.679991
-0.123488 -0.0827641 -0.020837 0.795656 0.168887 -0.581729
-0.0849292 0.0555573 -0.0297577 0.737068 -0.653465 0.172376
-0.406433 -0.0492847 0.289475 -0.859342 -0.0371677 0.51005
-0.268697 0.216449 -0.256065 -0.424912 -0.600167 -0.67768
0.23403 0.0500271 -0.39717 -0.373479 -0.624844 -0.685627
0.0442616 -0.249672 0.384877 0.603365 -0.0904686 0.792317
0.387543 0.063068 -0.216209 0.900204 -0.0957107 -0.424821
0.397435 0.11929 -0.12074 0.798597 0.600152 0.0453976
0.180858 -0.0769198 -0.249373 -0.380157 -0.586456 -0.715228
-0.021696 0.454933 -0.239321 -0.149252 0.78565 -0.600398
-0.0914997 -0.102014 0.0114989 0.549421 0.442818 -0.708554
0.376443 -0.222496 0.115236 0.89907 -0.405989 -0.163851
0.00793073 0.388652 -0.143636 0.35779 0.674764 0.645507
0.0709775 0.231725 -0.424714 -0.754823 0.637376 -0.154897
0.10578 -0.307273 0.350813 -0.779629 -0.20841 0.590546
0.165559 -0.32494 0.360383 0.276606 -0.791057 0.545636
0.13901 -0.475527 0.141778 0.885265 0.0789872 -0.458331
-0.0189712 0.118804 -0.0996196 0.37666 0.632955 0.676384
0.265948 -0.170705 0.189246 -0.243257 0.914278 0.323916
0.177273 0.385961 -0.277809 0.375981 0.92338 0.0775103
-0.118636 0.418227 -0.171637 0.293307 0.598303 -0.745657
-0.426531 0.0534792 0.146439 -0.677619 -0.318354 0.662935
0.491723 -0.0470199 -0.107586 0.928 -0.230193 -0.292962
0.268051 -0.157771 0.156926 -0.193204 0.932215 0.306017
0.0130012 0.271836 -0.369752 0.603254 0.387253 -0.697223
-0.394691 -0.087194 0.29853 -0.668914 -0.214298 0.71178
-0.0695889 -0.270407 0.0708147 -0.272198 -0.718749 -0.639771
0.396089 -0.215959 -0.137885 0.633823 0.359643 -0.684781
0.317191 -0.153201 -0.257254 -0.314638 -0.567604 -0.760808
-0.000241845 0.0756521 -0.284112 -0.298242 -0.639009 -0.709027
-0.125322 0.276171 -0.135402 0.336029 -0.780303 0.527458
0.417999 -0.210964 0.0656394 0.172897 -0.804561 0.568144
-0.0336754 -0.321273 0.383774 -0.169879 -0.693219 0.70042
0.129764 0.370987 -0.192944 0.331365 0.942295 0.0477257
-0.20433 -0.0844046 0.191441 0.431667 0.564821 0.703307
-0.231587 0.0256718 0.292214 0.839604 0.538868 0.0684531
0.245402 0.150354 -0.17846 -0.653735 -0.355639 0.667946
0.103822 0.236346 -0.20748 -0.303363 -0.570704 0.763065
-0.134467 -0.281942 0.117871 -0.386655 -0.618472 -0.684098
0.116915 0.15036 -0.416377 -0.264484 -0.58338 -0.76793
0.0462831 -0.189281 0.361426 0.392591 0.576093 0.716931
0.155223 0.364573 -0.267664 -0.602187 0.691204 -0.399509
0.318766 -0.187258 0.206511 0.419619 0.707078 0.569175
0.0707961 -0.0856982 0.0348502 0.366285 0.631509 0.683397
0.0913358 0.3214 -0.297389 -0.0353822 0.756051 -0.653555
-0.185963 -0.0401354 0.359442 0.383294 0.62067 0.683999
-0.118007 -0.0422712 0.101831 0.481656 0.608172 0.630979
0.396153 0.0174702 -0.0236487 0.232786 0.674587 0.700531
-0.340917 0.0495962 -0.0703339 -0.410473 -0.602961 -0.684069
-0.2727 -0.308259 0.219623 -0.417091 -0.683204 -0.599389
0.234385 0.102044 -0.391139 -0.000982841 0.75621 -0.654328
-0.374388 -0.0277831 0.0204391 -0.382526 -0.617747 -0.687068
-0.010588 0.158906 -0.358369 -0.386501 -0.614306 -0.687928
0.110115 -0.124821 0.0474398 0.404235 0.656466 0.636903
0.0255695 -0.142861 -0.0840289 -0.760375 0.619745 -0.194281
-0.238126 -0.163521 0.419581 -0.601636 -0.395508 0.693979
0.248302 0.341756 -0.272755 0.576296 0.81636 -0.0379384
-0.267039 0.023416 0.204487 0.851748 0.115765 -0.511004
-0.0195555 0.261701 -0.426018 0.879889 0.0124171 -0.475016
0.400435 -0.0464867 -0.282526 -0.326088 0.811033 -0.485688
-0.077498 -0.210386 0.0155587 -0.346695 -0.599017 -0.721791
-0.430012 -0.00451477 0.0329377 -0.331049 -0.588214 -0.737842
-0.222735 0.159504 -0.0166141 0.401747 0.607785 0.68498
0.387716 -0.318669 -0.05401 0.794211 -0.601434 0.0866359
0.174371 -0.393722 0.135831 0.597872 -0.733662 0.322939
0.325148 -0.231532 0.243526 0.360962 0.668242 0.650507
0.100812 0.208638 -0.237286 -0.290739 -0.606792 0.739779
0.00127768 0.418761 -0.168296 0.371277 0.698228 0.612072
0.0477547 -0.212887 -0.0498274 -0.388136 -0.607537 -0.693001
0.2839 0.0791275 -0.431599 0.749764 0.271965 -0.603232
-0.0028364 -0.0744389 0.0735922 0.324891 0.529422 0.783682
0.351718 0.0322189 -0.281613 0.915103 -0.343666 -0.210901
-0.192271 0.257168 -0.335696 -0.579206 -0.422957 -0.69687
-0.187137 -0.0294769 0.132662 0.319629 0.646385 0.692837
-0.432319 -0.0709856 0.0942143 -0.386506 -0.678693 -0.624491
-0.156869 0.092864 0.000800932 0.444788 0.611691 0.654216
-0.318001 -0.15363 0.345695 -0.75774 0.630209 -0.169316
-0.148523 0.286119 -0.0942472 0.580196 -0.753636 0.308878
0.344888 0.172082 -0.320173 0.571013 0.459371 -0.680384
0.137162 0.272054 -0.397483 0.390797 0.541603 -0.744274
-0.421309 0.195 0.0680765 -0.31324 0.781563 -0.539481
-0.179558 -0.119567 -0.00249489 -0.177225 -0.666863 -0.723799
-0.048117 0.280739 -0.436809 0.116185 0.697402 -0.707199
0.363468 -0.0915369 -0.335282 -0.00809843 0.747022 -0.66475
-0.156685 0.344499 -0.0275366 0.744416 -0.0690295 0.664138
-0.448084 0.151941 -0.0805956 -0.777235 -0.119683 0.617723
0.154392 -0.0556733 -0.0400505 0.305069 0.668507 0.678256
-0.184604 0.44214 -0.168204 -0.359939 0.796864 -0.485234
0.217953 -0.318203 0.233746 0.713833 -0.664352 0.221537
0.458799 -0.0330546 -0.0602813 0.819415 -0.0466967 0.571295
0.19448 -0.139063 -0.20219 -0.343265 -0.514449 -0.785819
-0.241472 0.00360821 0.133381 0.372592 0.491021 0.787448
-0.119987 -0.0468875 -0.008255 0.895516 -0.0434869 -0.4429
-0.345653 0.0278145 0.359073 -0.290582 0.336061 0.895894
-0.336293 0.261043 0.149111 -0.23551 0.915137 0.327199
0.137999 0.120339 -0.404172 -0.494529 -0.525097 -0.692614
0.324385 -0.103446 0.0464096 -0.858681 0.511829 0.0264303
-0.200695 0.0495073 -0.144634 -0.388722 -0.631239 -0.671142
0.0443423 -0.129599 -0.122014 -0.386538 -0.609536 -0.692138
0.226381 0.353648 -0.275375 0.546831 0.836349 -0.0386766
-0.357256 0.292065 0.0797971 -0.878014 0.0763801 0.472501
0.141946 -0.207924 -0.112727 -0.452763 -0.60583 -0.654198
0.324823 -0.0927418 0.0130426 -0.895706 0.443214 0.0356624
-0.309719 -0.292232 0.225129 -0.387221 -0.619702 -0.682664
-0.19731 -0.163915 0.0454487 -0.499192 -0.575518 -0.647755
-0.176007 -0.351652 0.202315 -0.358435 -0.688406 -0.630572
0.353596 0.229902 -0.193026 0.388763 0.625179 0.676768
-0.0371481 -0.337754 0.109231 -0.393659 -0.603841 -0.693115
0.347976 -0.0313882 -0.00756497 -0.935017 0.131409 0.329355
-0.31609 -0.0984973 0.0531513 -0.401053 -0.633611 -0.661584
0.40152 0.150117 -0.161766 0.917003 0.178877 0.356523
-0.356011 -0.0227759 0.362495 0.584225 -0.745123 0.321671
0.268961 -0.103996 -0.269805 -0.392751 -0.553581 -0.734367
-0.188537 -0.0311958 0.327048 0.758647 0.651314 0.0156214
-0.328054 -0.0754094 0.30556 -0.349151 -0.633894 0.690124
0.291483 -0.155029 0.0383767 -0.827253 0.559459 -0.0515526
0.072484 -0.313066 0.0292941 -0.354995 -0.577768 -0.734958
-0.269065 -0.0398741 -0.0287427 -0.338447 -0.635847 -0.693651
0.419522 -0.251472 -0.126634 0.897571 -0.421516 -0.129194
0.468597 -0.0509913 -0.0862837 0.518699 -0.759608 0.392361
0.0445451 -0.113368 -0.0235958 -0.728881 0.680197 -0.0778733
0.108564 -0.166658 0.0904887 0.34881 0.614691 0.707451
0.138579 0.0697428 -0.35846 -0.400354 -0.631648 -0.663881
-0.0788484 -0.154705 0.183449 0.402015 0.599982 0.691669
-0.070731 0.0603815 -0.0515752 0.491393 -0.736966 0.464127
0.111815 0.311711 -0.164791 0.242404 -0.16179 0.95659
0.353221 -0.28328 0.224665 0.757287 -0.0221311 0.652707
0.186812 0.287737 -0.166987 0.0993869 -0.106311 0.989353
0.00670549 0.449239 -0.250694 -0.0885594 0.760344 -0.643455
-0.380715 0.309598 -0.1076 -0.779287 0.625144 0.0436653
-0.112152 -0.0937052 0.331923 0.651384 0.758333 0.0251008
0.121155 0.203366 -0.466964 0.27875 0.610299 -0.741508
0.163044 -0.201303 0.223026 -0.307567 0.779733 -0.545361
0.393587 -0.0743813 0.0636014 0.33141 0.641115 0.692199
0.0297423 0.421374 -0.276948 -0.255688 0.771278 -0.582884
0.114746 -0.168189 -0.126554 -0.444418 -0.578318 -0.684135
-0.0690185 -0.217562 0.237118 0.21237 0.670205 -0.711143
0.125623 -0.0108253 -0.274489 -0.384991 -0.623045 -0.68088
0.169455 -0.204259 -0.128869 -0.390844 -0.648526 -0.653188
0.0465189 0.313629 -0.149444 -0.129632 -0.681144 0.720582
-0.124803 -0.0601677 0.125925 0.408111 0.502126 0.76244
0.0434176 -0.254578 0.205414 -0.165766 0.803841 -0.571281
-0.449618 -0.0425842 0.0753152 -0.334978 -0.632639 -0.698253
-0.318506 0.280862 -0.147142 -0.484289 0.755376 -0.441442
-0.140285 -0.397969 0.288937 -0.247761 -0.656413 0.712556
-0.42102 0.206888 -0.164441 -0.411827 -0.603767 -0.682542
0.115252 -0.212145 0.337879 0.392118 0.594841 0.701717
-0.0136545 0.23388 -0.206016 0.467654 0.608535 0.641081
0.236591 -0.396844 0.00552065 -0.335556 -0.58957 -0.734718
-0.195016 0.282859 -0.0138619 0.60025 -0.730272 0.326195
0.159883 -0.285534 0.366342 0.436749 -0.145621 0.887719
0.464164 -0.189394 -0.0028907 0.900291 -0.416415 -0.126786
-0.241361 -0.0334865 -0.045505 -0.417416 -0.546808 -0.725786
-0.164551 0.0751292 0.0297415 0.401336 0.584735 0.704993
-0.251684 0.224146 0.0994939 0.868077 -0.480137 -0.126134
0.0673613 0.428672 -0.252024 0.896513 0.416518 0.150923
0.224463 0.214128 -0.158865 -0.065242 0.0285907 0.99746
0.125507 -0.0594534 -0.0157535 0.414603 0.533196 0.737433
-0.288825 -0.101202 0.333109 -0.910119 0.0575646 0.41033
-0.0141079 0.331623 -0.375329 -0.0584418 0.748302 -0.660779
-0.355506 0.0838724 -0.0946838 -0.46155 -0.462014 -0.757308
0.254081 -0.417489 0.0184623 -0.352535 -0.56825 -0.743512
-0.132393 -0.180512 0.0226895 -0.349301 -0.612843 -0.70881
0.276311 0.272071 -0.182513 0.388959 0.637461 0.665097
-0.209575 0.393239 -0.0395088 -0.326579 0.814872 0.478885
-0.215871 0.305169 -0.313986 0.665056 0.351181 -0.659069
0.0765801 0.0370967 -0.294731 -0.316809 -0.592047 -0.741021
0.10329 0.0457847 -0.101256 0.513339 0.469865 0.71813
0.0311916 0.33111 -0.145658 0.329402 -0.119274 0.936626
-0.304031 0.0612287 0.332959 0.445391 0.650756 0.614934
-0.241083 -0.299474 0.274953 0.372149 -0.772387 0.514707
-0.318029 -0.0498354 0.330662 -0.301863 -0.625677 0.71931
0.280529 0.0433164 -0.417368 -0.406595 -0.654195 -0.637738
0.146246 0.362929 -0.225114 0.11648 0.985982 0.119467
0.05831 0.139076 -0.158948 0.350953 0.634826 0.688351
0.000587508 0.0705817 -0.0743651 -0.104515 -0.655558 0.747877
0.187504 -0.313236 -0.0370303 -0.401154 -0.624081 -0.670522
-0.018484 0.394815 -0.129103 0.392542 0.598373 0.69847
0.42721 0.155221 -0.213853 0.607822 -0.0871977 0.789271
0.402035 0.0369239 -0.0435169 0.389946 0.617897 0.682748
0.276157 -0.350099 0.184525 -0.62021 -0.383689 0.684194
-0.130333 0.259745 -0.377486 -0.510548 -0.630166 -0.585006
0.222193 -0.306353 0.330568 0.440926 -0.0694305 0.894854
-0.217541 -0.284843 0.281619 0.0218881 -0.743532 0.668342
-0.297075 -0.131969 0.349753 -0.856115 0.51672 -0.00821617
-0.260259 0.246219 0.118251 0.896062 0.109437 0.430228
0.22637 0.0729646 -0.19398 0.393825 0.615742 0.682469
-0.0157249 0.206401 -0.179031 0.328916 0.775656 0.538676
0.0948713 -0.246211 0.168578 0.285097 0.634716 0.718231
0.0278169 -0.471933 0.210879 0.282552 -0.807805 0.517315
-0.292644 0.354823 0.0620405 0.375769 0.652778 0.657783
-0.404428 -0.0245028 0.0319799 -0.365018 -0.672501 -0.64382
-0.282642 0.228613 0.165245 0.456466 0.68413 0.568863
0.214584 0.12896 -0.219656 -0.54469 -0.460403 0.700958
-0.120584 0.290709 -0.411939 -0.104323 0.767521 -0.632478
0.119335 0.191363 -0.239999 0.382961 0.64073 0.665437
-0.445816 -0.143932 0.20877 -0.854396 -0.114251 0.506906
-0.383983 0.0726478 0.263279 -0.776151 0.630112 -0.0233979
0.428503 -0.155622 -0.211698 0.176317 -0.762643 0.622325
-0.138413 0.144627 -0.26939 -0.386618 -0.620975 -0.681848
0.312549 0.0372742 -0.409075 0.660144 0.323485 -0.677914
-0.0394726 -0.277557 0.0557275 -0.388781 -0.622256 -0.679446
-0.251855 0.159695 -0.00312933 0.431 0.608352 0.666443
-0.469336 -0.082217 0.181902 -0.889753 0.0287907 0.455534
0.410322 -0.259453 0.163748 0.70703 -0.669409 0.228035
0.352983 0.0153355 -0.368855 0.448126 -0.77234 0.450194
0.0727364 0.290874 -0.171099 -0.00911637 -0.731515 0.681764
0.194764 -0.227091 -0.118619 -0.388709 -0.679917 -0.621787
0.17253 -0.219973 0.10437 0.334425 0.660065 0.672662
-0.430111 0.0847974 -0.0506118 -0.287446 -0.608165 -0.739939
-0.312582 -0.116268 0.304241 -0.807919 -0.142879 0.57171
-0.250521 -0.0508312 0.208501 0.774953 0.187898 -0.603442
-0.195036 0.234677 -0.100493 0.389021 0.489069 0.780689
0.0100074 -0.183175 0.2901 0.00886847 0.730569 -0.682781
-0.134716 0.0428039 0.0381995 0.352766 0.682934 0.639655
0.219635 0.283461 -0.351018 0.410368 0.549633 -0.727668
0.463912 0.0526615 -0.170879 -0.3494 0.758416 -0.550204
0.35939 -0.174444 -0.258894 -0.38762 -0.6099 -0.691211
-0.449041 0.16406 0.155295 -0.920418 0.300423 0.250153
-0.352402 0.274177 -0.143204 -0.0825907 0.748658 -0.657792
0.162508 0.065711 -0.369439 -0.425486 -0.577042 -0.697126
0.319944 -0.0389536 -0.0856766 -0.929097 0.315466 0.19303
-0.37931 0.151288 0.241657 -0.680493 -0.302681 0.667318
0.357423 -0.262223 0.0854283 0.916976 -0.34317 -0.203445
0.0216804 -0.410363 0.219512 -0.503241 -0.518367 0.691408
0.302587 -0.0256592 -0.366895 -0.36284 -0.65696 -0.660872
-0.0754137 -0.355384 0.346463 -0.134908 -0.700309 0.700975
0.325052 0.19465 -0.144084 0.353493 0.628415 0.692919
0.354452 -0.145566 0.146987 0.474187 0.516608 0.712926
0.138655 0.238805 -0.19398 -0.307732 -0.6191 0.722507
0.208007 -0.436349 0.0817504 -0.353317 -0.574074 0.738652
0.162683 -0.182546 0.0656617 0.437524 0.565443 0.699176
0.152117 0.189475 -0.457711 0.447068 0.513436 -0.732471
0.258918 0.315742 -0.240558 0.928296 0.29216 0.230021
0.0566645 -0.02153 -0.104487 -0.783519 -0.1688 0.598
0.264713 -0.397994 -0.00377177 -0.425339 -0.627417 -0.652254
-0.219261 -0.07209 0.406294 0.335181 0.621608 0.707995
-0.222705 0.049657 0.0826869 0.320413 0.674011 0.665616
0.0527295 0.436641 -0.22806 0.282544 0.958762 0.0307219
-0.323586 0.0307191 -0.0588035 -0.488508 -0.477381 -0.730388
-0.0876939 -0.134794 0.386599 0.374727 0.580932 0.722563
-0.251659 0.307887 0.0778865 0.377955 0.624512 0.683473
-0.226427 0.0241954 0.102186 0.241899 0.612969 0.752166
-0.203887 -0.326784 0.198075 -0.147291 -0.718922 -0.679306
-0.0296732 0.450742 -0.207825 -0.363362 0.682587 0.634068
0.229706 -0.102163 -0.0389436 0.386955 0.58352 0.713982
0.193537 -0.187494 0.221647 0.0945678 0.985435 0.141334
0.131957 0.109547 -0.172399 0.413073 0.597014 0.68771
0.405419 0.115906 -0.206779 0.878268 -0.472835 -0.0712297
-0.456475 -0.0126297 0.0559398 -0.446343 -0.512679 -0.733442
-0.138595 0.132815 -0.0384295 0.365226 0.531697 0.764139
-0.460408 0.163522 0.105729 -0.924146 0.292202 0.246114
0.119232 -0.415878 0.249289 0.265839 -0.798169 0.540607
-0.189866 0.452551 -0.113415 -0.063936 0.94535 0.319726
-0.234133 0.192369 -0.257915 -0.40317 -0.60189 -0.689334
0.11781 0.256983 -0.423526 0.279427 0.626132 -0.727928
-0.0800663 -0.456547 0.239098 -0.392101 -0.629387 -0.670916
-0.358265 -0.130554 0.249394 -0.390614 -0.580331 0.714588
0.364047 -0.217692 0.212742 0.513052 0.533299 0.672585
0.124423 -0.0865835 0.00751866 0.386421 0.615685 0.686739
-0.161893 0.407598 -0.209245 0.57247 0.302899 -0.761925
-0.197739 -0.362575 0.239518 -0.777244 -0.182152 0.602256
0.09444 -0.0268818 -0.0325483 -0.921812 0.221176 0.318346
0.302417 0.18158 -0.140345 -0.181324 0.209649 0.960817
-0.495554 0.124086 -0.00101014 0.139755 0.691457 -0.708771
-0.0142134 -0.180634 -0.0434116 -0.364584 -0.655869 -0.660995
0.486064 -0.0322316 -0.133 0.904957 -0.145276 -0.399935
-0.186436 0.143299 -0.234892 -0.347678 -0.580274 -0.736479
0.350047 0.152418 -0.122104 0.391661 0.628233 0.672254
-0.177492 -0.130702 0.247438 0.576397 0.408565 -0.707701
0.422698 0.0813424 -0.165069 0.650567 0.339379 -0.6794
-0.0465833 -0.229598 0.435215 0.216331 -0.0112317 0.976256
-0.41245 0.0406105 -0.0157468 -0.291564 -0.669599 -0.683101
-0.0216369 -0.182837 0.178276 0.398478 0.606506 0.688016
0.286167 0.13646 -0.372512 -0.448304 0.775125 -0.445202
0.32906 -0.319559 0.0318984 0.921205 -0.294322 -0.254471
-0.217338 -0.142382 0.431091 -0.0723199 0.0923343 0.993098
-0.0274857 -0.35974 0.12601 -0.416312 -0.597269 -0.685532
-0.197702 0.21313 -0.304013 -0.280978 -0.633101 -0.721273
-0.27902 -0.187096 0.372464 -0.553001 -0.446358 0.70353
0.16865 -0.336963 -0.0050088 -0.353908 -0.685793 -0.635954
-0.402592 0.0528994 0.307163 -0.865101 -0.0052657 0.501571
-0.0180985 0.289825 -0.177148 0.101092 -0.769369 0.630755
0.181131 -0.269862 -0.0730431 -0.379923 -0.548486 -0.744864
-0.357673 0.0875267 0.307271 -0.215071 0.942933 0.254207
-0.16361 -0.34499 0.313365 -0.909509 0.321928 0.262977
-0.0859487 -0.117701 0.355316 0.468538 0.882189 -0.047057
0.134851 -0.10999 0.019528 0.478775 0.525506 0.703291
0.302155 -0.111047 -0.0674079 -0.914549 0.36027 0.183862
-0.147964 -0.186368 0.390199 -0.0229763 -0.738731 0.673609
-0.134141 0.304789 -0.362188 -0.911188 0.366064 0.18903
0.377747 -0.184727 -0.157542 0.880082 -0.172719 -0.442294
0.0812759 -0.228588 -0.0530475 -0.385221 -0.595237 -0.705194
0.087079 -0.42239 0.118686 -0.288539 -0.620052 -0.729576
0.151048 -0.423721 0.112908 0.716302 -0.664762 0.21214
0.204315 -0.190259 0.197847 -0.432494 0.741565 -0.512865
-0.138927 0.212521 -0.328747 -0.3478 -0.705 -0.618069
-0.383996 0.333276 0.0562781 -0.882459 0.467969 0.047666
-0.207577 0.322177 0.0218864 0.816067 -0.0277061 0.577293
-0.419437 0.028245 0.165136 -0.920823 0.222625 0.320192
-0.253301 -0.176944 0.392732 -0.744077 -0.308857 0.592416
-0.385427 0.225819 0.0822279 -0.709359 0.675966 -0.199701
0.357932 0.0347154 -0.342314 0.604959 -0.722751 0.33415
-0.231341 0.269381 0.064367 0.775693 0.0106576 0.63102
-0.286425 -0.192287 0.12247 -0.337436 -0.406488 -0.849061
0.0215102 0.358516 -0.135804 0.477188 -0.12421 0.869979
-0.477716 0.113868 -0.0154561 -0.504169 0.807904 -0.30513
-0.25369 0.0456774 0.223699 0.822843 0.0990785 -0.559565
0.0590297 0.394563 -0.282211 0.877172 -0.0190703 -0.479797
-0.245759 -0.224935 0.126575 -0.492412 -0.547557 -0.676544
0.208914 -0.333236 0.26911 0.917911 -0.169566 -0.35873
-0.471659 0.104153 0.125142 -0.915528 0.178737 0.360363
-0.36765 0.266848 0.0611121 -0.909758 0.189453 0.369388
0.470367 -0.189304 0.061634 0.858087 -0.506537 0.0843038
-0.192677 -0.0771265 -0.037556 -0.30612 -0.394819 -0.866261
-0.391428 0.163868 -0.14605 -0.432989 -0.5719 -0.696743
0.361699 -0.0835142 0.0667244 -0.321995 0.792678 0.517668
0.416762 -0.15959 -0.243254 0.920262 -0.191395 -0.341301
0.147266 0.083542 -0.159124 0.189338 0.725495 0.66167
0.231025 -0.200876 -0.162606 -0.35097 -0.626652 -0.695793
0.443129 -0.208051 -0.074436 0.878358 -0.40456 -0.254594
-0.172351 -0.375917 0.301306 -0.287029 -0.623275 0.727422
-0.0936894 -0.410156 0.203655 -0.395846 -0.614764 -0.682182
0.12224 0.0156309 -0.297555 -0.326491 -0.675865 -0.660764
0.326239 -0.27373 0.246741 -0.0542363 0.0117119 0.998459
0.151773 -0.192474 0.289562 0.187788 0.981005 -0.0486361
-0.130613 -0.420898 0.264469 -0.171916 -0.656087 0.734844
0.00687894 -0.0339914 -0.161276 -0.530118 -0.451407 0.717779
-0.275145 0.166569 -0.208833 -0.365595 -0.706239 -0.606273
-0.428974 0.160078 -0.0449174 -0.922299 0.293465 0.251483
0.26803 0.0360532 -0.186234 0.376211 0.714388 0.590013
0.459188 -0.157513 0.0818242 0.91753 0.246614 0.311961
-0.256918 0.216514 0.0337681 0.838498 -0.544852 0.00759365
0.142915 0.0028708 -0.083642 0.370341 0.646302 0.667189
-0.296212 0.298007 -0.152578 -0.766357 0.627214 -0.138921
0.15692 -0.0729117 -0.232735 -0.320872 -0.628211 -0.708797
-0.100884 -0.065382 0.115496 0.32865 0.546569 0.770228
-0.411791 0.285498 0.0185288 -0.845846 0.532908 0.0235256
-0.0542512 0.131353 -0.309354 -0.45723 -0.619337 -0.63825
-0.110765 0.213747 -0.347613 -0.429974 -0.67949 -0.594487
-0.0450796 -0.21593 0.00900448 -0.437608 -0.592509 -0.676337
-0.246528 0.395681 -0.101106 -0.903348 0.278049 0.326575
-0.254965 0.175173 -0.227127 -0.483061 -0.579496 -0.656381
0.207165 0.194022 -0.381191 0.920227 -0.350379 -0.174402
-0.0429158 -0.292059 0.410202 -0.049897 -0.75545 0.653303
-0.106523 -0.328137 0.363681 -0.201751 -0.666474 0.717711
-0.216379 -0.0112965 0.347773 0.265132 0.625764 0.73357
-0.197762 -0.0551832 0.382159 0.236067 0.617521 0.750294
0.233814 -0.428297 0.102282 -0.661714 -0.322274 0.676959
0.246273 0.324542 -0.302289 0.404045 0.563352 -0.720682
-0.291251 0.0610981 -0.104933 -0.38796 -0.602815 -0.697209
-0.0549193 -0.0483503 0.0728641 0.503897 0.480748 -0.717614
-0.385433 -0.0611289 0.314693 -0.728671 -0.279405 0.625277
0.275342 0.0935037 -0.167276 -0.726292 -0.24424 0.642532
-0.0310807 0.0563211 -0.0924783 0.21827 -0.850566 0.478431
0.108044 0.0344063 -0.309431 -0.337537 -0.643959 -0.686575
0.168729 -0.430086 0.0769761 -0.386286 -0.629248 -0.674411
-0.166955 -0.16187 0.411626 0.605179 -0.171544 0.777388
-0.0330109 -0.146163 0.354607 0.494337 0.86761 -0.0537057
0.198772 -0.317147 0.342346 0.437013 -0.183775 0.880481
-0.00717242 0.320253 -0.131969 0.209685 -0.792085 0.573266
-0.284647 -0.0698551 0.347336 -0.765067 -0.0962293 0.63672
-0.338427 -0.142542 0.106194 -0.358522 -0.575501 -0.735024
0.0593815 -0.0824729 -0.0740532 -0.911591 0.364745 0.189639
-0.225176 0.434805 -0.129502 -0.57151 0.771784 -0.278793
0.313281 -0.36345 0.0130013 0.888383 -0.0722313 -0.453386
