ply
format ascii 1.0
comment Created by Open3D
element vertex 512
property double x
property double y
property double z
property double nx
property double ny
property double nz
end_header
-0.0280888 -0.384452 0.174714 0.518404 -0.533945 0.667952
-0.0596089 0.430721 0.10033 0.311189 0.272274 0.91051
0.215619 -0.109101 0.103358 0.777981 0.441842 -0.446678
0.30244 -0.193868 -0.205754 -0.836359 -0.373478 0.40127
0.629537 -0.240788 -0.00615164 0.556946 -0.731107 0.394074
0.0625917 0.216237 0.00126898 -0.190941 -0.892079 0.409556
0.428392 0.1312 0.000995205 0.844771 0.356069 -0.39947
-0.529263 0.309299 0.176256 0.30073 0.215739 0.928988
-0.286153 -0.24386 0.193497 -0.848471 -0.344242 0.401989
-0.0553228 -0.214593 0.0954585 -0.294745 -0.286612 -0.911581
0.499144 -0.137524 0.0142976 0.173675 -0.873555 -0.454685
-0.414457 0.136564 0.113485 -0.313541 -0.266652 -0.911366
0.107627 0.120551 0.0272715 0.304945 0.276497 0.91135
-0.209582 0.0379132 0.160302 0.446065 -0.888437 0.108193
0.0969569 0.592404 -0.118812 0.271853 0.306334 0.91228
0.312359 0.110559 0.0109247 0.288999 0.248313 0.924565
0.146863 -0.146823 0.00253568 -0.323694 -0.256176 -0.910822
0.281784 -0.0708498 0.0439407 0.784453 0.472209 -0.40206
0.560518 -0.257725 -0.0418535 -0.336154 0.882645 0.328541
-0.225902 0.363993 0.150854 -0.286993 -0.33359 -0.897971
-0.0242443 0.314639 -0.0216496 0.942419 -0.206353 -0.263181
-0.52124 0.246994 0.312051 0.232558 0.409876 0.881997
0.633934 -0.226712 0.00859551 0.512725 -0.573737 0.638701
0.378153 -0.359101 0.1015 0.535477 -0.799371 0.272526
0.0453004 0.06875 0.0644946 -0.316113 -0.865223 0.389181
-0.521022 0.198928 0.295602 -0.542738 0.126814 -0.830273
-0.013938 -0.0472051 0.151454 -0.850036 -0.3546 0.389483
-0.156987 0.234776 0.13906 -0.840914 -0.369525 0.395366
0.0645663 -0.176346 0.218088 0.310616 0.216138 0.925636
0.171955 0.25201 -0.126414 0.476947 -0.878892 -0.00835538
0.16131 0.25663 -0.0286912 0.320981 0.261102 0.910383
0.0992532 0.419668 -0.0450941 -0.532821 0.812056 -0.238046
-0.370268 0.0741445 0.11562 -0.333223 -0.250145 -0.90906
0.537949 -0.0810865 -0.0328898 -0.447526 0.887754 -0.10776
0.152568 -0.175534 0.00939094 -0.362022 -0.255586 -0.896446
0.142038 0.314117 -0.0417601 0.241202 0.297823 0.923646
0.0822577 0.00911316 -0.0162118 -0.482534 0.875873 0.00272987
0.0958918 0.384169 -0.0460817 0.323405 0.224922 0.91914
0.362111 -0.0129295 -0.110113 -0.450333 0.886508 -0.10632
0.454635 -0.0412673 -0.0248802 0.00869003 -0.729617 -0.683801
-0.226949 -0.419614 0.329078 -0.424267 0.888503 -0.174816
-0.0191695 -0.515762 0.245608 -0.400585 0.913074 0.0763381
-0.070545 -0.267373 0.199672 0.530289 -0.846637 0.0447262
-0.162778 -0.179982 0.20855 -0.476286 0.876705 -0.0673815
-0.140415 -0.459862 0.2141 0.42152 -0.172249 0.890309
0.0522556 -0.208397 0.0532903 -0.317683 -0.288692 -0.90318
-0.242185 0.160703 0.048119 -0.326578 -0.2034 -0.923025
0.120458 0.105165 -0.0228257 -0.306338 -0.278427 -0.910294
0.251587 -0.265201 0.198215 0.32702 0.229387 0.916755
0.042737 0.140585 -0.0301041 0.927494 -0.295038 -0.229582
0.0344984 -0.044084 0.102368 0.856108 0.366146 -0.364714
0.221486 0.609735 -0.096142 0.0711711 -0.801003 -0.594415
0.204692 0.217677 -0.0561297 0.459638 -0.883426 0.0910509
-0.58572 0.292559 0.201384 -0.577682 0.791288 -0.200367
0.302144 0.171791 -0.112452 0.418771 -0.897003 0.141477
0.202574 -0.38471 0.234102 0.476984 -0.260777 0.839334
-0.398269 0.037611 0.217181 -0.891844 -0.322759 0.316925
-0.098798 0.0278856 0.0768624 -0.264964 -0.324107 -0.908157
0.538272 -0.28946 0.0219381 0.433525 -0.841462 0.322487
0.0427112 0.53567 -0.11011 0.577709 -0.666347 0.471417
0.00294511 -0.259754 0.0859006 -0.29417 -0.253134 -0.921622
-0.0990637 -0.361236 0.151426 -0.302984 -0.269318 -0.914149
0.133929 0.313723 -0.0383342 0.322617 0.266142 0.908343
0.0663898 -0.430687 0.12896 0.226787 0.498283 0.836828
0.241215 0.450413 -0.151388 0.454769 -0.885309 0.0970209
0.360311 0.103826 -0.143029 -0.278658 -0.297633 -0.913107
-0.286466 0.292068 0.0380834 0.152061 0.557923 0.815843
0.595611 -0.179238 0.0505658 0.407758 0.0265496 0.912704
0.279614 -0.17423 -0.232545 -0.814706 -0.407587 0.412464
0.0707408 0.179211 0.0920737 0.832067 0.383349 -0.400884
0.0642785 0.450053 0.0143784 -0.503784 0.188197 -0.84308
-0.471737 0.12928 0.152851 0.44729 -0.888307 0.104125
0.591602 -0.207233 -0.111536 0.0832508 0.612107 0.786381
-0.233723 -0.20942 0.23358 -0.343692 0.936197 0.0735605
-0.0403629 0.105887 0.0900506 0.813142 0.411066 -0.412097
-0.314399 0.240713 0.0934231 -0.208888 0.89131 0.402408
0.0580879 -0.3079 0.276862 0.31266 0.26996 0.910695
0.205123 0.0126633 -0.0279736 -0.81021 -0.403057 0.425564
0.0346352 -0.160231 0.117551 -0.445092 0.888536 -0.111339
-0.0312962 -0.154139 0.154623 0.54677 -0.83728 -0.00205209
0.323479 -0.212981 0.0251325 0.565646 -0.765073 0.307746
-0.192455 -0.320834 0.319251 -0.819228 -0.409641 0.401321
-0.146259 0.387341 0.128489 0.833113 0.38264 -0.399387
-0.163617 -0.578822 0.314747 -0.415131 0.89996 0.133185
-0.0407597 -0.179311 0.157142 -0.633127 0.77308 0.0387122
0.0995174 -0.482744 0.194357 0.314764 0.272325 0.909265
-0.0267485 0.486316 0.0644585 0.15394 0.541429 0.826533
0.210899 -0.415521 0.165327 -0.312407 -0.269156 -0.91102
-0.0556338 0.092655 0.0442579 0.850516 0.349448 -0.393076
-0.255026 0.107421 0.0666221 -0.27749 -0.311017 -0.908993
0.151779 -0.109609 0.144049 -0.807974 -0.412889 0.420357
-0.132691 -0.365788 0.163 -0.277015 -0.285 -0.917626
-0.386199 0.115419 0.10916 -0.32143 -0.252603 -0.91262
-0.510247 0.225983 0.315388 0.308311 0.270554 0.912
-0.320613 -0.0473629 0.243662 -0.512495 0.298891 -0.804993
0.0454611 0.369417 -0.00421488 0.522747 -0.850201 0.0623981
-0.0102093 0.388018 0.0962036 0.305412 0.29761 0.904517
0.418311 -0.170311 -0.0189067 0.469424 -0.782469 0.409124
0.127915 0.21506 -0.278318 0.224626 -0.900649 -0.371988
-0.256066 0.120933 0.0650251 -0.326908 -0.273917 -0.904489
0.375292 -0.196035 -0.168029 0.40896 -0.900737 0.14637
0.373856 -0.305833 0.122955 -0.524206 0.35752 -0.772908
0.308311 0.227973 -0.0452365 -0.833234 -0.377104 0.404368
0.275954 0.393552 -0.0209976 0.312689 0.269246 0.910896
0.406653 -0.143785 0.00645409 -0.448211 0.892356 -0.0529823
0.370331 -0.295558 -0.0461493 -0.229341 -0.427599 -0.874393
-0.491303 0.152571 0.219736 -0.438887 0.894675 -0.0832727
0.292271 0.528064 -0.102334 -0.538894 0.450951 -0.711503
-0.0452134 -0.071289 0.0666962 -0.827348 -0.387871 0.406265
0.118765 -0.170077 0.199769 0.306578 0.255757 0.916841
-0.186006 -0.312014 0.21546 0.391455 -0.899274 0.195114
0.59824 -0.145073 0.0436346 0.363162 0.307862 0.879394
0.114079 0.544652 -0.160956 0.468345 -0.377167 0.798998
0.584504 -0.248053 -0.0108399 -0.31454 -0.341872 -0.885544
0.146769 -0.0301122 0.00684579 -0.290909 -0.308572 -0.905624
0.219225 0.598422 -0.22544 0.851903 0.344362 -0.394557
0.64506 -0.218509 -0.085885 -0.283097 0.936932 0.204975
0.00906887 -0.0720578 0.17705 -0.823147 -0.40247 0.400558
0.0301235 0.466544 -0.150958 -0.345887 -0.0963763 -0.933313
0.280507 0.316797 -0.136969 0.826279 0.388902 -0.407454
0.631607 -0.221457 -0.0878289 -0.270868 0.903397 0.332423
0.187261 0.468989 -0.0625719 -0.541424 0.635884 -0.550011
-0.230745 0.251474 0.153936 0.411734 -0.90206 0.129472
-0.351276 0.35508 0.176569 0.0694179 -0.797216 -0.59969
0.0711836 -0.283566 0.18481 -0.785056 0.612105 0.0949461
-0.0464082 0.359649 0.0387103 -0.553096 0.779308 -0.294557
0.117484 -0.422362 0.114772 0.106789 0.607537 0.78708
0.10646 -0.160105 0.151256 0.857224 0.336827 -0.389505
-0.564708 0.266606 0.269022 0.11363 -0.848925 -0.516153
-0.26378 0.271919 0.153731 -0.533209 0.607072 -0.589196
-0.150004 -0.444635 0.350622 -0.0335667 -0.69401 -0.719182
0.330561 -0.0633732 0.00507002 0.312295 0.278549 0.90823
0.194075 0.402169 -0.110688 0.4446 -0.888819 0.111052
0.24482 -0.0518063 -0.0554434 -0.288039 -0.307632 -0.90686
-0.335578 0.369861 0.072048 0.53987 -0.695852 0.473635
-0.228224 -0.139843 0.292494 0.800537 0.394759 -0.450895
0.215342 0.338395 -0.189376 0.372322 0.0699443 -0.925464
-0.113538 -0.335293 0.202055 0.33003 0.260083 0.907434
-0.545727 0.274718 0.167888 0.548544 -0.62621 0.554039
0.160862 -0.38975 0.0857851 0.082269 0.595933 0.798809
0.115317 0.594224 -0.101576 -0.367456 -0.237949 -0.899087
0.147659 -0.0736562 0.0756389 0.44006 -0.887901 0.134087
-0.275845 0.0142859 0.23891 0.427282 -0.893985 0.134983
0.0456243 0.383894 -0.132917 -0.326563 -0.261335 -0.908328
0.144459 0.167923 0.00161928 0.270471 0.293877 0.916778
0.272178 0.459162 -0.221673 0.0933353 -0.803619 -0.587779
-0.0675305 0.139031 0.127026 -0.453478 0.885459 -0.10159
-0.0965875 -0.510078 0.183756 -0.114824 -0.514644 -0.84968
-0.00492362 -0.316756 0.288813 -0.0756299 0.826521 0.557802
0.268072 -0.103425 -0.190612 -0.875235 -0.25459 0.411276
0.261476 0.585174 -0.0579979 0.363194 0.330835 0.870998
-0.18388 -0.601827 0.290913 -0.849796 -0.361925 0.383218
0.000327258 -0.348607 0.216622 0.388297 -0.918908 -0.0695231
-0.151305 -0.549376 0.366383 -0.554483 0.479788 -0.679965
0.185913 0.612579 -0.121149 0.334243 -0.935373 -0.115577
0.228631 0.0282156 0.0134967 0.262166 0.290646 0.920214
0.205585 0.223733 -0.0356103 0.354132 0.198329 0.913923
-0.437148 0.0666524 0.161877 -0.86043 -0.333062 0.385656
-0.198705 -0.335808 0.177219 -0.336242 -0.230304 -0.913182
-0.298783 0.00248048 0.278181 0.867795 0.299731 -0.39635
-0.248601 -0.0705612 0.178992 0.419897 -0.896915 0.138674
-0.22647 0.13381 0.126747 -0.924802 -0.135101 0.355654
0.120374 0.25664 -0.107278 -0.312691 -0.252024 -0.91581
0.0358329 -0.333042 0.18399 0.455216 -0.88128 0.126976
-0.182626 -0.190878 0.203276 -0.450088 0.890314 -0.0690128
-0.160456 -0.228558 0.133919 -0.29346 -0.296282 -0.908899
0.267419 -0.0307049 -0.0706217 -0.288385 -0.325736 -0.900406
-0.273734 0.064284 0.215281 0.861807 0.346248 -0.370677
0.140839 0.459448 -0.190699 -0.295012 -0.293613 -0.909263
0.434271 -0.032741 -0.0203002 -0.843068 -0.362909 0.396904
-0.474789 0.144043 0.292764 0.479788 -0.874382 0.072524
0.235382 0.65417 -0.126487 -0.259057 0.927119 0.270814
-0.169778 -0.354929 0.276691 -0.523078 0.686612 -0.504929
0.0295735 0.115248 0.0967868 -0.864805 -0.334754 0.374234
0.176586 0.213044 -0.112011 -0.256624 -0.207155 -0.94405
0.502464 -0.02548 0.0131535 0.788295 0.45396 -0.415345
0.473477 -0.225172 -0.0744815 0.284384 0.256488 0.923764
-0.366766 -0.0162993 0.232367 -0.865779 -0.315611 0.388351
0.445894 -0.177212 0.06573 0.081784 -0.709028 -0.700422
0.169003 -0.110553 -0.0132786 -0.360176 -0.186037 -0.914147
-0.217044 0.259796 0.171621 0.441523 -0.881897 0.165274
0.271533 0.495546 -0.172125 -0.258031 0.938723 0.228517
0.470695 -0.0730707 -0.0554304 -0.232735 0.845849 0.479972
0.162952 0.509667 -0.210563 -0.320353 -0.258267 -0.911412
-0.181391 -0.306616 0.343862 0.318676 0.291614 0.901891
0.233202 -0.114749 0.081084 -0.595024 -0.698172 0.398123
-0.189026 -0.455171 0.195288 -0.309984 -0.267837 -0.912235
-0.116326 -0.305425 0.191772 0.305286 0.226788 0.924861
0.545977 -0.275024 0.0378286 0.519832 -0.715996 0.465966
-0.244672 0.399465 0.0183164 0.587109 -0.575561 0.569239
-0.402518 0.256409 0.0585121 -0.281747 -0.265962 -0.921891
-0.0926525 -0.39782 0.294938 0.179608 -0.878204 -0.443281
0.0403223 -0.492669 0.244883 -0.31182 -0.265715 -0.91223
0.269077 -0.204291 0.0614125 -0.201788 0.952378 -0.228598
0.353033 -0.343313 0.146693 0.5419 -0.509157 0.668658
0.390547 -0.0588008 0.016542 0.414221 -0.893416 0.173863
-0.212269 -0.274337 0.167292 -0.371344 -0.175543 -0.91175
-0.228369 -0.263863 0.16947 -0.314391 -0.249223 -0.915995
0.282003 -0.201604 0.0294898 -0.436354 0.883351 -0.171132
0.185222 -0.3141 0.0284172 -0.831329 -0.384715 0.401107
-0.369249 -0.0633545 0.157248 -0.312399 -0.303741 -0.900083
-0.442762 0.0614538 0.142603 -0.332365 -0.251394 -0.909029
-0.362043 0.383221 0.172916 -0.164054 0.878582 0.448532
0.240229 -0.320343 0.00672245 -0.23927 -0.308535 -0.920628
-0.128154 -0.398399 0.167071 -0.554687 0.457537 -0.694969
0.360512 -0.102427 -0.0304334 0.288465 0.276571 0.916677
0.260343 -0.0755479 -0.179979 -0.793997 -0.439341 0.420177
-0.187208 -0.583283 0.2538 0.0110817 -0.80144 -0.597973
0.280784 -0.0763753 0.115607 0.303296 0.271453 0.913414
-0.0693642 -0.477978 0.339964 -0.50551 0.0502253 -0.861358
-0.546114 0.114932 0.201351 -0.84363 -0.35797 0.400183
-0.171576 -0.545965 0.221163 -0.151936 -0.478352 -0.864925
-0.213081 -0.295687 0.300352 -0.864367 -0.358774 0.352352
0.0203994 -0.451432 0.32437 0.476481 -0.145165 0.867118
0.166157 -0.053276 0.0761551 0.851874 0.355531 -0.384589
-0.141963 0.258702 0.0158992 0.864043 0.313399 -0.393967
-0.343257 0.366187 0.076552 0.546965 -0.69155 0.471792
-0.514611 0.284778 0.28559 0.031027 0.662368 0.748536
-0.506149 0.326521 0.164621 0.327168 0.231689 0.916123
-0.140244 -0.0231085 0.121473 0.450189 -0.887896 0.0947145
-0.193375 -0.386677 0.254676 -0.848427 -0.359654 0.388355
-0.222401 0.4007 -0.0201321 0.841884 0.362944 -0.399377
0.0732236 0.345713 -0.0499608 -0.776127 -0.483223 0.405121
0.0160246 -0.444115 0.32511 0.422443 -0.0443423 0.905304
-0.206354 0.284585 0.0551192 -0.294415 0.928142 0.227753
0.105198 0.107614 0.0987545 0.858533 0.351215 -0.37359
-0.164666 0.193903 0.171934 0.0928287 0.944674 -0.3146
0.378433 -0.116216 -0.0332643 0.329975 0.263428 0.906489
-0.00441965 -0.480254 0.144601 -0.163009 -0.500726 -0.850119
0.331846 0.091045 -0.0120752 0.43234 -0.893688 0.120015
0.544913 -0.223441 0.0473742 -0.4768 0.222521 -0.85038
-0.230716 0.261355 0.197983 0.56843 -0.437389 0.696835
-0.192756 0.106602 0.146309 -0.227371 -0.911916 0.341631
0.420402 0.123312 -0.0245218 0.815247 0.429067 -0.388939
0.647399 -0.139141 -0.00178203 -0.34812 -0.211545 -0.91327
-0.0696986 0.343384 0.00550871 -0.365282 0.908239 0.204134
-0.0609144 0.266258 0.0465131 -0.846834 -0.356268 0.394899
-0.066466 0.508592 -0.0759337 -0.546608 0.660177 -0.515157
-0.0363498 -0.339595 0.318009 -0.0929125 0.821491 0.5626
0.0853811 -0.0815712 0.180023 0.807164 0.419977 -0.414856
0.187609 0.119722 -0.0575694 0.436464 -0.891155 0.123861
0.000201712 -0.379606 0.282646 -0.0273651 -0.716839 -0.696701
-0.294635 -0.065973 0.177234 -0.387293 0.912839 -0.129344
0.229325 0.0766219 -0.0442795 -0.432539 0.893215 -0.122785
-0.336431 0.165075 0.0786216 -0.336934 -0.285783 -0.897108
0.0714499 -0.134487 0.205287 0.348601 0.232533 0.907968
0.180849 0.0299554 0.0251243 -0.0264911 -0.959782 0.279495
-0.0253882 0.192448 0.0534278 -0.845095 -0.35209 0.402303
-0.304221 0.414135 0.133451 -0.238583 0.896427 0.373494
-0.224321 0.443175 0.112013 -0.158865 0.886072 0.435474
-0.0692158 0.229307 0.144017 0.852359 0.343764 -0.394095
0.0728398 0.3775 -0.176667 -0.443884 0.888443 -0.116774
-0.227133 0.396847 0.0030818 0.554816 -0.373764 0.743289
-0.250391 0.219295 0.0817914 0.355457 0.221139 0.908156
-0.141762 0.138384 0.073341 -0.260995 -0.902084 0.343696
0.110344 0.426697 -0.168308 -0.302434 -0.281246 -0.910733
-0.0159592 0.528822 -0.0628289 0.315046 0.273016 0.90896
0.317815 0.318368 -0.0134804 0.323085 0.228801 0.918295
0.107841 -0.18916 0.121027 0.811457 0.387403 -0.437556
0.144547 -0.0418186 0.0130563 -0.323699 -0.267817 -0.907465
0.22562 0.00992507 -0.0688249 -0.325303 -0.251368 -0.911588
-0.0785661 -0.374911 0.343199 0.301495 0.273797 0.91331
-0.065268 0.172616 0.129385 0.494237 -0.867775 0.0519229
0.463133 0.0304663 -0.0209087 0.818978 0.381042 -0.429048
0.163583 -0.423653 0.0810572 -0.021824 -0.710858 -0.702997
0.0686825 0.4919 0.0371419 0.327051 0.221493 0.918683
0.0305769 -0.0327497 0.105041 0.857868 0.345085 -0.380762
-0.256152 0.328899 -0.0133417 -0.317238 -0.263338 -0.911051
-0.167809 0.148044 0.0796986 0.801938 0.423014 -0.421847
-0.108497 -0.364824 0.155376 -0.29769 -0.284997 -0.91113
-0.0847956 -0.311591 0.183528 0.312021 0.270883 0.91064
-0.396043 0.379315 0.15618 -0.345138 0.918594 0.19252
-0.378792 0.0170937 0.133392 -0.305386 -0.276397 -0.911232
-0.104143 0.50343 -0.0420311 -0.500218 0.775339 -0.385528
-0.0852534 0.280069 0.00885942 -0.859751 -0.343562 0.377879
0.257334 -0.386255 0.0843207 -0.189232 0.914057 0.358735
-0.0361721 -0.30372 0.172783 -0.363097 0.922947 -0.127786
-0.368866 0.103143 0.104336 -0.298296 -0.300661 -0.905882
0.579658 -0.157209 0.0536785 0.352844 0.215977 0.910415
-0.2963 -0.0659721 0.311756 0.293188 0.272427 0.916419
0.215504 0.510935 -0.228549 -0.347037 -0.360141 -0.865947
0.0594937 -0.144289 0.134755 -0.468593 0.879944 -0.0782286
-0.175401 -0.181275 0.265746 0.292981 0.249953 0.922868
0.0359955 0.35933 -0.0441098 0.258424 -0.94792 0.186183
0.390633 0.103603 0.0173906 -0.771247 -0.428534 0.470677
-0.543551 0.129238 0.218004 -0.850218 -0.347289 0.395625
-0.290729 -0.0831398 0.239315 0.469899 -0.878742 0.0837074
0.647293 -0.161621 -0.000135139 -0.391985 0.117448 -0.912444
0.270644 -0.221699 -0.0212153 -0.50284 0.393471 -0.769631
-0.0857955 -0.117898 0.124025 0.749169 0.512798 -0.419266
-0.0206561 -0.498245 0.162519 -0.0101528 -0.646411 -0.762922
-0.163734 0.117335 0.179194 0.13532 -0.956993 0.25662
0.409964 -0.141534 -0.14975 0.314239 0.0981162 -0.94426
0.137731 -0.323413 0.0579999 0.864947 0.342904 -0.366448
0.364582 0.121058 -0.0149292 0.437888 -0.890702 0.122083
0.07711 0.562332 -0.0710723 0.34212 -0.927268 -0.15208
0.107934 -0.00973294 0.144096 -0.850449 -0.351228 0.391631
0.0190422 -0.309737 0.216969 -0.429282 0.872818 -0.232176
-0.565274 0.204373 0.131287 -0.337131 -0.0920578 -0.936946
0.559438 -0.109109 -0.0134509 0.186673 -0.877514 -0.441726
0.0829848 -0.0237878 0.0854246 -0.837454 -0.374967 0.397582
0.286159 0.162023 -0.113203 0.431878 -0.891965 0.133713
0.423016 -0.0483112 -0.0623151 -0.81435 -0.392496 0.427528
-0.0157916 -0.0317194 0.0571591 -0.448618 0.887042 -0.109083
-0.137361 -0.369108 0.348541 0.367746 0.244499 0.897208
-0.205323 0.384483 0.162369 0.237998 0.348004 0.90678
0.589011 -0.0923402 -0.0345667 0.230262 -0.900607 -0.368628
-0.115729 -0.546117 0.21277 -0.0874246 -0.646432 -0.757946
0.00516577 0.41813 -0.129948 -0.298413 -0.287944 -0.909966
0.295866 0.485133 -0.0748117 0.438865 -0.891344 0.113593
0.00107547 0.531159 -0.115399 -0.510119 0.598122 -0.618085
-0.113681 0.44868 -0.0790786 -0.499118 0.29616 -0.814353
-0.00292717 -0.0528402 0.170904 -0.842246 -0.365404 0.39636
0.494347 -0.254593 -0.096386 -0.150149 -0.53843 -0.829185
0.583338 -0.260678 -0.00866568 -0.30171 -0.288413 -0.908729
0.0446383 0.551534 -0.137836 -0.558653 0.585533 -0.587416
0.125207 -0.0366336 0.00200691 0.684999 0.602158 -0.410101
0.0756698 0.0815473 0.0905106 0.467421 -0.881005 0.0731229
0.269714 -0.087405 -0.0555108 -0.322017 -0.288042 -0.901852
0.0316968 0.423717 0.0698516 0.31634 0.27828 0.906912
-0.184684 0.317795 -0.0175139 0.858053 0.30305 -0.414615
-0.202895 -0.377864 0.19385 -0.379846 -0.28343 -0.880559
0.369474 0.150037 -0.0253385 -0.4473 0.888899 -0.0988981
-0.117093 0.144384 0.0997302 0.449982 -0.887184 0.102083
-0.133445 -0.44868 0.38522 0.286672 0.308997 0.90683
-0.410406 0.272921 0.240469 -0.389892 -0.159343 -0.90697
0.033714 0.412265 -0.096396 -0.0221004 0.752629 0.658074
-0.276422 0.406416 0.063746 0.262959 0.249597 0.931962
-0.34329 0.148785 0.138145 0.241202 0.335993 0.910456
0.144951 -0.112178 0.051035 -0.470718 0.878853 -0.0777344
0.358074 -0.0033013 0.0182177 -0.808674 -0.420218 0.411658
-0.0484593 -0.157044 0.100675 -0.49202 0.87016 -0.0271693
-0.153105 0.274427 0.00880867 0.8522 0.333043 -0.403532
-0.138644 0.364137 0.126046 0.848905 0.367017 -0.38034
0.591248 -0.235487 0.0373242 0.573554 -0.50427 0.64556
0.159158 0.545811 -0.190019 0.445402 -0.120777 0.887147
-0.363045 0.363963 0.153797 0.236876 -0.918222 -0.317423
-0.319803 0.38742 0.174756 -0.0635861 0.781653 0.620464
-0.391609 -0.0403398 0.159179 -0.86041 -0.352263 0.368246
-0.246372 0.33955 0.190838 0.30152 0.273099 0.913511
-0.259435 0.192562 0.0952063 0.323009 0.250049 0.912765
0.330859 -0.135916 0.0191221 -0.409463 0.903754 -0.124774
-0.0180478 -0.329401 0.227045 -0.473592 0.878868 -0.0574638
-0.0017738 -0.17422 0.148814 0.342549 0.863138 -0.371016
-0.244404 0.245824 0.188148 0.435859 -0.890887 0.127858
0.328152 -0.331358 0.142727 -0.446581 0.433018 -0.782982
0.299834 -0.236169 0.174552 0.321168 0.172167 0.931241
0.32202 0.181313 -0.115596 0.391664 -0.910617 0.131816
-0.401053 0.200872 0.284915 0.349131 0.261017 0.899988
-0.279681 0.256693 0.0151895 -0.350994 -0.189958 -0.916907
-0.396838 0.0338335 0.138371 -0.268267 -0.190517 -0.944318
-0.0647601 0.413545 -0.0788054 0.341862 0.221691 0.913227
-0.069299 0.437726 0.0739348 -0.323711 -0.311556 -0.893389
0.317088 -0.0987305 0.00474823 0.431678 -0.893263 0.125441
-0.159988 -0.540838 0.403568 -0.875938 -0.362889 0.317875
0.58034 -0.188368 -0.123605 0.230649 0.362276 0.903082
-0.243033 0.0703872 0.16247 0.297012 0.296022 0.90783
-0.236655 0.373715 -0.00122381 0.475226 -0.137661 0.869028
-0.0537051 0.427723 0.0962461 0.281551 0.303081 0.910424
-0.488073 0.124822 0.136642 0.120909 -0.851194 -0.510734
0.284199 -0.258043 0.0169837 0.479812 -0.372209 0.794507
-0.149093 -0.587975 0.31113 0.376397 0.223346 0.899134
0.0801453 -0.0541868 0.0448253 -0.763229 -0.443396 0.46998
-0.072784 -0.563177 0.268549 0.357507 -0.926547 -0.117041
-0.335554 0.252188 0.0739439 0.0184061 0.692303 0.721372
-0.247469 -0.504146 0.252329 -0.875544 -0.31138 0.369412
-0.0852326 -0.196977 0.0997866 -0.323374 -0.252501 -0.911961
-0.0124511 0.330399 0.00705562 0.900593 -0.388769 -0.194401
0.186032 -0.114485 -0.0191365 -0.292409 -0.359053 -0.886328
-0.232247 0.396877 0.00696206 0.596237 -0.428818 0.678687
-0.00448849 -0.0326026 0.184044 -0.829286 -0.383118 0.406823
0.306719 -0.189394 -0.185462 -0.855926 -0.333499 0.395183
0.569766 -0.229754 -0.122937 -0.0396847 -0.614182 -0.788166
0.127829 0.505029 0.012712 0.2801 0.302003 0.911229
0.365826 -0.182122 0.134818 0.269979 0.264861 0.925721
0.238849 0.392832 -0.0377186 -0.859656 -0.281772 0.426141
-0.280852 0.0109476 0.23636 -0.868471 -0.323783 0.375398
0.152132 0.0339207 0.126887 0.80211 0.392832 -0.44978
-0.330982 0.404383 0.0697256 -0.546397 0.780718 -0.303199
-0.217501 0.308135 0.140304 -0.482647 0.430458 -0.762731
0.213617 -0.252856 0.137391 -0.817306 -0.416433 0.39824
0.0540228 -0.138348 0.0579748 0.812949 0.383838 -0.437929
-0.0621238 0.251237 -0.0416551 -0.264265 -0.309578 -0.913414
0.321512 -0.145052 0.000949673 -0.441629 0.889506 -0.117232
-0.112212 0.318687 0.13661 0.86725 0.345013 -0.358948
0.216941 0.395209 -0.106689 0.566795 -0.464325 0.680548
0.0293732 0.0900677 0.0716136 -0.82004 -0.39293 0.416101
-0.147142 0.0568805 0.120021 0.734011 -0.677446 -0.0479039
0.278796 0.176535 0.00470928 0.443943 -0.888866 0.113283
0.55364 -0.141695 0.0257828 -0.0978103 -0.591768 -0.800153
0.116827 0.3049 -0.0306648 0.319875 0.267985 0.908771
0.269786 -0.0821323 0.122488 0.32298 0.250945 0.91253
-0.154186 0.372398 0.12157 -0.420539 0.0514117 -0.905817
0.295401 -0.179602 0.141127 -0.142389 0.95225 -0.270084
-0.277287 0.203499 0.134629 0.268632 0.269671 0.924724
0.0843022 0.458584 0.0418811 0.335795 0.229463 0.913558
-0.301466 0.00425814 0.276696 0.847062 0.355396 -0.395195
-0.120318 -0.275546 0.274508 0.315609 0.303592 0.899012
-0.271693 -0.0873368 0.140445 0.465083 -0.878819 0.106649
0.183276 0.0575739 -0.0207811 -0.487964 0.869617 -0.0752143
0.24564 -0.252786 0.0539338 0.579183 -0.656104 0.483813
-0.161506 -0.491936 0.198281 -0.277675 -0.292946 -0.91492
-0.0920138 -0.348705 0.143268 -0.299093 -0.243151 -0.922725
0.120507 -0.424635 0.271566 0.508412 -0.290424 0.810661
0.290775 0.31783 -0.107241 0.849477 0.333771 -0.408638
-0.21225 0.0332455 0.143184 0.41294 -0.898439 0.149293
-0.174733 -0.301041 0.257412 0.874719 0.267505 -0.404114
0.0841269 0.0826868 0.0496665 0.386766 -0.901838 0.192613
-0.00851988 0.108787 0.157168 0.839955 0.368709 -0.398158
0.109492 -0.145389 0.170968 0.879772 0.286038 -0.379715
0.0567637 0.264693 -0.0893385 -0.26721 -0.285449 -0.92039
-0.609643 0.220023 0.167634 -0.805951 -0.42251 0.414643
-0.226498 -0.21666 0.223691 0.846043 0.354111 -0.398518
0.0381732 -0.181115 0.203157 0.907584 0.22044 -0.357348
0.259111 0.432779 -0.072559 0.836823 0.374631 -0.399223
-0.0716979 0.0424059 0.0233751 -0.352557 -0.183165 -0.91769
0.204191 0.338136 -0.119304 0.290736 0.379889 0.878155
-0.200374 0.293918 0.120938 -0.549828 0.666375 -0.50362
-0.157919 -0.182228 0.170884 -0.437545 0.890126 -0.127395
-0.299263 -0.0281968 0.162259 -0.836374 -0.378108 0.396878
0.247673 0.531896 -0.218071 0.221269 0.427907 0.876319
0.225182 0.435614 -0.194541 0.505885 -0.86012 0.0653755
-0.0484727 -0.255133 0.154392 0.309456 0.278011 0.909366
0.147757 -0.409997 0.0731977 -0.160052 -0.547946 -0.821059
0.121891 -0.238781 0.107036 0.86909 0.334725 -0.364201
-0.261047 0.393011 0.167783 0.0442426 0.657606 0.752061
0.165493 -0.428985 0.185073 -0.482846 0.825814 -0.29136
0.305094 0.0956349 -0.121783 -0.281614 -0.302982 -0.910437
-0.272978 0.16293 0.0561364 -0.212017 -0.351401 -0.911902
0.661947 -0.196097 0.00824621 0.500807 -0.387508 0.77397
-0.411598 0.352447 0.148563 -0.351744 -0.233355 -0.906544
-0.313815 0.0420756 0.104746 -0.315581 -0.252491 -0.91469
0.191731 0.310416 -0.0372505 -0.817022 -0.392699 0.422212
-0.111943 -0.409211 0.154694 -0.312895 -0.270549 -0.91044
0.228105 -0.247568 0.10721 0.386271 -0.92071 -0.0555634
0.134725 0.40821 -0.186723 -0.441424 0.887768 -0.130434
-0.111721 -0.336946 0.208253 -0.454609 0.884988 -0.100637
-0.39846 0.256823 0.236556 -0.402888 0.0584215 -0.913383
-0.513362 0.315126 0.148803 -0.550196 0.736082 -0.394293
0.34936 0.213693 -0.089075 0.835729 0.380114 -0.396321
-0.107124 0.152252 0.137727 0.467901 -0.879692 0.0849154
0.319085 -0.39032 0.0900775 0.390543 -0.92029 -0.0232876
0.127531 0.127758 -0.0324414 -0.305341 -0.276548 -0.911202
0.217387 -0.0521216 -0.0479375 -0.309284 -0.347037 -0.885386
0.653439 -0.24008 -0.040556 -0.318409 -0.260558 -0.911441
0.345208 0.132951 -0.0635499 -0.435297 0.887288 -0.152436
0.381568 0.157582 -0.00134408 -0.443649 0.888864 -0.114438
0.316462 -0.0456133 0.00657135 0.298466 0.2857 0.910656
-0.149876 0.0313484 0.12866 0.86934 0.304755 -0.389066
-0.0766613 0.460154 -0.0710499 0.493212 -0.361651 0.79117
-0.13435 -0.59137 0.290532 0.306957 -0.940875 -0.143289
0.187461 0.399743 -0.0502802 0.859222 0.349893 -0.373247
-0.376361 0.278367 0.225815 -0.366833 -0.0876803 -0.926146
-0.479747 0.13657 0.235566 0.409303 -0.890553 0.198461
-0.213988 -0.0571902 0.0986071 -0.311321 -0.270415 -0.911019
0.306047 -0.116144 -0.118966 -0.839509 -0.369541 0.398327
-0.0212213 0.392486 0.0988388 0.304966 0.277716 0.910972
-0.157605 -0.303356 0.155365 -0.303049 -0.370532 -0.877991
-0.442665 0.335824 0.174089 0.35313 -0.917044 -0.185285
-0.137179 -0.595173 0.311637 0.341727 0.235953 0.909697
0.0729409 0.0115987 0.066185 -0.910766 0.348759 0.221071
0.387913 -0.261976 -0.0612444 -0.311413 -0.269824 -0.911162
0.472946 -0.0807585 0.0148965 -0.86376 -0.346867 0.365516
-0.278282 0.062222 0.199798 0.830096 0.396012 -0.392575
-0.160943 0.115425 0.160764 0.387101 -0.912327 0.133461
-0.219388 -0.0366643 0.0987968 -0.238593 -0.31906 -0.91721
0.193998 -0.151416 0.168738 0.310395 0.269903 0.911486
0.23635 0.17792 -0.123224 -0.284166 -0.313447 -0.906091
0.221662 -0.045618 -0.0532058 -0.317173 -0.293464 -0.90182
0.211168 -0.347224 0.233691 0.384269 0.0670663 0.920782
-0.315927 0.238154 0.244556 0.302978 0.245759 0.920764
-0.167466 0.231338 -0.000546071 -0.325454 -0.300467 -0.896548
-0.109099 -0.554138 0.278883 -0.407527 0.892929 0.191311
-0.166071 -0.184586 0.122904 -0.388878 -0.209665 -0.897114
0.390565 0.0204308 -0.129354 -0.373219 -0.282319 -0.883744
0.316109 0.262226 -0.101889 0.549863 -0.364631 0.751462
-0.118433 0.460152 -0.0705882 -0.548293 0.43536 -0.714028
0.259129 0.19547 -0.00423019 -0.801953 -0.414695 0.429999
-0.307256 0.0652342 0.239897 0.33017 0.256411 0.908428
0.158523 0.378413 -0.0630256 0.411414 -0.898228 0.154679
-0.4528 0.315416 0.126671 0.565665 -0.65304 0.503549
0.344035 -0.29638 0.145079 -0.475088 0.0835745 -0.875961
-0.144367 -0.448447 0.388339 0.284881 0.281057 0.916433
0.196771 0.484256 -0.0589025 -0.493784 0.520572 -0.69655
-0.375846 -0.00511086 0.141411 -0.309138 -0.216183 -0.92612
0.0137113 -0.0963158 0.163424 -0.84725 -0.360966 0.389707
0.108585 0.450934 0.0335668 0.318242 0.2679 0.909369
-0.0788466 0.24907 0.141307 0.850388 0.337623 -0.403547
-0.186825 -0.310913 0.215512 0.433822 -0.891678 0.129266
-0.022894 -0.0999589 0.0823969 -0.909806 -0.157575 0.383957
0.35635 -0.372091 0.0656225 0.368551 -0.921053 -0.125825
0.144484 0.46462 -0.152134 0.00318917 0.724791 0.688962
-0.27026 0.22546 0.127882 0.313045 0.247659 0.916879
0.347837 0.0558194 -0.12432 -0.287674 -0.294966 -0.911174
0.319007 -0.184957 -0.155564 -0.844748 -0.361057 0.395018
-0.387167 0.293055 0.227354 -0.294369 -0.234069 -0.926584
0.250187 0.609579 -0.0951354 -0.066067 -0.654474 -0.753193
0.332165 0.19589 -0.141123 0.870432 0.306951 -0.384875
0.389252 -0.0562757 -0.0668092 0.263535 0.261656 0.928486
0.338273 -0.162793 -0.211254 0.85259 0.355139 -0.383362
-0.245938 0.138297 0.0541095 -0.263623 -0.248536 -0.932058
0.108733 -0.418587 0.253164 -0.653176 0.318577 -0.686928
-0.32637 0.000701397 0.121213 -0.357962 -0.257015 -0.897667
-0.275523 0.183989 0.119892 0.449377 -0.890603 0.0699059
-0.128042 -0.167345 0.181887 -0.485483 0.869986 -0.0862045
0.144228 0.229709 -0.182946 0.426071 -0.880189 0.209119
0.322636 0.190512 -0.0424864 0.427 -0.890219 0.158684
-0.487221 0.278383 0.286263 0.20634 0.514007 0.832599
0.110091 -0.0815548 0.0826796 -0.82115 -0.390977 0.415753
0.294439 -0.2917 -0.0216401 -0.283159 -0.283317 -0.916271
0.0189115 0.243916 -0.0174465 0.297171 0.296939 0.907478
0.140586 -0.327952 0.0602048 0.829147 0.377016 -0.412764
