ply
format ascii 1.0
comment Created by Open3D
element vertex 128
property double x
property double y
property double z
property double nx
property double ny
property double nz
end_header
-0.00926619 -0.368657 0.0410176 0.232582 -0.97244 -0.0162919
-0.0928833 -0.138707 0.530815 -0.859835 -0.213421 0.463828
0.00664092 0.0426688 -0.495907 0.387244 0.210006 -0.897741
0.30912 -0.280546 0.435588 0.454522 0.0938697 0.885776
0.524229 -0.216955 0.318469 0.454522 0.0938697 0.885776
0.0709013 0.181167 -0.353402 0.546676 0.647071 -0.531455
0.504851 -0.0565433 0.143043 0.859834 0.213419 -0.463829
0.207291 0.188059 0.0835367 0.0882772 -0.956906 -0.276654
0.128816 0.387565 0.457305 0.454522 0.0938697 0.885776
-0.129368 0.255367 -0.338253 -0.039306 0.932867 -0.358071
0.0366852 -0.254802 -0.345729 0.509399 -0.75524 -0.412462
0.420565 0.0700127 0.341251 0.454522 0.0938697 0.885776
0.100587 0.389736 -0.320422 0.443534 0.838531 -0.316455
-0.000415441 0.36951 -0.23015 -0.232582 0.97244 0.016292
-0.404445 0.268395 0.0373659 -0.232582 0.97244 0.016292
-0.158465 -0.217796 0.37285 -0.859835 -0.213421 0.463828
-0.00635345 0.356139 0.483202 -0.232582 0.97244 0.016292
0.497362 -0.198609 0.0637912 0.859835 0.213421 -0.463827
-0.286713 -0.272093 -0.213289 -0.564495 -0.823732 0.0530126
0.563584 -0.176452 0.196747 0.859835 0.213421 -0.463827
-0.265107 0.237019 -0.131391 -0.603923 0.793453 0.0755552
-0.34009 -0.173068 0.0567368 -0.859835 -0.213421 0.463827
0.0606852 -0.0785623 0.267936 -0.500372 0.532914 -0.682371
0.159616 0.15044 0.46663 0.454522 0.0938697 0.885776
0.108659 0.3879 0.229361 -0.232582 0.97244 0.016292
0.30979 0.437057 0.166596 -0.232582 0.97244 0.016292
-0.158352 0.161192 -0.457938 -0.204245 0.505534 -0.838284
-0.177255 0.0987956 0.259343 0.186171 -0.976954 -0.104405
0.531094 -0.0849743 0.30096 0.454522 0.0938697 0.885776
0.0953231 -0.339184 -0.225101 0.232582 -0.97244 -0.0162919
-0.198565 -0.313205 0.254612 -0.859835 -0.213421 0.463827
0.326419 -0.285735 -0.116304 0.232582 -0.97244 -0.0162919
-0.178066 0.0383463 0.380223 -0.376796 -0.670873 -0.638713
0.0123954 -0.369863 0.422213 0.232582 -0.97244 -0.0162919
0.429497 -0.267201 0.248992 0.232582 -0.97244 -0.0162919
0.242457 0.0594046 -0.128366 0.448582 0.118084 0.885907
-0.19402 0.314042 0.316787 -0.232582 0.97244 0.016292
0.223608 0.0827699 0.195959 -0.391371 -0.307905 -0.867193
0.302208 0.425367 0.364326 0.454522 0.0938697 0.885776
-0.0898586 -0.0858454 0.365453 -0.509957 0.31439 -0.800689
-0.0556353 -0.162816 0.201896 -0.209637 0.97591 0.0604243
-0.310151 -0.0225096 -0.402212 -0.501638 -0.0798087 -0.861389
0.132759 -0.0700712 -0.0127928 0.162979 0.746192 0.645473
-0.146804 -0.402501 0.0976152 0.232582 -0.97244 -0.0162919
0.0116574 0.227373 0.534399 0.454522 0.0938697 0.885776
-0.0168303 0.0290877 0.32339 -0.374542 -0.353735 -0.857082
-0.0668904 0.345937 0.227935 -0.232582 0.97244 0.016292
-0.135392 -0.397265 -0.0520133 0.232582 -0.97244 -0.0162919
-0.250965 0.190153 0.389085 -0.859835 -0.213421 0.463827
-0.17825 0.324302 -0.0704638 -0.232582 0.97244 0.016292
0.123522 0.119045 -0.0406704 0.500372 -0.532915 0.68237
0.101082 -0.344175 0.155003 0.232582 -0.97244 -0.0162919
-0.208827 -0.165064 0.184364 0.113992 0.805271 0.581846
-0.380632 -0.139706 -0.308759 -0.842455 -0.335336 -0.421687
0.267352 0.044765 0.422546 0.454522 0.0938697 0.885776
-0.138502 -0.0193661 -0.490085 -0.407748 -0.0780629 -0.909752
0.0100356 -0.115661 0.0734494 0.0890434 0.831842 0.547822
0.336636 0.302178 -0.00373291 0.859835 0.213421 -0.463827
0.397337 -0.0988731 0.371068 0.454522 0.0938697 0.885776
-0.398527 -0.110272 -0.166105 -0.9264 -0.299846 0.227763
-0.274512 0.186399 -0.376454 -0.54 0.639009 -0.547784
0.247287 0.054749 -0.283217 0.859835 0.213421 -0.463828
-0.16628 0.155038 0.529914 -0.859833 -0.213422 0.46383
-0.0508537 0.0795826 0.582138 0.454522 0.0938697 0.885776
0.148532 -0.186563 -0.295048 -0.454521 -0.093869 -0.885776
0.245179 -0.311162 0.241657 0.232582 -0.97244 -0.0162919
-0.19725 -0.151531 -0.44549 -0.424947 -0.188808 -0.885309
-0.175984 -0.311027 -0.300431 -0.195772 -0.957398 -0.21228
-0.431774 0.0949257 0.00432072 -0.965798 -0.232903 0.113976
0.270858 -0.0768015 -0.00762579 -0.113234 0.965533 0.23436
0.400584 0.285752 0.328641 0.454522 0.0938697 0.885776
-0.116519 0.0407984 0.0773436 0.510572 -0.360104 0.780795
0.232282 0.318055 0.41158 0.454522 0.0938697 0.885776
-0.239692 -0.0206447 0.13334 0.500526 -0.173015 0.848257
0.269089 -0.0987952 0.436868 0.454522 0.0938697 0.885776
0.19544 0.412975 -0.0284557 -0.232582 0.97244 0.016292
-0.144528 0.0142181 0.505442 -0.859835 -0.213421 0.463828
0.00551833 0.0619706 0.00749048 0.509957 -0.314388 0.800689
-0.327995 0.281257 0.225404 -0.499638 0.850123 0.16629
-0.272181 -0.227475 -0.372088 -0.539596 -0.539589 -0.646281
0.0473293 -0.0614991 0.546708 0.454522 0.0938697 0.885776
0.183625 -0.0915048 0.145304 -0.406759 0.835409 -0.369646
0.40089 -0.0446517 0.0319776 0.320233 0.741704 -0.589344
0.145993 -0.331036 0.0119179 0.232582 -0.97244 -0.0162919
-0.0657167 -0.385848 0.26121 0.232582 -0.97244 -0.0162919
-0.357363 0.156767 -0.224774 -0.805363 0.592186 0.0265588
0.0453181 -0.212056 0.563695 0.454522 0.0938697 0.885776
0.021574 0.365377 0.330508 -0.232582 0.97244 0.016292
0.422027 -0.170907 -0.0631173 0.859835 0.213421 -0.463827
-0.27141 -0.291602 -0.06843 -0.454521 -0.0938698 -0.885776
0.155583 -0.336781 0.491725 0.232582 -0.97244 -0.0162919
0.487265 0.170301 0.21482 0.859835 0.213421 -0.463827
-0.0358235 0.126202 0.219796 0.063101 -0.945901 -0.318262
-0.373061 0.00242616 0.0763674 -0.859835 -0.213421 0.463827
0.081934 0.158744 0.14441 0.113233 -0.965533 -0.234361
-0.318742 0.0967676 0.220472 -0.859835 -0.21342 0.463828
0.358581 -0.281259 0.0757078 0.232582 -0.97244 -0.0162919
0.532029 0.0408736 0.238249 0.859835 0.213421 -0.463827
-0.0291437 -0.370185 -0.151573 0.232582 -0.97244 -0.0162919
0.174896 0.410244 -0.158745 -0.232582 0.97244 0.016292
0.214322 0.211579 -0.272164 0.859835 0.213421 -0.463828
0.451426 0.307876 0.211684 0.859835 0.213421 -0.463827
-0.400681 0.0403992 -0.305376 -0.913379 0.171291 -0.369322
-0.206204 0.314053 0.142178 -0.232582 0.97244 0.016292
-0.0459504 -0.192145 -0.466776 0.154294 -0.512483 -0.844722
-0.270712 0.300836 0.0101629 -0.232582 0.97244 0.016292
0.26113 -0.252265 -0.332438 0.286599 0.0845353 -0.954314
-0.0871899 -0.303489 0.465548 -0.859835 -0.213421 0.463827
0.274513 0.249587 -0.143094 0.859835 0.213423 -0.463826
-0.109838 0.291487 -0.214284 -0.117579 0.974099 -0.193149
-0.264478 -0.299093 0.138917 -0.859834 -0.213422 0.463828
-0.100489 0.270911 0.587332 0.454522 0.0938697 0.885776
-0.39961 0.0348567 -0.141273 -0.953824 0.181852 0.23906
-0.196818 0.309819 0.471608 -0.405608 0.90716 0.111995
-0.304823 -0.37387 0.0297193 -0.859836 -0.21342 0.463826
0.299821 -0.0279011 0.131828 -0.494688 0.573068 -0.653358
0.0759546 -0.101101 -0.446629 0.674843 -0.270466 -0.686611
0.185279 0.408003 0.123252 -0.232582 0.97244 0.016292
0.0365231 -0.365902 0.584219 0.356951 0.0697672 0.931514
0.344296 -0.0552039 -0.13134 0.688517 0.72039 0.0835659
0.407186 0.0906205 0.110666 0.282454 0.101668 -0.953878
0.0758316 -0.352626 0.298973 0.232582 -0.97244 -0.0162919
0.425792 0.43011 0.287196 0.92939 0.217287 0.298363
0.0366534 0.375181 -0.0394434 -0.232582 0.97244 0.016292
0.188716 -0.197737 0.488596 0.454522 0.0938697 0.885776
0.223601 -0.0908707 -0.329412 0.286599 0.0845353 -0.954314
-0.178311 -0.316748 -0.15182 -0.277663 -0.958694 0.0617109
0.00112602 0.364442 0.0943766 -0.232582 0.97244 0.016292
