ply
format ascii 1.0
comment Created by Open3D
element vertex 512
property double x
property double y
property double z
property double nx
property double ny
property double nz
end_header
-0.104898 0.330741 0.378747 -0.939056 -0.342557 -0.0287962
-0.0386477 -0.367728 -0.329814 0.252914 -0.745184 0.617038
-0.0511261 -0.359057 -0.321895 -0.82236 0.170394 0.542854
-0.513046 -0.0765265 0.107138 -0.209346 0.580511 0.786881
-0.0794645 -0.326145 -0.38328 -0.936051 -0.0272117 0.350809
0.035654 -0.233837 -0.395459 -0.252914 0.745185 -0.617036
-0.268958 0.20337 0.319449 -0.744128 0.257764 0.616304
-0.518521 -0.0949524 0.142898 -0.744128 0.257764 0.616304
0.0251639 0.33489 0.30564 0.519783 -0.433255 -0.736285
-0.119265 0.302934 0.458548 -0.744128 0.257764 0.616304
0.0136093 0.251563 0.356629 0.162011 -0.596145 -0.786361
-0.489337 -0.0192124 0.128147 -0.252913 0.745185 -0.617037
0.0751607 -0.254593 -0.414741 0.852561 0.47315 0.221965
0.0485048 -0.231412 -0.396779 0.607964 0.618531 0.497794
-0.202353 -0.202435 -0.112314 0.252913 -0.745186 0.617036
-0.0725204 -0.33589 -0.474368 -0.252913 0.745185 -0.617037
-0.0361766 0.385033 0.495254 -0.29384 0.548481 0.782832
-0.490351 -0.0537291 0.0428446 0.955757 0.0934183 -0.27893
-0.173647 -0.325723 -0.30099 0.7359 0.562204 0.377331
-0.0896058 0.365199 0.442375 -0.822356 0.170398 0.542858
0.045533 0.294437 0.344155 -0.62671 0.359692 0.691272
-0.084978 -0.364535 -0.454634 -0.252913 0.745185 -0.617037
-0.239384 -0.172253 -0.105247 -0.620067 -0.614415 -0.487863
-0.468505 -0.147533 -0.0316755 -0.7359 -0.562204 -0.377331
-0.0339234 0.228194 0.387084 -0.446787 -0.655652 -0.608689
-0.503109 -0.0486392 0.0490313 -0.252913 0.745184 -0.617037
0.0306885 -0.420786 -0.422311 0.252915 -0.745185 0.617036
0.0430228 0.337887 0.48887 0.25291 -0.745184 0.617039
-0.0517072 0.238143 0.392312 -0.607965 -0.61853 -0.497794
-0.0038105 0.412211 0.457473 -0.131777 -0.658361 -0.741078
0.0937052 0.341404 0.423122 0.252913 -0.745184 0.617038
-0.0592857 -0.401202 -0.406554 -0.852562 -0.473149 -0.221963
-0.537913 -0.091319 0.0848059 -0.962058 -0.126224 0.241894
-0.291791 0.159471 0.310242 -0.744128 0.257764 0.616304
-0.0454482 -0.212554 -0.269854 0.620067 0.614415 0.487863
-0.247683 0.0801576 0.189821 -0.62671 0.359692 0.691272
-0.45078 -0.0167158 0.167326 0.744128 -0.257764 -0.616304
-0.436587 -0.190687 -0.00211769 0.252913 -0.745185 0.617036
-0.546185 -0.117407 0.0834142 -0.914795 -0.391798 -0.0982086
-0.400007 -0.051986 0.0985133 0.62671 -0.359692 -0.691272
0.0857782 -0.275494 -0.418296 0.926281 0.370654 0.0679658
-0.0289192 -0.394026 -0.365561 0.252913 -0.745184 0.617038
-0.0593042 0.406562 0.466084 -0.252914 0.745185 -0.617037
-0.0170004 -0.429932 -0.413809 0.252916 -0.745186 0.617035
-0.223905 0.10718 0.197317 -0.62671 0.359692 0.691272
-0.214143 0.210961 0.382459 -0.744128 0.257764 0.616304
-0.487064 -0.0866476 0.0543649 0.795935 -0.202316 -0.570575
-0.2914 0.0573309 0.162064 -0.62671 0.359692 0.691272
-0.0770104 -0.196155 -0.25455 -0.252914 0.745184 -0.617037
-0.0437363 0.245619 0.266656 0.62671 -0.359692 -0.691272
0.0966389 -0.333469 -0.433207 -0.940554 -0.0399367 0.337287
0.0534463 -0.243179 -0.414035 -0.252912 0.745184 -0.617038
-0.369703 -0.117719 0.0228345 0.620067 0.614415 0.487863
0.0815556 -0.269376 -0.408375 0.874302 0.449135 0.184051
0.0233218 -0.377337 -0.366819 0.25291 -0.745187 0.617035
-0.384169 -0.0611208 0.117626 0.62671 -0.359692 -0.691272
0.0724215 -0.287713 -0.356388 0.644727 0.605337 0.466791
-0.0748745 0.384638 0.451636 0.626482 -0.359865 -0.691388
-0.311532 0.0180425 0.142287 0.62671 -0.359692 -0.691272
0.0621899 -0.293481 -0.3307 0.252913 -0.745186 0.617036
-0.247246 -0.29971 -0.236455 -0.7359 -0.562204 -0.377331
-0.0825887 0.349954 0.458525 0.744129 -0.257764 -0.616304
-0.278681 0.163259 0.324486 -0.744128 0.257764 0.616304
0.0694966 -0.351533 -0.473156 -0.68782 0.310029 0.656343
0.0806048 -0.310544 -0.338084 0.644727 0.605337 0.466791
-0.0667232 0.368133 0.373493 -0.252913 0.745183 -0.617039
0.0477872 0.353461 0.319073 0.767527 -0.233741 -0.596882
-0.165283 -0.200549 -0.132663 0.620067 0.614415 0.487863
-0.196467 -0.186229 -0.111065 0.620067 0.614415 0.487863
0.0787621 -0.394383 -0.464789 0.579796 -0.393821 -0.713261
-0.0880124 -0.397316 -0.401578 -0.7359 -0.562204 -0.377331
0.0775045 -0.264989 -0.401949 0.828706 0.495984 0.259318
0.0403012 0.300762 0.314152 0.62671 -0.359692 -0.691272
-0.412531 -0.192445 -0.0336784 0.7359 0.562204 0.377331
0.0464998 0.265232 0.338259 0.62671 -0.359692 -0.691272
-0.365847 -0.0540506 0.133901 0.252913 -0.745185 0.617037
0.107691 -0.346722 -0.398425 0.965964 0.158695 -0.204279
-0.461538 -0.170265 -0.0113928 -0.7359 -0.562204 -0.377331
-0.0313934 0.257399 0.293685 -0.62671 0.359692 0.691272
0.030254 0.274676 0.318617 0.62671 -0.359692 -0.691272
-0.121853 0.151165 0.244983 0.62671 -0.359692 -0.691272
-0.159753 0.287736 0.391379 0.744129 -0.257764 -0.616304
-0.24139 0.224496 0.32084 -0.252913 0.745185 -0.617037
-0.340458 -0.135009 0.00743996 0.620067 0.614415 0.487863
-0.24601 0.0651207 0.199161 -0.62671 0.359692 0.691272
-0.0378539 0.375996 0.500956 -0.29384 0.548481 0.782832
-0.259888 0.0830188 0.177267 -0.62671 0.359692 0.691272
-0.319242 -0.135545 -0.0188497 0.620067 0.614415 0.487863
0.079704 -0.341004 -0.464891 0.795931 -0.20232 -0.570578
0.0494137 0.324656 0.333016 -0.712846 0.287675 0.639604
0.0759317 -0.256023 -0.438762 -0.252913 0.745185 -0.617037
-0.0688072 -0.282471 -0.411377 -0.252913 0.745185 -0.617037
-0.292271 0.120948 0.301134 0.744129 -0.257764 -0.616304
-0.502222 -0.124219 0.0395925 0.7359 0.562204 0.377331
-0.329135 -0.0166464 0.164026 0.252913 -0.745185 0.617037
-0.0124126 0.247643 0.402606 0.252911 -0.745185 0.617037
0.0395399 0.300052 0.444606 0.252914 -0.745187 0.617034
-0.0595933 -0.33663 -0.341761 -0.82236 0.170394 0.542854
-0.100013 0.202266 0.238193 0.62671 -0.359692 -0.691272
-0.109011 0.35729 0.399642 -0.962056 -0.126211 0.241909
-0.00606961 -0.375944 -0.487917 0.0951359 0.653836 0.750632
-0.355797 -0.130447 0.0211898 0.620067 0.614415 0.487863
0.0683022 -0.256597 -0.358961 0.620067 0.614415 0.487863
-0.175713 -0.316418 -0.35107 -0.7359 -0.562204 -0.377331
-0.351524 0.120958 0.254228 -0.744128 0.257764 0.616304
-0.0534587 -0.38182 -0.450625 -0.679873 -0.590644 -0.434642
0.0335244 -0.373911 -0.366863 0.252913 -0.745185 0.617037
-0.411004 -0.131898 0.102079 -0.911214 -0.39781 -0.106937
-0.541901 -0.0584832 0.0530428 -0.252914 0.745186 -0.617036
-0.0428252 -0.40325 -0.437636 0.616849 0.615531 0.49053
0.0075981 -0.230445 -0.379863 -0.252912 0.745185 -0.617037
-0.423172 0.0438892 0.177234 -0.252913 0.745185 -0.617037
-0.177044 0.147581 0.21878 -0.62671 0.359692 0.691272
0.0168691 0.30698 0.318105 0.347788 -0.525114 -0.776724
-0.0587791 0.253067 0.382459 -0.644724 -0.605338 -0.466794
-0.42719 -0.071822 0.0386798 -0.71335 -0.574472 -0.401389
0.0080555 -0.423138 -0.415874 0.252915 -0.745185 0.617036
-0.334449 -0.126485 -0.010933 0.620067 0.614415 0.487863
-0.373273 0.090858 0.215916 0.744128 -0.257764 -0.616304
-0.197784 0.28103 0.371242 -0.252913 0.745185 -0.617037
-0.231269 0.0983842 0.173249 0.62671 -0.359692 -0.691272
0.0605782 0.408368 0.379272 0.926281 0.370654 0.0679648
-0.0184791 0.371871 0.505898 0.252905 -0.745186 0.617038
-0.402911 -0.211403 -0.0409395 0.252913 -0.745185 0.617036
-0.00339376 -0.436811 -0.432332 -0.313901 -0.666473 -0.676225
-0.544077 -0.0928171 0.0616926 -0.252914 0.745186 -0.617035
-0.172324 -0.169154 -0.182874 -0.252913 0.745185 -0.617037
0.0294246 -0.415382 -0.415266 0.252915 -0.745185 0.617036
-0.388563 -0.0932806 0.0160285 0.620067 0.614415 0.487863
-0.0563204 0.366027 0.366685 -0.252914 0.745187 -0.617034
-0.0581459 -0.410075 -0.439828 -0.687378 -0.587214 -0.427424
0.0704206 -0.262855 -0.444754 -0.252914 0.745186 -0.617036
-0.29978 0.0423293 0.140304 0.62671 -0.359692 -0.691272
0.078241 0.324264 0.457983 0.252913 -0.745185 0.617037
-0.00120202 -0.259398 -0.411222 -0.252915 0.745185 -0.617036
-0.139213 0.121984 0.253601 0.252914 -0.745185 0.617036
-0.0383666 0.204479 0.311894 0.252913 -0.745185 0.617037
0.0388737 -0.259516 -0.317881 0.620067 0.614415 0.487863
0.0909034 -0.291695 -0.400926 -0.906704 -0.405058 -0.117539
-0.152399 -0.337191 -0.365588 -0.7359 -0.562204 -0.377331
0.0441596 0.388272 0.481566 0.449266 0.655297 0.607244
0.055259 0.282095 0.359455 -0.644747 0.345694 0.68176
-0.0210678 0.243025 0.400577 0.252913 -0.745185 0.617037
-0.0180068 0.31685 0.488479 0.252917 -0.745183 0.617037
0.0636333 -0.29531 -0.335398 -0.620067 -0.614415 -0.487863
0.0286127 -0.373532 -0.364392 0.252912 -0.745185 0.617037
-0.340446 -0.124867 -0.00534785 0.620067 0.614415 0.487863
0.0423248 -0.377504 -0.478461 0.347787 -0.525114 -0.776724
0.0848279 0.33645 0.356363 0.909916 -0.033515 -0.413436
-0.340998 -0.119407 -0.0426495 -0.620067 -0.614415 -0.487863
-0.376624 -0.0450404 0.0503256 0.949497 0.313603 -0.0104502
0.0269704 0.26841 0.340868 -0.62671 0.359692 0.691272
-0.0429759 0.292935 0.469833 0.252914 -0.745184 0.617037
-0.400554 -0.197892 -0.0489216 0.7359 0.562204 0.377331
-0.249918 -0.147244 -0.123353 -0.620067 -0.614415 -0.487863
-0.277324 -0.262964 -0.1923 0.7359 0.562204 0.377331
-0.307223 0.0379344 0.135844 0.62671 -0.359692 -0.691272
0.0876339 0.367332 0.372035 0.966284 0.162744 -0.199521
0.0513345 -0.304782 -0.318472 0.359126 0.664515 0.655323
-0.0726286 -0.278397 -0.380401 -0.767526 0.233742 0.596883
0.0781558 -0.269568 -0.395273 0.828705 0.495985 0.25932
-0.508702 -0.0817468 0.112058 -0.16202 0.596143 0.786361
-0.0279196 0.264688 0.429547 0.252913 -0.745184 0.617038
-0.0456916 0.261199 0.360171 -0.446787 -0.655652 -0.608689
-0.026871 0.379721 0.482644 0.201354 -0.583264 -0.78693
-0.162965 -0.335349 -0.347727 -0.7359 -0.562204 -0.377331
0.0438273 -0.375322 -0.479155 -0.37281 0.513456 0.772901
-0.27919 0.170387 0.32089 -0.744128 0.257764 0.616304
0.0756175 0.317672 0.374428 0.889137 -0.0723987 -0.451878
0.0761868 0.363505 0.399486 0.957571 0.283889 -0.0496453
0.015172 0.378879 0.352903 -0.252913 0.745186 -0.617036
-0.113176 0.346673 0.422967 0.744129 -0.257764 -0.616304
0.0216449 -0.418046 -0.464517 0.252912 -0.745185 0.617038
0.0303116 0.382191 0.496121 0.317629 0.666375 0.674579
-0.0438056 0.252075 0.368614 -0.446787 -0.655652 -0.608689
-0.119552 0.334177 0.420494 0.744129 -0.257764 -0.616304
-0.171985 0.243592 0.413898 0.252912 -0.745185 0.617037
-0.0287392 -0.255581 -0.395326 -0.25291 0.745186 -0.617036
-0.195483 -0.180557 -0.119459 0.620067 0.614415 0.487863
0.0662631 0.334235 0.327268 -0.252915 0.745183 -0.617038
-0.299736 -0.233518 -0.192464 0.7359 0.562204 0.377331
0.0416651 -0.373891 -0.370176 0.252914 -0.745188 0.617033
-0.0271159 0.376258 0.50444 -0.201353 0.583265 0.78693
0.0171608 0.41277 0.393017 -0.252911 0.745184 -0.617039
0.0451896 0.379126 0.464392 0.569694 0.630185 0.527556
0.017107 -0.238928 -0.368338 0.221218 0.665417 0.712939
0.073858 0.370458 0.39433 0.957571 0.283889 -0.0496453
-0.0325359 0.318364 0.496264 0.252916 -0.745183 0.617037
-0.00549582 0.290168 0.451128 0.252913 -0.745186 0.617036
-0.00712165 -0.323075 -0.485697 -0.252913 0.745185 -0.617037
-0.304022 0.0540363 0.14065 -0.252913 0.745185 -0.617037
-0.500538 -0.131432 0.0747759 -0.0302014 -0.643541 -0.764815
-0.429642 -0.0373562 0.0860024 -0.62671 0.359692 0.691272
-0.493492 -0.0761312 0.159554 0.252913 -0.745185 0.617037
-0.377385 -0.057232 0.0805687 0.67988 0.59064 0.434635
-0.0552993 0.352843 0.4855 -0.559808 0.40745 0.721526
0.0562188 0.29161 0.427573 0.252912 -0.745188 0.617033
-0.510314 -0.0927649 0.146361 0.252913 -0.745185 0.617037
-0.545174 -0.0567039 0.0565335 -0.252914 0.745185 -0.617037
0.0612261 -0.281366 -0.350851 0.530002 0.640274 0.55601
0.101863 -0.35441 -0.42094 0.936051 0.0272101 -0.350811
0.0357441 -0.246063 -0.369511 0.40345 0.660905 0.632797
-0.0252601 0.378664 0.48384 0.201354 -0.583264 -0.78693
-0.0377123 -0.359357 -0.492238 -0.403457 -0.660905 -0.632793
-0.0404593 0.380355 0.377487 -0.252914 0.745184 -0.617037
0.0382182 -0.380036 -0.478543 -0.328262 0.533845 0.779265
0.0623648 0.283362 0.365871 0.252915 -0.745184 0.617037
-0.181059 -0.174089 -0.177064 -0.620067 -0.614415 -0.487863
-0.234444 0.0880397 0.175753 0.62671 -0.359692 -0.691272
-0.0656194 -0.231151 -0.220795 0.620067 0.614415 0.487863
-0.113569 -0.372798 -0.354449 0.252913 -0.745185 0.617037
0.0411973 -0.262377 -0.348359 -0.620067 -0.614415 -0.487863
-0.126891 -0.200482 -0.21267 -0.620067 -0.614415 -0.487863
-0.393607 -0.140849 0.0856591 -0.35912 -0.664515 -0.655326
0.0457269 0.293427 0.344856 -0.62671 0.359692 0.691272
-0.251026 0.0640564 0.1732 0.62671 -0.359692 -0.691272
-0.432487 -0.0429744 0.0623188 -0.822358 0.170396 0.542856
0.00243958 -0.265106 -0.295661 -0.620067 -0.614415 -0.487863
-0.488525 -0.0625623 0.0467987 0.936049 0.0272055 -0.350816
-0.275157 -0.154737 -0.0818394 -0.620067 -0.614415 -0.487863
-0.355868 -0.220931 -0.141989 -0.7359 -0.562204 -0.377331
-0.0527672 -0.250839 -0.37458 -0.519788 0.433251 0.736283
-0.405552 -0.0305139 0.104282 -0.62671 0.359692 0.691272
-0.43483 0.0115726 0.174753 0.744128 -0.257764 -0.616304
-0.299155 0.0625906 0.152297 -0.62671 0.359692 0.691272
0.0522514 -0.277526 -0.312202 0.620067 0.614415 0.487863
-0.27666 -0.172555 -0.0457709 0.252913 -0.745185 0.617037
-0.0744381 0.3672 0.483065 -0.62648 0.359867 0.691389
-0.489709 -0.169026 0.045816 0.252913 -0.745185 0.617036
-0.0730613 0.305126 0.486072 -0.846743 0.138044 0.51378
-0.079093 0.384761 0.398644 -0.252914 0.745184 -0.617037
-0.0414976 -0.299423 -0.338277 -0.559815 0.407445 0.721523
-0.350893 -0.000875553 0.138414 -0.62671 0.359692 0.691272
-0.0101047 0.220591 0.319768 0.252914 -0.745185 0.617036
-0.0364755 -0.366125 -0.328768 0.252913 -0.745185 0.617036
-0.349963 -0.0174455 0.125911 0.62671 -0.359692 -0.691272
0.0896943 -0.374511 -0.439073 0.795931 -0.20232 -0.570578
0.0695111 -0.253507 -0.383869 -0.252913 0.745185 -0.617036
-0.239126 -0.155388 -0.126814 -0.620067 -0.614415 -0.487863
-0.0572503 -0.363194 -0.331031 -0.86902 0.105354 0.483431
-0.240905 -0.169744 -0.106471 -0.620067 -0.614415 -0.487863
0.10635 -0.302305 -0.444226 0.96372 0.1378 -0.228594
-0.398844 -0.027339 0.086743 0.62671 -0.359692 -0.691272
0.0423308 -0.30341 -0.315981 0.221218 0.665417 0.712939
-0.144612 -0.347669 -0.365163 -0.7359 -0.562204 -0.377331
-0.0125443 -0.258285 -0.285207 -0.620067 -0.614415 -0.487863
-0.143667 0.271165 0.417732 0.744129 -0.257764 -0.616304
0.00244732 -0.402839 -0.46555 -0.126337 -0.657748 -0.742568
0.0866893 0.375273 0.421864 0.89287 0.425384 0.147756
-0.0946829 -0.391616 -0.384916 0.252913 -0.745185 0.617037
0.10059 -0.313839 -0.464087 0.913601 -0.0259292 -0.405785
-0.048685 -0.402007 -0.462054 -0.540319 -0.637836 -0.548836
-0.236296 0.225094 0.3498 -0.744128 0.257764 0.616304
-0.265814 -0.26741 -0.248369 -0.7359 -0.562204 -0.377331
-0.29094 0.0149423 0.162569 0.62671 -0.359692 -0.691272
-0.271575 -0.170544 -0.0664846 -0.620067 -0.614415 -0.487863
0.0644672 -0.323994 -0.319262 0.252916 -0.745185 0.617035
0.0784216 0.355566 0.398961 0.963268 0.253458 -0.0887306
-0.364382 -0.00679515 0.107298 0.62671 -0.359692 -0.691272
-0.351201 0.0107604 0.110112 0.62671 -0.359692 -0.691272
-0.308833 -0.140431 -0.0570543 -0.620067 -0.614415 -0.487863
0.0961321 0.352298 0.41985 0.948693 0.31612 -0.00708049
0.0727008 0.368089 0.424359 0.893863 0.424009 0.145688
0.00451421 -0.311728 -0.307283 -0.162011 0.596145 0.786361
-0.314742 -0.232478 -0.164745 0.7359 0.562204 0.377331
-0.237951 -0.142642 -0.113232 0.620067 0.614415 0.487863
-0.117977 -0.362788 -0.354337 0.7359 0.562204 0.377331
-0.356126 -0.230385 -0.1274 -0.7359 -0.562204 -0.377331
-0.380078 -0.0511763 0.0765529 0.67988 0.59064 0.434635
-0.111523 -0.373128 -0.355687 0.252913 -0.745185 0.617036
0.0977414 0.338678 0.397613 0.966284 0.162744 -0.199521
0.0343324 0.283623 0.317659 0.62671 -0.359692 -0.691272
-0.269995 -0.268629 -0.238398 -0.7359 -0.562204 -0.377331
0.0275737 0.300069 0.302974 0.62671 -0.359692 -0.691272
-0.271101 0.0234019 0.188604 0.252913 -0.745185 0.617037
-0.361876 0.115819 0.243877 -0.744128 0.257764 0.616304
-0.43039 -0.0271706 0.0580397 -0.635599 0.352858 0.686662
-0.0466749 -0.4147 -0.416036 -0.713353 -0.57447 -0.401386
0.0508028 0.297755 0.325238 0.62671 -0.359692 -0.691272
-0.176107 -0.188982 -0.133474 0.620067 0.614415 0.487863
-0.085848 0.312026 0.459965 -0.922695 0.00603355 0.385484
-0.0460039 -0.385505 -0.455853 0.579301 0.627446 0.52031
-0.316835 -0.235823 -0.195926 -0.7359 -0.562204 -0.377331
-0.321002 -0.229802 -0.195176 -0.252913 0.745185 -0.617037
-0.0421774 0.27091 0.347793 -0.359118 -0.664515 -0.655327
-0.0418756 -0.289283 -0.430643 -0.252914 0.745183 -0.617039
-0.170148 -0.174477 -0.190195 -0.252913 0.745185 -0.617037
-0.422668 -0.0976771 0.0741611 0.923424 0.376212 0.0758488
-0.0832879 0.353802 0.480563 -0.728608 0.272898 0.628218
0.0734152 0.370942 0.38865 -0.962799 -0.256576 0.0847735
0.0947284 -0.270063 -0.388691 0.84692 0.478846 0.231155
0.0133755 0.23345 0.325673 0.252914 -0.745185 0.617036
-0.475228 -0.102328 0.0791964 0.936049 0.0272055 -0.350816
-0.313932 -0.146417 -0.0430341 -0.620067 -0.614415 -0.487863
-0.353932 -0.199426 -0.137561 0.7359 0.562204 0.377331
0.0701926 -0.289982 -0.350446 -0.620067 -0.614415 -0.487863
-0.393452 -0.115782 0.0505802 0.620067 0.614415 0.487863
-0.0121386 -0.265213 -0.345978 -0.162011 0.596145 0.786361
0.0690085 0.376153 0.36509 0.965964 0.158698 -0.204276
-0.0624533 -0.340623 -0.345303 -0.86902 0.105353 0.48343
-0.0637353 -0.363601 -0.45885 -0.713353 -0.57447 -0.401386
-0.0125757 0.426348 0.421603 -0.252913 0.745185 -0.617037
-0.305064 0.1603 0.293869 -0.744128 0.257764 0.616304
-0.12674 -0.195735 -0.218841 -0.620067 -0.614415 -0.487863
0.0379308 0.313764 0.327206 -0.62671 0.359692 0.691272
-0.0188718 -0.254723 -0.281651 -0.620067 -0.614415 -0.487863
0.0724689 0.311386 0.369698 -0.851304 0.131622 0.507894
-0.0920227 -0.192015 -0.243397 -0.252914 0.745184 -0.617037
-0.327198 -0.107799 -0.0452959 -0.252914 0.745184 -0.617037
-0.11527 -0.333022 -0.403967 0.7359 0.562204 0.377331
0.0791339 -0.287494 -0.368079 -0.738604 -0.56065 -0.374346
-0.0751805 -0.369681 -0.464865 -0.252915 0.745186 -0.617035
-0.415605 -0.063038 0.0899719 -0.559809 0.407449 0.721526
-0.106653 -0.365845 -0.371866 0.7359 0.562204 0.377331
-0.434486 -0.174565 -0.0174992 0.7359 0.562204 0.377331
-0.391994 -0.116454 0.118477 0.252914 -0.745184 0.617037
-0.0411272 -0.209894 -0.28585 -0.252914 0.745184 -0.617037
-0.079929 -0.223667 -0.212033 0.620067 0.614415 0.487863
0.0423298 0.323538 0.326214 -0.644744 0.345696 0.681762
-0.0595199 0.317545 0.499624 -0.705066 0.294765 0.644978
-0.252655 0.18529 0.346696 -0.744128 0.257764 0.616304
0.0314628 -0.319456 -0.300254 0.252912 -0.745185 0.617037
-0.257162 0.218249 0.31976 -0.252913 0.745185 -0.617037
-0.517625 -0.122566 0.0723364 -0.446778 -0.655653 -0.608694
-0.364157 0.0966076 0.249158 -0.744128 0.257764 0.616304
-0.131204 0.138671 0.243007 0.62671 -0.359692 -0.691272
-0.123615 0.340188 0.437715 -0.744128 0.257764 0.616304
-0.00463121 -0.287538 -0.443801 -0.252913 0.745185 -0.617037
0.091263 0.318857 0.434969 0.957571 0.283889 -0.0496453
-0.023192 0.233649 0.313478 -0.62671 0.359692 0.691272
-0.161986 -0.186787 -0.185314 -0.620067 -0.614415 -0.487863
-0.286252 0.0536766 0.168632 -0.62671 0.359692 0.691272
-0.322452 -0.0130823 0.165591 0.252913 -0.745185 0.617037
0.0118881 -0.310398 -0.30701 -0.114257 0.610303 0.783885
-0.0783745 0.171889 0.273617 0.62671 -0.359692 -0.691272
-0.399337 -0.18814 -0.106069 -0.7359 -0.562204 -0.377331
0.0753369 -0.402278 -0.418259 0.252914 -0.745185 0.617037
0.023156 0.245453 0.385382 0.252912 -0.745185 0.617037
-0.0957914 0.352016 0.466362 -0.744128 0.257764 0.616304
-0.0448312 -0.386165 -0.48334 -0.458511 -0.653921 -0.601793
-0.383224 -0.105691 -0.00625588 -0.620067 -0.614415 -0.487863
-0.127548 -0.339613 -0.370202 0.7359 0.562204 0.377331
-0.14536 0.29544 0.405535 0.744129 -0.257764 -0.616304
-0.205342 -0.16272 -0.160518 -0.620067 -0.614415 -0.487863
-0.522294 -0.0531084 0.0514975 -0.252911 0.745188 -0.617034
-0.220586 0.0734258 0.21789 -0.62671 0.359692 0.691272
-0.0622697 -0.332892 -0.47495 -0.252912 0.745184 -0.617039
-0.342216 -0.144046 0.0155294 0.252913 -0.745185 0.617037
-0.299076 0.0130618 0.17814 -0.62671 0.359692 0.691272
-0.17805 -0.168809 -0.18011 -0.252913 0.745185 -0.617037
0.0749249 0.367496 0.400853 0.949493 0.313615 -0.0104339
0.0820352 -0.315068 -0.467771 0.889138 -0.0723968 -0.451876
-0.393459 -0.135134 0.096518 0.252914 -0.745185 0.617037
-0.100886 0.172395 0.274913 -0.62671 0.359692 0.691272
-0.523751 -0.0770534 0.102228 -0.519788 0.433252 0.736284
-0.347922 -0.225325 -0.15094 -0.7359 -0.562204 -0.377331
-0.0822201 0.180343 0.2877 -0.62671 0.359692 0.691272
-0.169343 0.163212 0.217628 -0.62671 0.359692 0.691272
-0.427234 -0.0843585 0.0636428 -0.926283 -0.37065 -0.067959
-0.00787936 0.435032 0.437803 0.173984 0.662405 0.728663
-0.409574 -0.130277 0.0597664 0.252913 -0.745185 0.617037
-0.0510329 0.263861 0.438022 0.252913 -0.745184 0.617038
-0.434811 -0.10844 0.0915185 -0.966066 -0.229086 0.119312
-0.0229411 -0.42298 -0.434808 -0.489009 -0.648768 -0.58307
-0.127526 0.287776 0.430273 0.744129 -0.257764 -0.616304
-0.386799 -0.214962 -0.0518409 0.252913 -0.745185 0.617036
-0.290903 -0.267214 -0.199731 -0.7359 -0.562204 -0.377331
-0.406225 -0.0798839 0.0208085 -0.252914 0.745184 -0.617037
-0.120927 0.197115 0.238396 -0.252914 0.745185 -0.617036
-0.0317181 0.380613 0.499863 -0.247904 0.566564 0.785843
-0.44681 -0.189272 0.00378229 0.252913 -0.745185 0.617036
0.071662 0.26882 0.39372 0.252914 -0.745185 0.617037
-0.244803 0.205656 0.347659 -0.744128 0.257764 0.616304
0.0894533 -0.299664 -0.349342 0.252912 -0.745184 0.617038
-0.0683239 -0.339581 -0.480545 -0.252912 0.745184 -0.617039
-0.503778 -0.0602952 0.0935255 0.221238 0.665418 0.712932
-0.0175037 -0.393445 -0.468524 -0.313901 -0.666473 -0.676225
-0.467501 -0.117699 0.121099 0.852563 0.473149 0.221962
0.0434681 0.426112 0.398347 -0.252911 0.745184 -0.617039
-0.0846897 -0.338166 -0.4184 -0.957571 -0.283888 0.0496466
0.0960353 0.334213 0.413482 0.252914 -0.745186 0.617035
0.0413883 0.351845 0.311831 0.737212 -0.264582 -0.621703
-0.110302 0.169804 0.245757 0.62671 -0.359692 -0.691272
-0.0396243 -0.265374 -0.40269 -0.252913 0.745185 -0.617036
0.0532962 0.352203 0.487749 0.530005 0.640274 0.556007
0.0475093 -0.270235 -0.315357 0.620067 0.614415 0.487863
-0.464669 -0.040595 0.185184 -0.744128 0.257764 0.616304
-0.0765441 -0.40238 -0.405351 0.252913 -0.745185 0.617037
0.0457937 0.30236 0.34028 0.635598 -0.352858 -0.686663
-0.261019 0.189271 0.310292 0.744128 -0.257764 -0.616304
0.00489884 0.339131 0.30911 -0.252914 0.745185 -0.617037
-0.0512078 -0.413142 -0.408667 -0.774878 -0.537901 -0.332004
-0.499378 -0.0615601 0.0927978 0.359123 0.664515 0.655325
-0.0339212 -0.430857 -0.414149 -0.644726 -0.605337 -0.466792
-0.197292 0.24174 0.365292 0.744129 -0.257764 -0.616304
-0.041371 -0.348876 -0.313135 -0.705067 0.294763 0.644976
-0.0149475 -0.220998 -0.297985 0.620067 0.614415 0.487863
-0.0690735 -0.285806 -0.415296 -0.252913 0.745185 -0.617037
-0.0682517 0.344392 0.477816 0.696242 -0.30265 -0.650884
-0.38799 0.077926 0.203919 -0.252913 0.745185 -0.617037
0.047667 0.371215 0.471166 0.569694 0.630185 0.527556
-0.340977 -0.207412 -0.150928 0.7359 0.562204 0.377331
-0.282178 0.0417138 0.178551 -0.62671 0.359692 0.691272
-0.225302 0.196003 0.350601 0.744129 -0.257764 -0.616304
-0.425551 -0.0331524 0.0359446 -0.252914 0.745183 -0.617039
0.0841676 -0.297119 -0.344103 0.252915 -0.745185 0.617035
-0.33989 -0.216072 -0.140147 0.7359 0.562204 0.377331
-0.25016 0.188314 0.348443 -0.744128 0.257764 0.616304
-0.0388234 0.255164 0.361961 -0.403456 -0.660905 -0.632794
-0.414677 -0.0795696 0.121534 -0.62671 0.359692 0.691272
-0.274016 0.202274 0.307376 -0.252913 0.745185 -0.617037
-0.158397 -0.187023 -0.189578 -0.620067 -0.614415 -0.487863
-0.0391675 -0.241585 -0.272401 -0.620067 -0.614415 -0.487863
-0.50059 -0.0843793 0.152503 0.252913 -0.745185 0.617037
0.0509149 0.420433 0.388436 -0.252914 0.745185 -0.617036
-0.00287968 -0.236194 -0.382511 -0.252917 0.745184 -0.617036
-0.156431 0.259923 0.407022 0.744129 -0.257764 -0.616304
-0.092136 -0.395578 -0.390746 0.252913 -0.745185 0.617037
-0.0376033 -0.41924 -0.452695 -0.500027 -0.646667 -0.576016
-0.374538 -0.127458 0.0412446 0.620067 0.614415 0.487863
0.0820745 0.357411 0.349383 0.937941 0.0324351 -0.345275
0.0412694 -0.4057 -0.478788 0.23688 -0.570665 -0.786276
-0.0981602 0.322144 0.359046 -0.852562 -0.47315 -0.221964
-0.0434442 0.228035 0.27607 0.62671 -0.359692 -0.691272
-0.486699 -0.0222859 0.126287 0.744128 -0.257764 -0.616304
-0.264178 0.202494 0.303608 -0.252913 0.745185 -0.617037
-0.0780932 0.205832 0.278178 -0.62671 0.359692 0.691272
-0.226634 -0.290851 -0.249609 0.7359 0.562204 0.377331
-0.354218 -0.139562 -0.000464237 -0.620067 -0.614415 -0.487863
-0.109278 0.189583 0.258362 -0.62671 0.359692 0.691272
-0.0199136 -0.321293 -0.478302 -0.252919 0.745185 -0.617035
-0.0604264 -0.213434 -0.280835 -0.620067 -0.614415 -0.487863
-0.121942 0.304713 0.454571 -0.744128 0.257764 0.616304
-0.399407 -0.0575908 0.101974 0.62671 -0.359692 -0.691272
-0.117699 -0.196013 -0.198855 0.620067 0.614415 0.487863
-0.182288 -0.338292 -0.28461 0.252913 -0.745185 0.617037
-0.42049 -0.10312 0.0761666 0.890174 0.429057 0.153297
-0.493439 -0.048192 0.0701224 0.745026 0.556887 0.367169
-0.218082 0.0924844 0.210243 -0.62671 0.359692 0.691272
-0.304174 0.175273 0.288681 -0.744128 0.257764 0.616304
-0.0999372 -0.234936 -0.203537 -0.620067 -0.614415 -0.487863
-0.0247815 0.266771 0.344788 -0.173988 -0.662406 -0.728661
0.0142957 0.398095 0.465325 -0.27205 -0.666814 -0.693792
-0.305633 -0.26952 -0.167567 -0.7359 -0.562204 -0.377331
-0.187681 0.266472 0.391192 -0.744128 0.257764 0.616304
-0.0209777 0.427167 0.426036 -0.252912 0.745185 -0.617037
-0.274536 0.193686 0.316766 -0.744128 0.257764 0.616304
-0.0915303 0.201577 0.246242 0.62671 -0.359692 -0.691272
0.0810709 -0.283469 -0.37882 0.802789 0.517587 0.29603
-0.024057 -0.338085 -0.302973 -0.519787 0.433252 0.736284
-0.486257 -0.0904252 0.056847 0.767532 -0.233735 -0.596877
-0.320889 -0.24462 -0.134666 0.7359 0.562204 0.377331
-0.216358 -0.157775 -0.151083 -0.252913 0.745185 -0.617037
-0.493405 -0.0517687 0.13052 0.744128 -0.257764 -0.616304
-0.00167303 0.367714 0.346324 -0.252913 0.745185 -0.617036
0.048909 -0.271397 -0.3468 -0.620067 -0.614415 -0.487863
-0.218506 0.0719266 0.198587 0.62671 -0.359692 -0.691272
0.0956733 -0.312 -0.465235 -0.252913 0.745186 -0.617036
-0.176426 0.120903 0.233221 -0.62671 0.359692 0.691272
0.0895614 0.371535 0.398331 0.948693 0.31612 -0.00708045
-0.479399 -0.155521 0.0417178 0.7359 0.562204 0.377331
-0.0845168 -0.314564 -0.396076 -0.947081 -0.0603876 0.315264
-0.0351814 -0.402793 -0.373581 0.252914 -0.745187 0.617033
0.00756011 0.306447 0.465437 0.252918 -0.745184 0.617036
-0.113397 -0.215193 -0.180167 0.620067 0.614415 0.487863
-0.0203383 -0.298259 -0.450311 -0.252913 0.745185 -0.617037
0.0277294 0.411634 0.443406 0.489009 0.648768 0.58307
-0.428701 -0.0799862 0.0681239 0.962263 0.259948 -0.0804814
0.0723257 -0.26286 -0.356186 0.620067 0.614415 0.487863
-0.0665456 -0.380316 -0.423189 -0.852562 -0.473149 -0.221963
-0.52981 -0.0803471 0.0984575 -0.705057 0.294772 0.644983
-0.0561794 -0.384376 -0.442537 0.720164 0.57089 0.39427
-0.0855975 0.319693 0.459955 -0.907041 0.0392702 0.419207
-0.422375 -0.081224 0.0258095 -0.252913 0.745185 -0.617037
0.0512199 -0.354616 -0.498481 -0.252912 0.745185 -0.617037
-0.258915 -0.1714 -0.0814964 -0.620067 -0.614415 -0.487863
-0.039027 -0.20921 -0.282225 0.620067 0.614415 0.487863
0.026512 0.382555 0.497351 0.272051 0.666814 0.693792
-0.210435 -0.281195 -0.295587 0.7359 0.562204 0.377331
-0.27759 0.16092 0.326782 -0.744128 0.257764 0.616304
-0.346681 -0.0119912 0.148016 -0.62671 0.359692 0.691272
-0.395767 -0.222156 -0.0623499 -0.7359 -0.562204 -0.377331
-0.151827 -0.341107 -0.360869 -0.7359 -0.562204 -0.377331
-0.265025 0.149451 0.322109 0.744129 -0.257764 -0.616304
-0.240805 -0.172895 -0.102631 -0.620067 -0.614415 -0.487863
-0.266522 0.188062 0.328794 -0.744128 0.257764 0.616304
-0.103976 0.339876 0.410581 -0.962056 -0.126212 0.241907
-0.0242162 0.259402 0.421646 0.252913 -0.745185 0.617037
-0.052212 -0.393207 -0.436956 -0.713352 -0.574471 -0.401387
-0.37122 0.0964101 0.240713 -0.744128 0.257764 0.616304
-0.106922 -0.365154 -0.372372 0.7359 0.562204 0.377331
0.0496223 -0.421129 -0.430486 0.252912 -0.745186 0.617036
0.088235 -0.316467 -0.454159 0.922693 -0.00603819 -0.385489
-0.348393 0.0790001 0.275556 -0.744128 0.257764 0.616304
-0.0726554 0.328305 0.327824 -0.252915 0.745186 -0.617035
-0.336707 0.134557 0.25129 -0.252913 0.745185 -0.617037
-0.0106007 0.258369 0.312031 -0.62671 0.359692 0.691272
-0.0721787 -0.2367 -0.236597 -0.620067 -0.614415 -0.487863
-0.531806 -0.122901 0.118776 0.252915 -0.745181 0.617041
-0.179379 0.248013 0.408937 -0.744128 0.257764 0.616304
-0.415446 -0.118303 0.0766342 0.252915 -0.745186 0.617035
-0.52893 -0.105687 0.107947 -0.889131 0.0724106 0.451889
-0.409144 -0.0439978 0.108041 -0.62671 0.359692 0.691272
-0.151793 0.325471 0.409848 -0.744128 0.257764 0.616304
-0.104821 -0.364684 -0.417415 -0.7359 -0.562204 -0.377331
-0.0399733 -0.280716 -0.421076 -0.252913 0.745185 -0.617036
-0.226992 0.0722702 0.212683 -0.62671 0.359692 0.691272
-0.258503 -0.177894 -0.0738409 -0.620067 -0.614415 -0.487863
0.0188925 0.436293 0.420716 -0.25291 0.745184 -0.617038
-0.0415504 -0.259173 -0.394412 -0.252912 0.745186 -0.617036
-0.156963 -0.310166 -0.356708 0.7359 0.562204 0.377331
0.0302125 -0.264706 -0.300336 0.620067 0.614415 0.487863
