ply
format ascii 1.0
comment Created by Open3D
element vertex 512
property double x
property double y
property double z
property double nx
property double ny
property double nz
end_header
0.243499 -0.302939 0.320262 0.553797 -0.556207 0.619631
0.352032 -0.250894 0.0801828 0.785334 0.49576 -0.370773
0.187327 -0.460842 -0.0635057 0.444324 -0.8877 -0.120687
-0.178748 0.294339 -0.175307 -0.822605 -0.456868 0.338515
0.00624187 0.275138 -0.0118877 0.815117 0.465221 -0.345186
0.0255225 0.0293034 -0.305695 0.790288 0.508502 -0.341864
0.316577 -0.222012 0.32003 0.564457 -0.476818 0.673819
0.0372744 0.0538842 -0.241854 0.817253 0.461382 -0.345288
0.109432 0.122118 0.0217172 0.847967 0.40286 -0.344465
0.318441 -0.270905 -0.0248864 0.8043 0.479161 -0.351435
-0.27836 0.156993 -0.387074 -0.456873 0.281421 -0.843842
0.159202 -0.193945 -0.295636 0.789142 0.496686 -0.361328
0.127845 -0.0830367 0.395234 -0.421005 0.0766221 -0.903816
-0.12528 0.287021 0.282743 0.157206 -0.793393 -0.58806
0.211343 0.0264774 0.132451 0.821355 0.459742 -0.337659
0.050418 0.337453 0.172239 0.799075 0.512974 -0.313587
0.0493471 0.0584045 0.0372312 -0.855967 -0.425399 0.293862
-0.373968 0.16322 -0.261144 -0.917016 -0.301093 0.261581
-0.0295209 0.132298 -0.294685 0.837742 0.440881 -0.3222
-0.0375353 0.0564731 -0.41729 0.826141 0.448476 -0.341116
-0.0580043 0.296377 0.111204 -0.771782 -0.521381 0.364026
-0.0753491 0.2871 0.0557525 -0.811893 -0.470975 0.344982
-0.231356 0.332226 0.119838 0.40916 -0.889782 -0.202179
0.0775634 -0.281945 -0.296158 -0.1471 0.772189 0.618131
-0.00603943 0.124492 0.407397 -0.159335 -0.401106 -0.902068
0.204006 -0.0480476 0.359182 -0.428408 0.159817 -0.88934
0.199741 0.0313003 0.456813 0.369105 0.0460181 0.928248
0.0182349 0.220348 0.182472 -0.82166 -0.448852 0.351293
0.144613 -0.137273 -0.00718346 -0.777495 -0.566032 0.274059
-0.0613081 -0.321134 -0.276811 -0.0574781 0.643237 0.763507
0.051038 0.225966 0.0254552 0.849021 0.419011 -0.321857
0.161001 -0.0601099 -0.104356 0.833529 0.429282 -0.347773
0.242129 -0.0205757 0.438676 0.459694 -0.0937678 0.883113
-0.346354 0.239348 -0.118663 0.605493 -0.718672 0.34189
0.23236 -0.397081 -0.213469 0.347442 -0.86627 -0.35897
-0.102821 0.488892 0.106438 -0.129654 0.960495 0.246249
0.181197 -0.141892 0.0743908 -0.81888 -0.442685 0.365329
0.256015 -0.1865 0.185564 -0.780284 -0.505722 0.36797
0.141939 0.131312 0.105879 0.808265 0.4805 -0.340333
-0.0242154 0.248063 0.122381 -0.800773 -0.483713 0.353248
0.174375 0.114977 0.165631 0.799886 0.490656 -0.345601
0.00254933 0.0266436 0.446355 -0.821156 -0.459942 0.33787
-0.112362 0.059122 -0.342645 -0.814798 -0.466369 0.344389
0.0457705 -0.199 -0.465804 0.0921254 -0.434885 -0.895761
-0.273496 0.30535 0.145796 0.365781 -0.921349 -0.131608
-0.0975712 -0.29208 -0.401211 -0.116308 -0.466284 -0.876956
0.170008 -0.267429 0.284301 -0.59874 0.534405 -0.596592
-0.0333293 -0.220141 -0.351535 0.0270174 0.588898 0.807756
-0.233654 -0.0790518 -0.352241 0.289086 0.103243 0.951719
-0.129624 -0.203377 -0.349202 0.147373 0.409024 0.900544
0.132781 -0.39067 -0.281823 0.241448 -0.723058 -0.647217
0.0806223 0.171167 0.261384 -0.822504 -0.452381 0.34473
-0.241413 0.280625 -0.189993 0.57472 -0.669142 0.471111
-0.156744 -0.249604 -0.324138 0.167506 0.431532 0.886409
0.246159 -0.329434 0.0684559 -0.602642 0.779997 -0.168606
0.228229 -0.221178 -0.16574 0.758585 0.543028 -0.360098
0.366321 -0.146145 0.321124 0.858511 -0.147807 0.491031
0.203173 0.138665 0.267167 0.821445 0.455372 -0.343314
-0.194319 0.319295 0.338659 -0.677539 0.242614 0.694319
0.172051 0.19322 0.264346 0.766978 0.519379 -0.376815
0.0428439 -0.352693 -0.351036 0.111762 -0.708337 -0.696971
-0.366724 0.201123 -0.183655 -0.806391 -0.482003 0.342648
0.0655946 -0.0746643 0.423506 -0.317521 0.0386142 -0.947465
-0.0565664 0.104056 -0.152744 -0.81405 -0.467233 0.344987
0.0240288 -0.445609 -0.153507 -0.823618 -0.456632 0.336363
0.0851349 0.183596 0.458459 0.131571 0.43354 0.891478
-0.31014 0.38525 0.119261 -0.699618 0.650239 0.296182
0.259627 -0.355739 -0.239085 0.813071 -0.241797 -0.529575
0.192852 -0.363792 0.0865454 -0.544209 0.827402 -0.138719
0.242094 -0.429476 -0.0871519 0.447849 -0.872107 -0.19713
0.355027 -0.366316 0.0194667 0.7605 -0.647593 -0.0475821
-0.0235724 0.18419 0.379228 -0.0687057 -0.504689 -0.860563
0.27068 -0.234988 0.153494 -0.831857 -0.444864 0.331829
-0.0476456 -0.0978077 -0.403821 0.214219 0.315664 0.924374
0.0227571 -0.211751 -0.361422 0.0408086 0.544326 0.83788
0.221577 -0.440316 0.101991 0.517012 -0.83993 0.164971
0.194757 -0.307977 0.211087 -0.54455 0.661926 -0.515091
-0.0229518 0.288308 0.181213 -0.783395 -0.489067 0.383543
0.143132 -0.152234 0.369647 -0.527273 0.289138 -0.798989
0.141863 0.0751376 0.0346973 0.868326 0.383958 -0.313984
0.138371 0.00324608 -0.0696657 0.845092 0.433301 -0.313162
-0.0289838 0.323682 0.379895 -0.0714292 0.658865 0.748862
-0.13938 0.274963 -0.117961 -0.812934 -0.467929 0.346672
0.0758593 0.280587 0.155479 0.783538 0.516031 -0.346092
-0.0130907 -0.411733 -0.194673 -0.818052 -0.463415 0.340644
0.206658 -0.357271 0.298725 0.412701 -0.658309 0.629529
-0.314921 0.330025 0.107779 -0.781321 -0.483411 0.39478
0.199939 -0.355202 -0.0863187 -0.388144 0.908502 0.154819
0.103185 0.0885751 -0.0377098 0.809757 0.474926 -0.344586
0.257413 -0.100374 0.316493 -0.542491 0.34363 -0.766565
0.12698 -0.0978446 0.483939 0.115849 -0.179694 0.976877
0.0432083 0.150663 0.389146 -0.0847696 -0.483848 -0.871037
0.117773 0.278294 0.25434 0.801809 0.490515 -0.341316
0.080266 0.0999226 0.397281 -0.225334 -0.283836 -0.93202
0.111771 0.179305 0.349494 -0.870159 -0.38125 0.312206
0.0902374 -0.0533607 -0.0244464 -0.793964 -0.502082 0.342833
-0.109613 0.13479 -0.232219 -0.763604 -0.52104 0.381348
0.24245 0.0484546 0.238494 0.830999 0.434816 -0.346952
0.22991 -0.398908 0.206763 0.598725 -0.714211 0.362534
-0.0524838 -0.387463 -0.250581 -0.791668 -0.508338 0.338901
-0.0291612 0.211907 -0.177306 0.805212 0.482418 -0.344828
0.118671 -0.18568 0.427877 -0.743709 -0.50459 0.438504
0.04109 0.121563 0.48956 0.188941 0.36664 0.910976
0.0836606 -0.153142 -0.175635 -0.759692 -0.546862 0.351867
0.0196337 -0.145697 -0.314032 -0.821513 -0.459533 0.337558
-0.0863896 0.357356 -0.119193 0.759797 0.507226 -0.406732
0.220594 -0.262673 0.00156484 -0.812776 -0.469649 0.34471
0.122449 -0.18458 -0.365471 0.77299 0.495883 -0.395711
0.277346 -0.242399 -0.0844084 0.813552 0.469168 -0.343532
-0.148312 0.454557 0.152225 -0.366821 0.875933 0.313343
-0.00955948 0.0705216 -0.0811187 -0.797887 -0.496328 0.342104
0.167773 -0.23794 -0.327884 0.81741 0.45746 -0.350101
-0.269079 0.239048 -0.346709 -0.585498 0.474154 -0.657549
-0.00587058 -0.069435 -0.493507 0.601644 0.158912 -0.782797
0.0416023 -0.135331 -0.242922 -0.805365 -0.483371 0.343132
-0.0873369 0.148883 -0.397993 0.854156 0.398898 -0.333613
0.167492 0.0331397 0.276556 -0.762326 -0.519259 0.386301
0.0734714 0.100104 0.15006 -0.819863 -0.460341 0.340457
-0.195053 0.00313698 -0.460195 -0.421116 0.0777919 -0.903665
-0.214132 0.18616 -0.414826 -0.569497 0.310689 -0.761016
0.285413 0.0564521 0.416473 0.678339 0.201586 0.706555
0.140716 -0.0319511 0.127563 -0.848594 -0.422691 0.318153
-0.335926 0.369982 -0.0713017 -0.547816 0.812387 -0.199811
0.051246 0.0502431 0.41618 -0.256551 -0.220105 -0.941135
-0.00213139 -0.00922056 -0.419157 0.811956 0.470887 -0.344953
-0.173039 0.39426 -0.250453 0.28881 0.810925 -0.508911
-0.142284 0.371076 0.306728 -0.21873 0.815128 0.536399
-0.364326 0.109523 -0.317398 -0.964902 -0.260923 -0.0297204
0.199981 -0.195214 0.422388 0.428789 -0.310846 0.848242
-0.211078 0.43748 0.119359 -0.412088 0.884946 0.216918
0.360014 -0.211658 0.156221 0.807182 0.477418 -0.347173
0.129637 -0.0774787 0.0394678 -0.754612 -0.546345 0.363412
-0.246942 0.355577 0.262657 -0.770819 0.350351 0.532064
0.154997 0.17191 0.200867 0.757261 0.533407 -0.376872
-0.169891 0.329377 -0.10653 -0.822598 -0.458268 0.336634
0.316469 0.0110053 0.355861 0.817911 0.459496 -0.346243
-0.0689465 0.48247 0.146253 0.0154763 0.985898 0.166628
-0.0560277 0.453346 0.0849348 0.813945 0.469182 -0.342581
0.130989 -0.039579 -0.147974 0.78698 0.524728 -0.324536
-0.0941639 0.477085 0.032904 0.709547 0.646267 -0.280859
0.28031 0.00990524 0.270456 0.830456 0.436611 -0.345998
-0.123349 0.298755 -0.0451351 -0.792227 -0.497064 0.353983
-0.0051599 0.416191 0.290219 -0.170827 0.746132 0.643511
-0.0323883 -0.00692438 -0.246336 -0.769743 -0.510919 0.382698
0.0954256 0.237082 0.431807 0.0621344 0.498499 0.864661
-0.112231 0.222139 -0.123697 -0.783735 -0.515247 0.346814
0.177835 -0.122508 -0.152919 0.80976 0.472802 -0.347487
0.370001 -0.31079 0.0520839 0.928728 0.243971 -0.279183
-0.0826504 0.106034 -0.452148 0.814855 0.468292 -0.341635
0.0636855 -0.0288778 -0.287452 0.823115 0.459127 -0.334192
0.0501211 0.313799 0.390019 0.00337926 0.584158 0.811633
0.0856605 0.00936721 -0.000900779 -0.802352 -0.490639 0.33986
0.188939 -0.345521 0.144623 -0.524531 0.788814 -0.320376
0.0630719 -0.185952 -0.271825 -0.769427 -0.527694 0.359891
0.108411 0.0942476 0.226533 -0.800406 -0.485771 0.351251
0.073006 0.239713 0.336134 -0.771037 -0.517732 0.370749
-0.137593 -0.06906 -0.387793 0.28697 0.17809 0.94124
0.201618 0.0253832 0.349022 -0.789174 -0.485184 0.376565
0.128753 -0.31716 -0.239479 -0.253453 0.766067 0.59068
0.070352 -0.0468087 0.486538 -0.56053 -0.399327 0.725496
-0.00314825 0.0858952 0.491631 -0.545167 -0.241697 0.80273
0.131131 -0.350324 0.233456 -0.591962 0.678923 -0.434333
0.0755094 0.140971 0.208274 -0.780614 -0.525145 0.338915
0.20001 -0.362735 -0.294915 0.249433 -0.814417 -0.523935
-0.0750912 0.191464 -0.0802939 -0.758042 -0.551473 0.34821
-0.00378713 0.396917 0.132671 0.791738 0.49462 -0.358471
0.158759 0.137053 0.454514 0.277529 0.233207 0.931983
-0.00835536 -0.0751806 -0.283172 -0.797003 -0.508688 0.325611
-0.118851 0.102878 -0.300973 -0.788813 -0.505311 0.349907
0.013734 0.0864308 -0.0158159 -0.808499 -0.483061 0.336128
-0.137947 0.357991 0.164029 0.347462 -0.812845 -0.467496
-0.0269308 -0.087003 -0.34253 -0.804132 -0.487707 0.339874
0.239956 0.0168251 0.18304 0.828505 0.450876 -0.332099
0.160757 -0.0348436 0.473423 0.410587 -0.0278048 0.911398
-0.247575 -0.048956 -0.43757 -0.363064 -0.0754808 -0.928702
0.038525 0.14355 -0.115395 0.803507 0.487651 -0.341428
-0.0608662 0.178574 0.469568 -0.49595 0.0405393 0.867404
-0.240965 0.190783 -0.281868 0.57094 -0.473242 0.670872
-0.0471915 0.193753 -0.011001 -0.792159 -0.501045 0.348479
0.0148595 -0.36626 -0.213104 -0.192032 0.774071 0.603273
-0.317584 0.240646 -0.302416 -0.628956 0.487324 -0.605746
0.0865121 0.354374 0.355336 0.306414 0.793201 0.526254
-0.140847 0.177137 -0.453305 0.232102 0.466166 -0.853708
0.135565 -0.180103 -0.0849443 -0.825199 -0.45472 0.335076
0.282407 0.0625741 0.346827 0.752996 0.578849 -0.312938
-0.0397151 -0.276392 -0.314248 0.0653747 0.514682 0.854885
0.0034885 0.172576 0.477048 0.145598 0.409995 0.900392
-0.188857 0.118998 -0.451929 -0.492164 0.183135 -0.851021
0.0372084 -0.0216896 -0.347679 0.810539 0.473263 -0.345035
0.0491436 0.0397581 -0.0424804 -0.847965 -0.422478 0.320107
0.16343 0.0856462 0.34279 -0.822203 -0.457008 0.339303
-0.297111 0.0365504 -0.312852 0.481774 -0.236293 0.843836
0.00148682 0.0127038 -0.138721 -0.792199 -0.497495 0.353438
0.254909 -0.239323 0.359058 0.559368 -0.440254 0.702342
-0.278585 0.300198 -0.0913988 0.59792 -0.76176 0.249425
0.0451339 0.228101 0.261672 -0.845122 -0.425368 0.323776
-0.00940691 -0.224513 -0.44953 -0.0914743 -0.477697 -0.873749
-0.0709115 0.255234 -0.216038 0.839977 0.421941 -0.341181
0.299064 -0.213787 0.0082694 0.851937 0.418466 -0.314786
0.203914 -0.287476 -0.0767683 -0.827242 -0.448076 0.338966
0.233328 -0.0630769 0.0602587 0.795929 0.498535 -0.343454
0.111463 -0.416752 0.100848 -0.833989 -0.423656 0.353522
0.135463 -0.383002 0.152245 -0.520789 0.760919 -0.387016
0.0465871 -0.428044 -0.0822097 -0.356428 0.89524 0.267402
-0.3137 0.395371 0.0403191 -0.517238 0.849038 0.1077
-0.0670846 0.458383 0.208224 -0.276392 0.833353 0.478676
0.0417556 0.0859624 -0.190011 0.829477 0.456571 -0.321731
0.116208 0.29395 0.399354 0.0882677 0.565334 0.820126
-0.172587 0.40465 0.242323 -0.293085 0.849475 0.43874
0.120156 0.119221 0.287292 -0.822035 -0.458516 0.33767
0.252842 -0.121522 0.0249611 0.825001 0.453334 -0.337435
-0.0162546 0.442545 0.165924 0.813368 0.469471 -0.343554
0.175935 -0.00647315 0.00265106 0.797359 0.483144 -0.36165
-0.0670893 0.36215 -0.0641892 0.853211 0.410597 -0.321624
0.0155173 0.137568 -0.175145 0.84268 0.432352 -0.320877
-0.16524 0.384373 -0.0205972 -0.785528 -0.498091 0.367222
0.134296 -0.238364 -0.170304 -0.841265 -0.410112 0.352252
-0.326633 0.118255 -0.367825 -0.556762 0.304114 -0.773001
0.202488 -0.254626 -0.274951 0.780841 0.500329 -0.374111
-0.210801 0.0328066 -0.359255 0.476326 -0.098263 0.873761
0.10981 0.190115 0.116237 0.813894 0.468665 -0.34341
0.00155529 -0.32562 -0.26925 -0.108875 0.718055 0.687418
0.316441 -0.0785563 0.237109 0.812646 0.470477 -0.343887
-0.0658272 0.408468 0.00405499 0.842741 0.458626 -0.281868
0.278071 -0.0747966 0.410156 0.41439 -0.194903 0.888984
-0.144843 -0.149695 -0.455805 -0.167006 -0.340564 -0.92527
0.114495 0.00923154 -0.118223 0.804987 0.479248 -0.349738
-0.123873 0.419738 -0.117659 0.78797 0.49879 -0.360987
0.233797 -0.217996 0.0849515 -0.811501 -0.471735 0.344865
-0.073267 0.0822753 -0.218375 -0.827245 -0.451934 0.3338
-0.0908882 0.290843 0.405003 -0.0510691 0.656194 0.752863
-0.128739 0.294601 -0.302583 0.765689 0.491178 -0.415287
0.235198 -0.440963 0.0316637 0.532781 -0.845865 0.0256177
0.123657 -0.385411 -0.103861 -0.349593 0.905949 0.238832
0.106483 -0.20444 -0.427943 0.727555 0.397465 -0.559183
0.077848 -0.267843 -0.424828 0.0734152 -0.572149 -0.816857
0.158103 -0.301625 0.353452 -0.578741 -0.598482 0.553966
0.264462 -0.394856 0.151927 0.583538 -0.769094 0.260726
-0.367149 0.290253 -0.19987 -0.583217 0.672413 -0.455762
0.163761 -0.249958 -0.113278 -0.807692 -0.472906 0.352127
-0.19076 0.262511 0.307704 -0.833518 -0.454088 0.314725
-0.217323 0.316372 0.190338 0.312274 -0.893163 -0.323643
0.122812 0.314172 0.316496 0.774214 0.522837 -0.356699
0.33305 -0.357045 -0.0923585 0.943656 -0.0525149 -0.326736
0.136496 -0.403445 0.0403596 -0.576471 0.816701 0.0260885
-0.0836648 0.0574196 -0.276427 -0.764931 -0.526749 0.370696
-0.0313639 0.255485 -0.121597 0.785134 0.510727 -0.350319
0.193609 -0.437946 0.177946 0.323662 -0.867791 0.37707
0.0920709 0.0172035 0.410214 -0.326742 -0.123593 -0.936997
-0.0657133 -0.344213 -0.368024 0.026042 -0.622518 -0.782172
0.0809456 -0.316478 -0.381598 0.084009 -0.680922 -0.727521
0.295713 -0.382572 -0.16314 0.760964 -0.514077 -0.395802
-0.132119 0.337082 0.354266 -0.135787 0.736942 0.662177
0.195913 -0.12671 0.126648 -0.842894 -0.440812 0.308568
-0.126266 0.432179 0.217338 -0.254507 0.881043 0.398734
-0.110955 0.353708 -0.177247 0.817158 0.470338 -0.33322
0.254678 -0.275463 0.0609464 -0.823005 -0.446871 0.350669
-0.303898 0.363484 -0.154987 -0.580691 0.754807 -0.305065
0.140319 -0.320614 0.29293 -0.83479 -0.440312 0.330532
0.00351408 0.230859 0.348121 -0.11217 -0.549935 -0.827641
0.175606 -0.044824 -0.0492363 0.851156 0.422079 -0.312062
0.301045 -0.38525 0.100995 0.588754 -0.781122 0.207886
0.3024 -0.123302 0.140217 0.824371 0.456276 -0.335
0.24099 -0.434486 -0.0249728 0.489861 -0.870094 -0.0545153
0.277104 -0.359654 0.208886 0.608327 -0.693702 0.385637
0.00366471 0.0815135 -0.281682 0.858357 0.381983 -0.342509
-0.0864047 -0.138454 -0.38196 0.160854 0.334948 0.928405
-0.284581 0.386022 0.170637 -0.601396 0.674298 0.428539
0.103752 -0.431013 -0.227626 0.240162 -0.864012 -0.442499
0.206817 0.0997122 0.217684 0.806423 0.478065 -0.348047
-0.180404 0.178817 -0.333699 0.547393 -0.371964 0.749669
-0.0286103 0.294401 -0.062894 0.823224 0.448519 -0.348042
-0.105199 0.3051 -0.230509 0.779803 0.535896 -0.323608
0.150756 -0.256054 0.393021 -0.449991 -0.646029 0.616566
0.18444 -0.193876 -0.233081 0.784751 0.51241 -0.348715
0.017231 0.413657 0.203882 0.827719 0.429679 -0.360912
-0.134646 0.100325 -0.481649 -0.344631 0.167161 -0.923735
-0.21213 0.444172 -0.128162 -0.576379 0.798952 -0.171649
-0.112815 0.20829 -0.390048 0.837629 0.433042 -0.332946
0.220041 -0.232975 0.268258 -0.556069 0.51874 -0.649381
-0.0113994 0.161523 0.0326091 -0.839518 -0.426335 0.336819
0.0967589 0.00434704 0.0755099 -0.786902 -0.502406 0.358293
0.191247 -0.427581 -0.180569 0.359942 -0.856032 -0.371013
0.111673 -0.49144 -0.0782475 0.0768346 -0.994967 -0.0643171
-0.00653435 0.350927 0.0636018 0.81318 0.468902 -0.344774
0.198293 -0.211217 0.020569 -0.805005 -0.477692 0.35182
0.087509 -0.142154 -0.391715 0.82034 0.451958 -0.350395
-0.166361 0.364799 0.114174 0.393944 -0.879911 -0.265638
0.27181 -0.298339 0.111962 -0.581423 0.756528 -0.299352
-0.309762 0.302508 0.0494599 0.518922 -0.854815 -0.00343269
-0.351024 0.272381 -0.0531223 -0.839887 -0.416316 0.34824
-0.358332 0.326253 0.00514759 -0.824142 -0.418014 0.382172
0.0728014 0.231436 0.0847631 0.849446 0.432428 -0.302404
-0.295314 -0.00412792 -0.415695 -0.412041 0.0629301 -0.90899
0.163277 -0.286634 -0.167377 -0.822299 -0.448073 0.350793
0.227697 -0.173351 -0.102775 0.836234 0.422297 -0.349825
0.107211 0.237991 0.175504 0.831509 0.450783 -0.324635
0.280116 -0.12502 0.0897156 0.830753 0.441942 -0.338433
0.199997 -0.0766701 0.204373 -0.809938 -0.473691 0.345857
-0.113373 -0.296705 -0.298765 0.0319969 0.567988 0.822414
-0.164124 0.202422 -0.274435 -0.752736 -0.554186 0.355341
0.121611 -0.462718 0.057964 -0.744798 -0.553343 0.372944
0.181427 -0.308088 -0.356791 0.665728 -0.209189 -0.716272
-0.116704 0.221484 0.422922 -0.84531 -0.163237 0.508729
0.19227 -0.444545 -0.125768 0.393688 -0.87819 -0.271646
-0.177779 0.114537 -0.360744 0.460965 -0.234385 0.855906
-0.0882272 0.36327 0.127483 -0.805058 -0.484391 0.342415
-0.0959801 0.0507932 -0.496752 0.0580974 0.272735 -0.960333
0.130382 0.0717226 0.47909 0.332496 0.129233 0.934208
-0.100656 0.430302 -0.0539466 0.873249 0.388675 -0.293884
-0.279559 0.333716 0.202137 -0.862894 -0.340885 0.373112
-0.045739 -0.0220004 -0.303224 -0.825084 -0.458281 0.330476
-0.0876892 0.238208 -0.044087 -0.815975 -0.462974 0.346179
-0.338551 0.0430542 -0.365269 -0.940643 -0.255324 -0.223606
0.251553 -0.313855 0.00260064 -0.759707 -0.512268 0.400533
0.00601271 0.189416 -0.133779 0.825873 0.452916 -0.335859
-0.251631 0.139227 -0.30237 0.537283 -0.362451 0.761548
-0.297842 0.403499 -0.0189522 -0.532809 0.845862 -0.0251201
-0.353337 0.331049 -0.144786 -0.509227 0.761145 -0.401678
0.187975 -0.343623 -0.148382 -0.376022 0.89757 0.230166
0.233431 0.0965656 0.437561 0.299822 0.127022 0.945501
-0.234854 0.37157 -0.245388 -0.563823 0.678314 -0.471162
-0.0817726 -0.00633376 -0.35833 -0.764907 -0.518826 0.381755
-0.183314 0.317637 -0.3475 -0.0521188 0.734446 -0.676663
-0.223681 0.327237 -0.130532 0.588104 -0.775311 0.230274
0.347929 -0.328309 -0.0354617 0.791884 0.485621 -0.370259
-0.116072 0.336222 0.0232416 -0.805089 -0.479544 0.349098
0.0101948 -0.393424 -0.31456 0.14761 -0.704865 -0.693813
0.175652 -0.398909 0.248123 -0.266814 -0.80585 0.528598
0.259272 -0.188869 -0.0451894 0.847435 0.426324 -0.316389
0.0235802 0.266503 0.423193 0.037247 0.545069 0.837563
-0.309534 -0.0187222 -0.351111 -0.782577 -0.544505 0.301806
0.248659 -0.411093 -0.149387 0.403942 -0.869697 -0.283653
-0.0113902 -0.435114 -0.261913 -0.376107 -0.884854 -0.274914
0.0511678 0.393056 0.253945 0.81263 0.469968 -0.344619
-0.121956 -0.0137091 -0.400473 0.339626 0.117865 0.933146
-0.292583 0.338673 -0.220704 -0.614273 0.67957 -0.401064
0.355649 -0.128419 0.253896 0.794267 0.490597 -0.358405
0.0455098 -0.0729821 -0.389811 0.852931 0.407649 -0.326084
-0.041334 0.314757 0.267277 0.155145 -0.715855 -0.680795
-0.076752 0.420949 0.260983 -0.213663 0.841555 0.496118
0.167044 -0.408438 -0.234142 0.26584 -0.870723 -0.413728
0.0875983 -0.131237 0.425219 -0.832529 -0.45868 0.310656
-0.226129 -0.151499 -0.342561 0.241192 0.220258 0.945152
0.304474 -0.293718 -0.0846688 0.806556 0.477638 -0.348323
0.235414 -0.303309 0.16204 -0.546542 0.721123 -0.425762
0.337981 -0.145363 0.193895 0.82285 0.456242 -0.338765
0.14087 0.0367399 0.221184 -0.823758 -0.457419 0.334948
-0.0780226 0.142011 0.4084 -0.0999779 -0.478431 -0.872415
0.237732 0.106677 0.303626 0.845268 0.427623 -0.320407
-0.201593 0.459052 -0.00102308 -0.530738 0.84512 0.0639487
-0.265468 0.326315 0.00246874 0.520859 -0.852625 0.0416623
0.0342218 -0.455835 -0.22472 -0.0203679 -0.916886 -0.398629
-0.125119 0.234787 0.33616 0.0879906 -0.692253 -0.716271
-0.26471 0.319727 -0.279307 -0.607697 0.614025 -0.503664
0.252157 -0.169977 0.28527 -0.57902 0.438998 -0.687034
0.131827 -0.24284 0.331764 -0.47694 0.472245 -0.741291
0.0477451 -0.0169821 -0.0709017 -0.80309 -0.48986 0.33924
0.217055 -0.11937 -0.0486601 0.79334 0.505918 -0.338612
-0.342822 0.114118 -0.252032 0.590304 -0.451116 0.669354
-0.144004 0.416829 -0.174277 0.825399 0.443756 -0.348993
-0.0936771 -0.225505 -0.439317 -0.201365 -0.365959 -0.908585
0.0777823 0.176451 0.0163511 0.802012 0.490656 -0.340638
-0.0713778 0.373208 0.328304 -0.125352 0.746006 0.654035
0.199664 -0.0874879 0.452316 0.496087 -0.155377 0.854258
-0.267164 0.407693 -0.117795 -0.581161 0.78288 -0.22215
0.116888 0.00934693 0.492004 0.313965 0.0787515 0.946163
-0.244748 0.388262 0.212697 -0.357197 0.853367 0.379705
-0.165899 0.315703 0.223648 0.27577 -0.834842 -0.476434
0.0701769 -0.0959422 -0.125194 -0.821416 -0.453646 0.345659
0.272291 -0.306364 -0.179084 0.753974 0.566398 -0.33274
-0.0617238 -0.180895 -0.46358 -0.186194 -0.294273 -0.937409
-0.304833 0.223203 -0.19061 0.631998 -0.580405 0.513526
0.0946955 -0.202903 -0.217662 -0.805394 -0.481191 0.346114
0.383075 -0.276341 0.124061 0.942582 0.238609 -0.233679
0.345052 -0.0708417 0.361319 0.868362 0.0289805 0.495084
-0.077365 -0.377907 -0.315649 -0.660284 -0.737085 -0.143978
-0.166495 0.24306 -0.221862 -0.733525 -0.549978 0.399332
-0.0608792 0.234093 0.343604 0.054607 -0.559602 -0.82696
0.299152 -0.403918 0.0040207 0.467854 -0.875262 0.122593
-0.120743 -0.0837956 -0.479424 -0.236614 -0.230567 -0.94385
0.17086 -0.464614 0.117122 0.0309096 -0.952876 0.30178
0.208184 -0.136642 0.333187 -0.56024 0.330625 -0.759485
0.217835 -0.356314 -0.013585 -0.489932 0.866022 0.0998645
-0.310239 0.167774 -0.238871 0.57043 -0.512567 0.641783
0.18215 0.221724 0.321046 0.801043 0.484077 -0.352134
0.163392 -0.0248146 0.190292 -0.789379 -0.49308 0.365722
-0.310889 0.296767 -0.0153014 0.532039 -0.82237 0.201598
-0.10617 0.324939 0.238027 0.189562 -0.83117 -0.522706
0.318735 -0.346067 0.172144 0.63651 -0.721365 0.272922
-0.00475615 0.0363126 -0.361052 0.802304 0.495464 -0.332903
-0.377523 0.248013 -0.241768 -0.743583 0.464229 -0.481223
0.386049 -0.215467 0.219508 0.978405 0.206235 -0.0138341
0.184877 -0.469284 0.0125578 0.469717 -0.882731 -0.0123658
-0.0340523 0.136614 -0.0539448 -0.838872 -0.411865 0.355895
0.0830162 0.337307 0.252968 0.849684 0.396463 -0.347641
0.0370138 0.306477 0.105671 0.787217 0.510478 -0.345979
0.144652 -0.265029 -0.400564 0.735516 -0.123091 -0.666232
-0.0176213 0.451392 0.229985 0.239166 0.925887 0.29246
-0.254799 0.429698 0.0160226 -0.554474 0.829001 0.0729039
-0.0195397 -0.161465 -0.384222 0.141553 0.409597 0.901218
-0.381445 0.298816 -0.106589 -0.982997 -0.0229449 0.182183
0.273065 -0.0638137 0.153781 0.746568 0.508629 -0.428874
0.144843 0.19702 0.439733 0.202975 0.25749 0.944722
0.023448 0.284916 0.0468585 0.807133 0.476212 -0.34894
-0.0337428 0.0971673 -0.348274 0.752709 0.538155 -0.379233
-0.217898 -0.14757 -0.437224 -0.336596 -0.193594 -0.921534
-0.146453 -0.299462 -0.374812 -0.697248 -0.669075 -0.257264
0.177333 -0.19543 0.327991 -0.563068 0.382776 -0.732418
-0.0667283 0.160731 -0.339749 0.813263 0.455695 -0.361865
-0.133521 0.384856 0.0464089 -0.833423 -0.439302 0.335293
-0.064012 0.241773 0.443456 0.0364057 0.546129 0.83691
0.0146848 -0.265465 -0.321476 -0.0613832 0.668699 0.740995
0.121759 -0.363878 -0.161851 -0.311636 0.877158 0.365344
0.280012 -0.133523 0.393753 0.492363 -0.290194 0.820589
0.201868 0.221672 0.377827 0.826066 0.492142 -0.27461
0.0365862 -0.0727044 -0.177212 -0.822101 -0.452184 0.345947
0.00731269 0.269337 0.226407 -0.79486 -0.494383 0.351829
-0.0964458 -0.0190782 -0.49691 -0.374103 -0.0291317 -0.92693
-0.0445941 0.11494 0.456128 -0.763758 -0.518615 0.384334
0.00503974 -0.0536335 -0.226449 -0.838082 -0.392434 0.378964
-0.0515105 0.199711 -0.250329 0.800223 0.492552 -0.342105
0.0439014 0.172684 -0.0622714 0.801228 0.481136 -0.355727
-0.239443 0.0531824 -0.436288 -0.445078 0.12135 -0.887232
0.267955 0.114937 0.387126 0.843542 0.501931 -0.191055
-0.0219054 0.204905 0.0673199 -0.843851 -0.376183 0.382624
-0.0674525 -0.116123 -0.485514 -0.218988 -0.28854 -0.932089
0.27829 -0.024201 0.218817 0.775698 0.520241 -0.357271
0.140657 -0.135481 -0.259468 0.790951 0.530667 -0.304611
-0.155899 0.475456 0.0633116 -0.363716 0.924332 0.115416
-0.125799 0.252239 -0.354085 0.813442 0.469513 -0.343321
0.150939 0.252714 0.414534 0.115938 0.426956 0.896809
0.121462 -0.487624 -0.01327 -0.187012 -0.972118 0.141469
0.101387 -0.108188 -0.0673491 -0.761332 -0.504892 0.406765
0.0334337 -0.027205 0.441848 -0.773327 -0.50005 0.389764
0.156254 -0.0283372 0.3846 -0.360186 0.0770697 -0.929692
0.251947 -0.252653 0.215221 -0.553093 0.616095 -0.560816
-0.198187 0.366977 0.287427 -0.255598 0.853377 0.454332
-0.220609 0.288496 0.237768 0.275548 -0.830127 -0.484729
-0.26751 -0.110766 -0.406117 -0.844521 -0.477691 -0.242066
-0.0101744 -0.322144 -0.37764 0.0186593 -0.591732 -0.805919
-0.193022 0.368815 0.0379016 0.484209 -0.867248 -0.115853
0.231459 -0.264801 -0.222544 0.85069 0.422729 -0.312452
-0.194075 -0.207369 -0.339216 -0.799695 -0.484272 0.35492
-0.14157 -0.254094 -0.41587 -0.141509 -0.414633 -0.898919
0.219547 -0.0573259 0.281932 -0.827523 -0.442882 0.345052
0.104322 -0.0694185 -0.254998 0.837871 0.43301 -0.332378
0.352059 -0.263005 0.250228 0.604383 -0.569424 0.557205
-0.189032 -0.0358518 -0.372121 0.333138 0.0384855 0.942092
0.024755 0.223218 -0.0458453 0.785232 0.494932 -0.372093
0.227235 -0.304795 -0.283052 0.828838 0.45113 -0.330921
0.0745306 0.0820733 -0.118352 0.811889 0.47101 -0.344943
-0.253921 0.0769943 -0.326905 0.525953 -0.24264 0.815168
0.177228 -0.21683 -0.0378119 -0.800623 -0.483424 0.353984
0.104442 0.0462095 0.14997 -0.760237 -0.53129 0.373861
0.129334 0.0668734 0.392408 -0.269131 -0.204752 -0.941087
0.113324 -0.263496 -0.251845 -0.812196 -0.469266 0.346592
-0.277831 0.098526 -0.405497 -0.50424 0.258139 -0.824079
0.141103 -0.358246 -0.325071 0.24104 -0.743408 -0.623894
0.00506141 0.282011 0.308748 0.111573 -0.693171 -0.712085
-0.0346889 -0.000432616 -0.483868 0.723935 0.4928 -0.48277
-0.067974 0.36656 0.181431 -0.807438 -0.473417 0.352022
0.0362867 0.131944 0.109914 -0.824859 -0.458379 0.330902
0.315199 -0.186107 0.0868034 0.796484 0.487988 -0.357045
0.065842 -0.393343 -0.146338 -0.322815 0.824437 0.46486
0.385434 -0.267373 0.189088 0.954687 -0.264438 0.136551
0.227305 0.155626 0.342056 0.80149 0.485971 -0.348491
-0.0963177 0.339886 0.0771494 -0.806204 -0.481902 0.343228
-0.203064 -0.223303 -0.397818 -0.79391 -0.581552 -0.177497
0.133337 -0.448294 -0.178762 0.32261 -0.860735 -0.393775
-0.0228858 0.322732 -0.0153144 0.805724 0.478354 -0.349265
0.0280459 -0.286115 -0.410061 0.00658797 -0.553078 -0.833104
-0.187806 -0.0884682 -0.454722 -0.326975 -0.171044 -0.929425
0.350616 -0.0840315 0.304171 0.856681 0.397765 -0.328454
-0.066387 0.296759 -0.151202 0.836878 0.4181 -0.35331
0.0859423 0.00499249 -0.193284 0.836577 0.402907 -0.371221
0.0900759 -0.478868 -0.151212 0.329223 -0.883766 -0.332519
0.236016 0.170826 0.405489 0.82589 0.504255 0.252255
0.013822 0.367552 0.344708 -0.138391 0.640785 0.755144
0.0621591 -0.337632 -0.23734 -0.176359 0.75081 0.636539
0.0375845 0.0129729 0.495011 -0.570412 -0.358106 0.739182
0.0805693 -0.430279 0.000284609 -0.487423 0.861566 0.141855
-0.191328 0.46619 -0.0659277 -0.476566 0.874738 -0.0878557
-0.0318351 -0.275581 -0.417117 -0.0607362 -0.508382 -0.858987
-0.179386 0.264307 -0.394965 -0.190946 0.617301 -0.763203
-0.244197 -0.0136534 -0.347762 0.413407 -0.0574621 0.908731
0.170605 0.0701057 0.0940571 0.806893 0.476041 -0.349727
-0.153496 0.0502458 -0.384644 0.425442 -0.0864159 0.900851
0.128832 -0.402927 -0.0281823 -0.440438 0.890422 0.114726
-0.17649 -0.103378 -0.370304 0.280786 0.158112 0.946657
-0.247298 0.431319 -0.0603482 -0.554524 0.829526 -0.0662545
-0.161157 0.291921 0.380011 -0.619171 0.229965 0.750829
-0.243539 0.234238 -0.24193 0.542039 -0.600029 0.588352
0.301277 -0.285699 0.27778 0.606376 -0.58293 0.540834
-0.247649 0.333307 0.0644309 0.454251 -0.88723 -0.0804891
0.0681667 0.385064 0.311548 0.586441 0.789727 0.18005
-0.0131478 0.146634 -0.235902 0.804955 0.48065 -0.347883
-0.312179 0.180786 -0.347915 -0.49458 0.384992 -0.779212
-0.189717 0.364054 -0.298606 0.00836238 0.770656 -0.637197
0.299393 -0.0135363 0.41187 0.457146 -0.123641 0.880755
-0.101413 0.16884 -0.168406 -0.806496 -0.491462 0.328678
0.0320077 -0.11572 -0.477519 0.66215 0.383931 -0.643549
0.377626 -0.204982 0.273984 0.832954 -0.29898 0.465616
0.078005 -0.391699 -0.300826 0.163435 -0.840198 -0.517064
0.348336 -0.358668 0.0857444 0.548075 -0.799601 0.245463
-0.0963624 0.239689 -0.305488 0.827492 0.422748 -0.369513
0.166276 -0.152578 0.456415 0.46746 -0.191204 0.863089
-0.243288 0.335883 -0.0527983 0.501132 -0.846841 0.178122
0.102365 -0.120554 -0.322975 0.822407 0.463606 -0.329722
0.247412 -0.142327 0.227362 -0.871531 -0.400246 0.283263
-0.150572 0.488253 -0.000962886 -0.282262 0.959042 0.0238149
0.112379 -0.0485777 -0.203144 0.841034 0.430899 -0.32709
