ply
format ascii 1.0
comment Created by Open3D
element vertex 512
property double x
property double y
property double z
property double nx
property double ny
property double nz
end_header
-0.0458551 0.160011 -0.31779 -0.45111 -0.52338 -0.722892
-0.397607 -0.136292 0.275537 -0.739506 -0.234249 0.631077
-0.271676 0.0506551 -0.0976945 -0.45111 -0.523381 -0.722892
-0.383818 0.316277 -0.0857844 -0.709136 0.702002 -0.0657303
-0.108049 -0.0371089 0.324849 0.451109 0.523382 0.722892
0.412485 -0.17167 -0.236187 0.89246 -0.267964 -0.362918
0.0035246 0.371832 -0.337629 0.0704477 0.786582 -0.613454
0.426796 -0.0397467 -0.00700346 0.45111 0.52338 0.722892
0.447657 -0.24525 0.0746698 0.781977 -0.622177 -0.0375196
-0.221094 0.220445 0.208922 0.45111 0.52338 0.722892
-0.199996 0.0376316 0.328114 0.45111 0.523381 0.722892
-0.454067 0.025133 0.211192 -0.875511 0.102377 0.472228
0.392531 -0.278676 -0.158441 0.863934 -0.459272 -0.206608
-0.0190949 -0.357435 0.354297 -0.114708 -0.769271 0.628541
0.250212 -0.290848 0.284992 0.45111 0.52338 0.722892
0.0204323 -0.0834377 0.166691 0.114707 0.769271 -0.628541
-0.230845 -0.189902 0.411599 -0.559383 -0.465326 0.685975
0.480799 -0.164521 -0.0419587 0.874019 -0.422926 -0.239217
0.435095 0.192536 -0.189534 0.810647 0.556701 0.181483
-0.0420096 0.101009 -0.143905 0.0629388 -0.826631 0.559213
0.435885 0.170757 -0.165116 0.469711 0.527962 0.70755
-0.0741824 -0.0370679 0.156669 0.593351 0.429166 -0.680992
0.359569 -0.337702 -0.143152 0.820919 -0.561115 -0.106029
-0.118422 -0.0577702 0.346281 0.45111 0.52338 0.722892
-0.401304 0.214605 0.228451 -0.887651 0.347171 0.30257
0.401164 0.0759114 -0.288697 0.785578 0.151513 -0.599925
0.338448 0.296777 -0.251357 0.559384 0.465326 -0.685975
0.0735296 0.133955 -0.0803547 -0.329557 -0.655056 0.679922
0.113097 -0.314555 0.382935 0.431223 0.0957056 0.897155
0.0562553 0.385928 -0.312642 0.114708 0.769271 -0.628541
0.309697 0.00939305 -0.412937 0.324481 -0.169675 -0.930549
0.018144 -0.266728 -0.048764 -0.45111 -0.52338 -0.722892
0.321686 0.156508 -0.0835012 0.45111 0.523381 0.722892
0.367951 -0.0607594 -0.354715 0.839926 0.0248451 -0.542132
0.0183923 -0.416843 0.0597652 -0.451111 -0.523381 -0.722891
0.335711 0.312856 -0.241495 0.644612 0.568669 -0.510971
0.0946843 -0.00602598 -0.285279 -0.451111 -0.52338 -0.722892
0.179391 0.429046 -0.193871 0.488722 0.698898 0.5222
0.126079 -0.187884 -0.173203 -0.45111 -0.523381 -0.722892
-0.117832 0.426626 -0.232283 -0.23809 0.851212 -0.467709
-0.249554 0.0526398 -0.112936 -0.45111 -0.523381 -0.722892
0.135895 0.00289439 -0.317454 -0.45111 -0.523381 -0.722892
0.277061 -0.163507 -0.28507 -0.45111 -0.52338 -0.722892
-0.225834 -0.123616 0.000143228 -0.354228 -0.495795 -0.792912
-0.0336356 -0.147827 0.358574 0.45111 0.523381 0.722892
-0.160953 0.174651 0.204547 0.45111 0.52338 0.722892
0.0975486 -0.0946916 0.131604 -0.322547 0.850853 -0.414745
-0.280206 -0.243819 0.12083 -0.45111 -0.52338 -0.722892
-0.342317 0.350492 -0.112724 -0.651659 0.746602 -0.133889
-0.203783 0.3759 0.0855682 0.45111 0.523381 0.722892
0.437536 0.159856 -0.158219 0.45111 0.52338 0.722892
-0.237909 -0.317611 0.308362 -0.4105 -0.597541 0.688792
-0.425671 0.088742 -0.0291717 -0.45111 -0.523381 -0.722892
0.386252 -0.317449 0.00498508 0.759565 -0.650424 -0.00308233
-0.239851 -0.339861 0.287903 -0.4105 -0.597541 0.688792
-0.125622 0.0726944 0.256317 0.45111 0.523381 0.722892
0.119224 -0.180527 0.286859 0.45111 0.523381 0.722892
0.0831006 -0.44907 0.208614 0.19492 -0.848216 0.492479
0.474496 -0.110278 -0.129023 0.89246 -0.267964 -0.362918
0.163162 -0.402205 0.252017 0.280668 -0.852091 0.441776
0.1764 -0.065256 0.164792 0.221613 0.776092 0.590396
-0.108291 -0.259201 0.024686 -0.45111 -0.52338 -0.722892
0.244812 0.0700788 -0.432885 -0.289772 -0.44169 -0.849083
0.192958 0.368056 -0.287029 0.329557 0.655056 -0.679922
-0.253805 -0.254718 0.112246 -0.45111 -0.52338 -0.722892
0.102092 -0.0758787 -0.239328 -0.45111 -0.523381 -0.722892
-0.00923417 -0.336999 0.0191975 -0.451111 -0.523381 -0.722891
0.465115 -0.2141 0.019914 0.820918 -0.561116 -0.106029
0.0288883 0.490072 -0.160769 0.227861 0.973686 0.00375927
0.442201 -0.212829 0.107452 0.611521 0.3743 0.697095
-0.184612 -0.0397385 0.374531 0.45111 0.523381 0.722892
-0.109246 -0.277981 0.0388786 -0.45111 -0.52338 -0.722892
0.115165 -0.093386 -0.23481 -0.45111 -0.523381 -0.722892
0.355422 0.187103 -0.300511 0.686084 0.314658 -0.655956
0.325682 0.326582 -0.214213 0.638583 0.692476 0.335692
-0.415933 0.185844 0.215962 -0.891163 0.30795 0.333159
-0.11797 -0.105188 0.38033 0.45111 0.523381 0.722892
0.225964 -0.00894007 -0.365092 -0.45111 -0.52338 -0.722892
-0.229642 0.0174048 -0.096788 -0.125345 -0.690287 -0.712596
0.0662127 0.475907 -0.158396 0.414213 0.781784 0.466091
-0.147318 0.0636482 -0.163903 0.132994 -0.985023 -0.109734
0.259668 0.363732 -0.194832 0.45111 0.52338 0.722892
0.384859 -0.312892 -0.0786388 0.820919 -0.561115 -0.106029
-0.222273 0.459714 0.0283232 0.0114401 0.86911 0.494486
0.505667 -0.0415611 -0.101015 0.902333 -0.214409 -0.37393
0.447125 -0.0821115 -0.208118 0.8884 -0.186096 -0.419658
-0.0476033 -0.392849 0.305619 -0.0704485 -0.786581 0.613455
0.228978 0.320662 -0.311038 0.4105 0.597541 -0.688792
-0.358298 0.0366152 -0.0334746 -0.45111 -0.52338 -0.722892
0.366864 0.00568594 -0.349833 0.805713 0.109527 -0.582092
0.122959 -0.181646 -0.175773 -0.45111 -0.523381 -0.722892
-0.0458756 -0.438801 0.115768 -0.45111 -0.523381 -0.722892
0.144328 0.325205 -0.351752 0.287805 0.681405 -0.672945
-0.0826553 -0.364979 0.331705 -0.158682 -0.750048 0.642065
-0.499044 0.0313491 0.0598936 -0.672861 -0.432919 -0.599866
0.263597 -0.412454 0.103673 0.553496 -0.799472 0.233424
0.357262 -0.165386 0.127352 0.45111 0.523381 0.722892
-0.0836783 -0.0136042 0.292623 0.45111 0.523381 0.722892
-0.0458218 -0.17333 0.384642 0.45111 0.523381 0.722892
0.420818 0.195675 -0.226198 0.713683 0.274795 -0.644317
-0.453349 0.235533 -0.0482697 -0.802446 0.592382 0.0718642
-0.101368 0.30707 0.0714916 0.45111 0.52338 0.722892
0.418498 0.103234 -0.105344 0.45111 0.523381 0.722892
-0.0865093 0.277498 0.0836294 0.45111 0.523381 0.722891
0.0991673 0.119217 -0.378753 -0.45111 -0.52338 -0.722892
0.494976 0.0417281 -0.11483 0.824114 0.404879 0.396118
0.0334268 0.417672 -0.0927028 0.45111 0.523381 0.722892
-0.0277754 0.0496584 -0.208355 -0.255948 -0.787532 0.560611
0.384672 -0.160941 0.107029 0.45111 0.523381 0.722892
0.197733 -0.416091 -0.0526941 -0.45111 -0.523381 -0.722892
0.252678 0.210428 -0.379873 0.559384 0.465326 -0.685975
-0.28755 0.367924 0.143617 0.45111 0.523381 0.722892
-0.132603 0.491854 -0.0898629 -0.403799 0.842037 -0.357658
0.179431 -0.440907 -0.0233061 -0.45111 -0.523381 -0.722892
-0.462368 0.0745435 0.179203 -0.888401 0.186097 0.419658
-0.32511 0.333281 -0.227099 -0.549682 0.772483 -0.317992
-0.100921 -0.0345473 0.318547 0.451109 0.523382 0.722892
-0.415877 0.166038 0.232005 -0.89246 0.267964 0.362918
0.306803 -0.39901 0.0147479 0.681244 -0.725203 0.0999338
-0.00834249 0.192945 0.000587271 0.322546 -0.850853 0.414745
0.0160581 0.024477 -0.210711 -0.449491 -0.566518 0.690663
0.229503 -0.329697 0.317219 0.554547 -0.0621589 0.829828
0.0405166 -0.176822 0.00339445 -0.442969 0.834483 -0.327745
0.0572116 0.0661135 -0.149709 -0.487363 -0.534088 0.690816
-0.274846 0.38239 -0.175296 -0.517911 0.813173 -0.26555
0.428021 -0.0727016 -0.249168 0.875511 -0.102377 -0.472228
-0.34484 0.352946 0.159175 -0.638049 0.696938 0.327369
0.283647 0.262909 -0.136799 0.45111 0.52338 0.722892
0.0592454 0.231232 0.0155855 0.382658 -0.143767 0.912636
0.255738 0.351069 -0.268712 0.4105 0.597541 -0.688792
0.349993 0.0580521 -0.029883 0.45111 0.523381 0.722892
0.170695 0.126804 -0.0144908 -0.656781 -0.353737 0.665964
-0.147783 -0.113795 0.0437852 0.625843 0.39194 -0.674317
-0.101647 -0.340169 0.353347 -0.24534 -0.70606 0.664295
0.13472 0.43934 -0.171601 0.45111 0.52338 0.722892
-0.000331487 0.314626 -0.410236 0.114708 0.769271 -0.628541
0.374948 -0.00836132 0.00262807 0.45111 0.52338 0.722892
-0.0951288 0.255779 -0.356378 -0.45111 -0.523381 -0.722892
-0.402988 0.11675 -0.0636043 -0.45111 -0.52338 -0.722892
0.0423284 0.145521 -0.0790424 -0.158682 -0.750048 0.642065
0.386099 -0.245206 -0.237947 0.887651 -0.34717 -0.302571
0.145193 -0.0874891 -0.257818 -0.45111 -0.523381 -0.722892
0.284253 -0.13613 -0.30938 -0.45111 -0.523381 -0.722892
0.329508 0.0445896 -0.00735212 0.45111 0.523381 0.722892
-0.290914 0.0621517 0.367098 0.45111 0.52338 0.722892
0.183253 0.215634 -0.039922 0.451109 0.523381 0.722892
0.228656 0.367417 -0.269598 0.370489 0.627078 -0.685209
-0.404587 0.176741 -0.106041 -0.45111 -0.523381 -0.722892
0.455939 0.0909915 -0.119845 0.45111 0.523381 0.722892
0.489869 0.0722592 -0.150995 0.96534 0.242566 -0.0963322
0.0873987 -0.146688 -0.113228 -0.851701 0.494478 0.173484
-0.170662 0.314116 -0.350735 -0.477797 -0.370622 -0.79646
0.322476 -0.0983116 -0.360613 -0.45111 -0.523381 -0.722892
0.158047 -0.411411 0.23751 0.280668 -0.852091 0.441776
0.407594 -0.278387 -0.0816914 0.83735 -0.528454 -0.139931
0.130035 0.376987 -0.303731 0.24534 0.70606 -0.664295
-0.384692 0.31354 0.0753468 -0.802445 0.592383 0.0718637
0.15716 0.305261 -0.0885299 0.45111 0.523381 0.722892
0.053265 -0.390025 0.0185867 -0.45111 -0.523381 -0.722892
0.297856 0.207829 -0.105788 0.45111 0.52338 0.722892
0.455096 -0.048923 -0.01802 0.45111 0.52338 0.722892
0.213021 0.149392 -0.447653 0.264454 0.146997 -0.953129
-0.265744 0.424666 -0.0539055 -0.587706 0.783782 -0.200717
-0.147061 -0.444081 0.184124 -0.477094 -0.704509 -0.525403
-0.0640806 0.134712 -0.0753728 0.363626 -0.847498 0.386681
0.461471 -0.225984 0.0689857 0.867736 -0.494219 0.0527383
-0.393516 0.306823 -0.0821208 -0.709136 0.702002 -0.0657303
-0.348946 0.0589817 0.378561 -0.585154 0.189322 0.788513
0.295047 -0.113677 0.128739 0.45111 0.523381 0.722892
0.0945148 0.0474077 -0.131793 -0.656781 -0.353737 0.665964
-0.00946955 0.490894 -0.121923 0.350697 0.793639 0.497141
0.400643 -0.300704 0.0177681 0.759565 -0.650424 -0.00308233
0.0479692 0.463417 -0.21237 -0.0184865 0.815298 -0.578747
0.0486607 0.135896 -0.0882425 -0.202261 -0.728961 0.653993
0.123953 -0.0985722 0.0822451 -0.587707 0.783782 -0.200716
-0.0849056 0.1317 -0.0577022 0.481038 -0.824853 0.297017
0.22788 0.355104 -0.168748 0.45111 0.52338 0.722892
0.15054 0.239099 -0.428542 0.4105 0.597541 -0.688792
0.0846769 -0.132885 -0.163805 -0.997747 0.0100516 -0.0663281
0.260822 0.345474 -0.182333 0.45111 0.52338 0.722892
0.268986 0.208598 -0.0883278 0.45111 0.52338 0.722892
0.127912 0.323837 -0.360158 0.287805 0.681405 -0.672945
0.016889 -0.29284 0.421127 0.266602 -0.1063 0.957927
0.211527 0.258142 -0.088342 0.45111 0.523381 0.722892
-0.392905 -0.255171 0.213069 -0.78675 -0.617064 -0.0159817
0.200549 0.256022 -0.383195 0.449491 0.566518 -0.690663
0.470996 0.0189022 -0.187597 0.865792 -0.0600848 -0.496783
0.0365174 0.0602429 -0.29696 -0.45111 -0.523381 -0.722892
0.286864 0.322229 -0.181755 0.45111 0.523381 0.722892
0.471885 -0.111028 -0.13489 0.89246 -0.267964 -0.362918
0.299408 0.287311 -0.289005 0.524025 0.500329 -0.689253
0.411551 -0.0991861 0.0455448 0.45111 0.523381 0.722892
0.293352 -0.358333 0.212644 0.481039 -0.824853 0.297016
-0.478146 0.17565 -0.0505082 -0.851038 -0.12351 -0.510372
-0.324461 0.380956 -0.0253809 -0.681244 0.725203 -0.0999333
0.0266519 0.474362 -0.195631 -0.062938 0.826631 -0.559213
0.244984 -0.228729 -0.217832 -0.45111 -0.523381 -0.722891
-0.449474 0.0452477 0.215346 -0.875511 0.102377 0.472228
0.0926212 0.0595258 -0.12645 -0.593352 -0.429166 0.680992
0.12764 0.344857 -0.338765 0.24534 0.70606 -0.664295
-0.263838 0.424832 -0.0588356 -0.587706 0.783782 -0.200717
0.364056 -0.267255 -0.248588 0.373294 -0.63376 -0.677495
-0.199504 0.18025 -0.236561 -0.45111 -0.52338 -0.722892
-0.150804 0.219451 0.165778 0.45111 0.523381 0.722891
0.181788 -0.196807 0.259603 0.45111 0.523381 0.722892
-0.177393 -0.343755 0.317984 -0.329557 -0.655056 0.679922
-0.226242 -0.254012 0.0945349 -0.45111 -0.523381 -0.722892
0.0429084 -0.05454 0.207538 0.210731 0.865229 -0.454941
0.298933 -0.390765 -0.129088 -0.051246 -0.747273 -0.662538
0.24251 -0.43197 0.0865351 0.517911 -0.813173 0.26555
0.0878745 0.25149 -0.0063623 0.45111 0.523381 0.722892
-0.0770283 0.212129 0.124842 0.507428 0.476179 0.718171
-0.408714 0.127892 0.269131 -0.888401 0.186096 0.419658
0.173617 -0.439416 -0.0207576 -0.45111 -0.52338 -0.722892
-0.0356142 0.131081 -0.303235 -0.451111 -0.52338 -0.722892
0.291304 0.109098 -0.0302164 0.45111 0.52338 0.722892
0.502047 -0.101306 -0.0629006 0.88765 -0.347171 -0.30257
0.411537 0.149464 -0.254325 0.739506 0.23425 -0.631077
-0.305491 -0.338824 0.245682 -0.538899 -0.594115 0.597173
0.410003 0.106383 -0.102323 0.45111 0.52338 0.722892
-0.163917 0.0569725 -0.12788 0.585595 -0.802563 0.113892
-0.184848 -0.406822 0.179339 -0.45111 -0.523381 -0.722892
-0.145918 0.249761 -0.320327 -0.45111 -0.523381 -0.722892
-0.125796 0.425131 0.0012577 0.45111 0.523381 0.722892
0.222343 0.403878 -0.202275 0.522683 0.679176 0.515289
0.163374 -0.448039 0.157043 0.363626 -0.847498 0.386681
-0.149787 0.456712 -0.15081 -0.363625 0.847498 -0.386682
0.0560909 0.0547969 -0.159249 -0.487363 -0.534088 0.690816
0.138827 -0.126974 -0.225258 -0.45111 -0.52338 -0.722892
0.37466 -0.314972 0.153376 0.651659 -0.746602 0.133889
-0.0284749 0.271998 0.0513955 0.45111 0.523381 0.722892
-0.374379 -0.246674 0.250316 -0.656781 -0.353738 0.665964
-0.06057 0.185511 0.0959115 0.801543 -0.577645 0.154447
0.211011 -0.427399 0.151691 0.44297 -0.834483 0.327745
-0.306324 -0.332683 0.201467 -0.45111 -0.523381 -0.722892
-0.243744 0.415134 0.0820995 0.45111 0.523381 0.722892
-0.130219 0.217959 -0.307099 -0.45111 -0.523381 -0.722892
0.0703573 0.169363 -0.0442293 -0.202261 -0.728961 0.653993
-0.361789 -0.0947376 0.0638045 -0.45111 -0.523381 -0.722892
-0.293673 0.259218 0.226141 0.45111 0.523381 0.722892
0.0216601 0.449675 -0.230889 -0.0184865 0.815298 -0.578747
-0.143932 -0.0211425 0.082826 0.823843 0.0672705 -0.562812
-0.136256 -0.340811 0.101224 -0.45111 -0.52338 -0.722892
-0.0951653 -0.211846 -0.00028398 -0.152372 0.269429 -0.950889
0.0720382 0.142917 -0.0720678 -0.287806 -0.681405 0.672945
-0.0582137 -0.140188 0.368381 0.45111 0.52338 0.722892
0.306639 -0.408378 -0.0672968 0.735264 -0.677054 0.031363
0.428793 -0.23842 -0.0962973 0.863934 -0.459272 -0.206608
0.258623 0.0258339 -0.410649 -0.45111 -0.523381 -0.722892
-0.44261 0.140324 0.185251 -0.89246 0.267965 0.362918
0.247542 0.293075 -0.136109 0.451109 0.523381 0.722892
-0.240975 0.24648 -0.258633 -0.45111 -0.52338 -0.722892
0.464864 0.0808141 -0.197994 0.823844 0.0672686 -0.562811
-0.07283 0.0955971 -0.144842 0.194922 -0.848216 0.492478
0.41117 0.1584 -0.251439 0.739506 0.23425 -0.631077
-0.460222 -0.103245 0.202107 -0.823844 -0.0672683 0.562811
-0.0230117 -0.353265 0.358685 -0.114708 -0.769271 0.628541
-0.454123 0.0910853 0.189323 -0.888401 0.186097 0.419658
-0.0946689 -0.275426 0.423396 -0.287805 -0.681406 0.672945
0.46787 -0.197977 -0.0199695 0.851701 -0.494477 -0.173486
0.148031 0.135733 -0.0301012 -0.559384 -0.465325 0.685975
0.0277259 0.323574 -0.39365 0.158681 0.750049 -0.642065
-0.313911 -0.105858 0.382901 -0.686084 -0.314658 0.655956
0.164443 0.408686 -0.167955 0.45111 0.52338 0.722892
-0.245489 -0.365757 0.262015 -0.370489 -0.627078 0.685209
-0.194742 0.428064 0.0421589 0.45111 0.523381 0.722892
0.264584 -0.218977 0.223987 0.45111 0.52338 0.722892
-0.0779541 0.164741 0.0817905 0.759565 -0.650424 -0.00308247
0.0252632 0.230498 -0.413203 -0.45111 -0.52338 -0.722892
0.0853245 -0.0801425 0.235334 0.45111 0.52338 0.722892
0.109051 0.322633 -0.369251 0.24534 0.70606 -0.664295
0.15377 -0.452662 0.15594 0.363626 -0.847498 0.386681
-0.140053 0.0491082 0.0780783 0.891539 -0.227314 -0.391774
-0.166245 -0.126686 0.42602 0.45111 0.523381 0.722892
0.258502 0.34842 -0.183018 0.45111 0.52338 0.722892
0.202022 0.24839 -0.388496 0.449491 0.566518 -0.690663
0.375202 -0.316748 -0.130651 0.83735 -0.528454 -0.139931
-0.0965893 -0.41218 0.128142 -0.45111 -0.523381 -0.722892
-0.318908 0.284506 0.223581 0.45111 0.523381 0.722892
0.361249 0.229156 -0.27257 0.656781 0.353738 -0.665964
0.265901 -0.125044 0.155157 0.45111 0.52338 0.722892
0.0429995 -0.164768 0.0293228 -0.363626 0.847498 -0.386682
0.353534 0.155548 -0.10268 0.45111 0.523381 0.722892
-0.285947 -0.175543 0.0749801 -0.45111 -0.52338 -0.722892
0.0800382 -0.103106 0.127428 -0.280669 0.852091 -0.441775
0.0611666 -0.109029 0.126324 -0.19492 0.848216 -0.492479
0.441229 0.0505639 -0.236083 0.839926 0.0248451 -0.542132
0.0571443 -0.110812 0.124845 -0.19492 0.848216 -0.492479
-0.358939 0.00212648 0.362272 -0.805713 -0.109527 0.582092
0.273985 0.365577 -0.244768 0.462618 0.657096 -0.595154
0.291623 0.339535 -0.255316 0.487365 0.534086 -0.690816
0.322541 0.268677 -0.28339 0.559383 0.465326 -0.685975
0.0768627 0.194671 -0.0127963 -0.114707 -0.769271 0.628541
0.354921 0.201028 -0.136474 0.45111 0.523381 0.722892
0.447271 -0.170954 -0.143684 0.887651 -0.34717 -0.302571
-0.383648 0.300987 0.139634 -0.83735 0.528454 0.139931
-0.138635 -0.287887 0.0643909 -0.45111 -0.523381 -0.722892
-0.385277 0.318604 -0.00860322 -0.759565 0.650424 0.00308227
-0.17652 -0.381121 0.281365 -0.287805 -0.681406 0.672945
0.360314 -0.245358 0.183348 0.45111 0.52338 0.722892
-0.101284 -0.164595 0.0373826 0.329558 0.655056 -0.679922
0.292282 -0.400175 0.0710729 0.620453 -0.766145 0.167512
-0.461454 0.154977 0.120406 -0.887651 0.347171 0.30257
-0.441007 -0.175564 0.208591 -0.843764 -0.303076 0.442954
0.424984 -0.245438 -0.0952318 0.851701 -0.494477 -0.173486
0.0590492 -0.147865 0.0510627 -0.403801 0.842037 -0.357657
-0.103043 -0.178288 0.0229918 0.287806 0.681405 -0.672945
0.355169 0.291066 -0.240439 0.661723 0.512305 -0.547418
-0.490923 0.162114 0.00612268 -0.863934 0.459272 0.206608
-0.432578 -0.106043 0.116165 -0.45111 -0.52338 -0.722892
0.0326667 -0.354803 0.36218 -0.0260141 -0.801936 0.596843
0.477552 0.108185 -0.165195 0.933333 0.3563 -0.0440523
0.298999 0.299897 -0.28018 0.524025 0.500329 -0.689253
0.0555777 -0.176499 -0.0225052 -0.553496 0.799472 -0.233424
0.385346 -0.0227877 0.0065845 0.45111 0.52338 0.722892
0.165976 -0.0592112 0.0269981 -0.820918 0.561117 0.106028
0.49795 0.00281434 -0.135577 0.883054 -0.144416 -0.446498
-0.274152 -0.134796 0.0381184 -0.45111 -0.523381 -0.722892
-0.00610001 0.204982 -0.375158 -0.45111 -0.523381 -0.722892
0.264736 0.265442 -0.126831 0.45111 0.52338 0.722892
0.41847 -0.150092 -0.236473 0.891539 -0.227312 -0.391775
0.416931 0.00517205 -0.0333685 0.45111 0.52338 0.722892
-0.109535 0.400695 0.00880189 0.45111 0.523381 0.722892
0.171683 -0.4564 0.129211 0.403799 -0.842037 0.357658
0.462764 -0.165089 -0.1035 0.881931 -0.385526 -0.271232
-0.0501686 -0.0567066 0.302919 0.45111 0.52338 0.722892
0.149971 -0.0805256 0.0568401 -0.709136 0.702001 -0.0657298
-0.0740596 -0.416797 0.271612 -0.114708 -0.769271 0.628541
-0.242349 0.364358 0.117991 0.45111 0.52338 0.722892
-0.215469 -0.245545 0.0816818 -0.45111 -0.523381 -0.722892
0.310546 -0.291383 -0.213383 -0.45111 -0.52338 -0.722892
-0.126711 0.0705614 0.0954009 0.89246 -0.267965 -0.362918
0.407748 0.0363246 -0.0501932 0.45111 0.523381 0.722892
-0.372551 0.333424 0.000222622 -0.759565 0.650424 0.00308227
0.0376099 -0.18145 -0.00446211 -0.442969 0.834483 -0.327745
0.342599 -0.319194 -0.20528 0.121735 -0.712647 -0.69088
0.0629509 0.363937 -0.337793 0.158682 0.750048 -0.642065
-0.322244 -0.0109034 0.406254 -0.636865 -0.00648258 0.770948
0.272128 -0.308195 -0.177237 -0.45111 -0.523381 -0.722892
0.355086 -0.279425 0.21101 0.519681 0.423466 0.74203
-0.265437 0.399381 -0.141612 -0.517911 0.813173 -0.26555
0.483462 -0.152326 -0.0537871 0.874019 -0.422926 -0.239217
-0.163475 0.370455 -0.311276 -0.238091 0.851212 -0.467708
-0.194095 0.0570318 0.310386 0.45111 0.52338 0.722892
-0.383685 0.268219 0.213447 -0.874019 0.422925 0.239217
0.121333 -0.478701 0.128766 0.322547 -0.850853 0.414745
0.303381 -0.408909 -0.0357236 0.709136 -0.702002 0.0657303
-0.417107 0.236407 0.147577 -0.874019 0.422925 0.239217
0.169594 0.276294 -0.075317 0.45111 0.52338 0.722892
0.21411 0.337094 -0.147116 0.45111 0.52338 0.722892
-0.229792 -0.369047 0.180036 -0.451111 -0.52338 -0.722892
-0.414481 -0.10001 0.100504 -0.45111 -0.523381 -0.722892
0.0837193 0.440658 -0.140729 0.45111 0.523381 0.722892
-0.0529925 -0.116445 0.107018 0.287806 0.681405 -0.672945
-0.0123676 0.41704 -0.275775 -0.0184865 0.815298 -0.578747
0.261337 0.308855 -0.156142 0.451109 0.523381 0.722892
0.420842 0.167223 -0.236829 0.739506 0.23425 -0.631077
0.0370896 -0.476273 0.17961 0.151266 -0.843111 0.516025
0.230494 -0.381004 0.240317 0.403799 -0.842037 0.357658
0.0456153 -0.30161 0.411371 0.312236 -0.0714774 0.947312
0.00879109 -0.442016 0.239457 0.062938 -0.826631 0.559213
0.363263 0.0634989 -0.34114 0.763492 0.193121 -0.616267
-0.123537 0.108563 0.0404082 0.820918 -0.561116 -0.106029
-0.18903 -0.094043 0.416605 0.45111 0.52338 0.722892
0.267966 -0.146815 0.169631 0.45111 0.52338 0.722892
0.194136 0.247882 -0.0700613 0.45111 0.523381 0.722892
-0.11719 -0.424366 0.14982 -0.45111 -0.52338 -0.722892
-0.0343653 -0.264737 0.435915 0.272857 0.0520683 0.960645
0.270114 -0.131346 0.157091 0.45111 0.52338 0.722892
-0.44179 0.151885 0.178186 -0.891163 0.30795 0.333159
-0.299146 0.414213 0.0876581 -0.523719 0.820022 0.230828
-0.018083 0.229655 0.0651254 0.674286 -0.0878345 0.733228
-0.210428 -0.0136759 -0.0498315 0.825775 -0.408608 -0.388761
0.0490962 0.448634 -0.124897 0.45111 0.523381 0.722892
0.290846 -0.414816 0.0045563 0.651659 -0.746602 0.133888
0.328174 0.188999 -0.326519 0.656781 0.353738 -0.665964
-0.212926 -0.371452 0.274077 -0.329557 -0.655056 0.679922
0.0317703 0.221788 -0.410958 -0.45111 -0.52338 -0.722892
-0.301378 -0.259375 0.145305 -0.45111 -0.52338 -0.722892
-0.0741211 0.0459148 0.192263 0.785579 0.151512 -0.599925
0.416255 0.0907104 -0.0948778 0.45111 0.523381 0.722892
-0.138782 -0.454241 0.201672 -0.414772 -0.909815 0.0141506
0.280377 -0.363772 0.218553 0.481039 -0.824853 0.297016
-0.0202079 -0.192315 0.382404 0.45111 0.523381 0.722892
-0.450098 0.226676 0.0226357 -0.83735 0.528454 0.13993
0.143855 -0.357376 0.342497 0.19492 -0.848216 0.492479
0.0969577 -0.140761 -0.0151811 -0.681245 0.725203 -0.0999328
0.303655 -0.218078 -0.262157 -0.45111 -0.523381 -0.722892
-0.278159 0.294577 -0.270251 -0.45111 -0.52338 -0.722892
0.266221 -0.433247 0.0163398 0.620453 -0.766145 0.167512
0.074797 -0.286848 0.39156 0.45111 0.52338 0.722892
0.145446 0.128333 -0.037061 -0.593351 -0.429166 0.680992
0.385067 -0.318286 0.0389402 0.735264 -0.677054 0.031363
0.126313 0.352517 -0.331114 0.24534 0.70606 -0.664295
0.108593 -0.380159 0.315686 0.151266 -0.843111 0.516025
0.457556 -0.207295 -0.0440442 0.851701 -0.494477 -0.173486
0.0604231 -0.488213 0.149422 0.23809 -0.851212 0.467709
-0.0652158 -0.236949 -0.0130327 -0.431222 -0.0957102 -0.897155
-0.0852885 0.130687 0.169879 0.988377 0.0494983 0.143741
-0.0393572 -0.430207 0.257726 -0.0260132 -0.801936 0.596843
-0.325211 -0.0336509 -0.00324851 -0.45111 -0.52338 -0.722892
-0.000197983 0.331781 -0.00953385 0.45111 0.52338 0.722892
0.284642 -0.244312 0.229813 0.45111 0.52338 0.722892
0.324769 0.188356 -0.330218 0.656781 0.353738 -0.665964
-0.244849 -0.259185 0.109891 -0.45111 -0.52338 -0.722892
-0.228304 0.465465 -0.000741508 -0.47462 0.879392 -0.0374985
-0.341218 -0.31248 0.215677 -0.680424 -0.691145 -0.243604
-0.261759 0.41477 -0.100097 -0.553497 0.799472 -0.233424
-0.389512 -0.193305 0.152469 -0.45111 -0.52338 -0.722892
0.077968 0.441083 -0.240286 0.0704477 0.786582 -0.613454
-0.0558748 0.187791 0.0764137 0.681244 -0.725203 0.0999333
-0.168827 0.487564 -0.0395751 -0.196288 0.97566 0.0977641
0.438383 -0.0223113 -0.0268573 0.45111 0.523381 0.722892
-0.331878 0.293796 0.224894 0.429529 0.5336 0.728544
-0.18901 -0.305886 0.347345 -0.370489 -0.627078 0.685209
0.167648 -0.0288765 -0.314267 -0.45111 -0.52338 -0.722892
-0.00637364 0.385629 -0.0446662 0.451111 0.52338 0.722891
0.226503 -0.15607 0.202206 0.45111 0.52338 0.722892
-0.33187 -0.1882 0.112802 -0.45111 -0.523381 -0.722892
0.251021 -0.213636 0.228584 0.451111 0.523381 0.722891
-0.472228 0.206227 -0.0563847 -0.928249 0.335233 -0.16116
0.0956698 0.0301648 -0.312096 -0.45111 -0.52338 -0.722892
-0.494282 0.139191 0.0374765 -0.874019 0.422926 0.239217
-0.366272 -0.0236872 0.347265 -0.805713 -0.109527 0.582092
-0.103072 0.135446 0.0464741 0.781977 -0.622177 -0.0375194
0.0325287 -0.154981 0.322464 0.45111 0.523381 0.722892
-0.368281 0.214172 0.290004 -0.38126 0.544731 0.746933
-0.240396 0.377225 0.107457 0.45111 0.52338 0.722892
-0.398139 0.0257308 -0.000732352 -0.45111 -0.52338 -0.722892
-0.0136319 -0.398929 0.0667798 -0.45111 -0.523381 -0.722892
0.306531 0.177121 -0.353815 0.625844 0.39194 -0.674317
0.0574344 -0.123649 0.101962 -0.238089 0.851212 -0.467709
0.149354 -0.443236 0.179731 0.322547 -0.850853 0.414745
0.0584143 -0.412406 0.031578 -0.45111 -0.523381 -0.722892
0.377576 0.184072 -0.278792 0.686084 0.314658 -0.655956
0.405986 0.0943093 -0.0910747 0.45111 0.523381 0.722892
-0.283436 -0.0127489 0.415226 0.231055 0.452884 0.86111
0.0360772 -0.231273 0.375486 0.45111 0.523381 0.722892
0.168499 -0.137943 0.225279 0.45111 0.52338 0.722892
0.401993 0.175183 -0.25579 0.713683 0.274795 -0.644317
-0.176035 -0.368144 0.145836 -0.45111 -0.523381 -0.722892
-0.240782 0.302606 -0.299389 -0.45111 -0.523381 -0.722892
-0.145871 0.0742616 -0.112997 0.587706 -0.783782 0.200717
-0.463109 -0.128714 0.1539 -0.681136 -0.531316 -0.503743
-0.0136116 -0.266815 0.429367 0.34805 0.225864 0.909861
0.0448811 0.0639363 -0.159586 -0.449491 -0.566518 0.690663
-0.435104 -0.0705121 0.092016 -0.45111 -0.52338 -0.722892
0.297962 -0.0633674 0.0904951 0.45111 0.523381 0.722892
-0.118772 -0.336472 0.350952 -0.245339 -0.70606 0.664295
0.250176 -0.254548 0.258732 0.45111 0.52338 0.722892
-0.119545 -0.168395 0.427075 0.45111 0.52338 0.722892
0.170965 -0.399543 0.252194 0.280668 -0.852091 0.441776
0.0716188 -0.34515 0.375156 0.0184865 -0.815298 0.578747
0.388075 -0.239553 -0.238635 0.887651 -0.34717 -0.302571
0.50214 0.00354563 -0.0924306 0.856486 0.342557 0.386117
-0.0404148 -0.202291 0.00344028 -0.107236 0.835911 -0.538288
-0.315454 -0.146928 0.0726763 -0.45111 -0.523381 -0.722892
-0.0448531 0.318205 0.0281619 0.45111 0.52338 0.722892
-0.32862 0.383185 0.115802 -0.746678 0.658988 0.0905912
-0.292564 -0.0222933 -0.0318447 -0.45111 -0.52338 -0.722892
-0.17636 0.0847064 -0.181829 -0.45111 -0.52338 -0.722892
0.240132 -0.155856 0.193545 0.45111 0.523381 0.722891
-0.0479787 -0.20062 0.00678847 -0.06294 0.826632 -0.559212
-0.426219 0.256901 0.0513776 -0.83735 0.528454 0.13993
0.110296 -0.0185029 -0.285988 -0.45111 -0.523381 -0.722892
0.0809051 -0.161258 -0.0804307 -0.781977 0.622177 0.0375195
-0.43449 0.0883432 0.231599 -0.883053 0.144416 0.446498
-0.243918 -0.259836 0.109782 -0.45111 -0.523381 -0.722892
-0.23385 0.322033 0.143331 0.45111 0.52338 0.722892
0.494838 -0.0642482 -0.112497 0.891539 -0.227312 -0.391775
-0.440522 0.0317931 0.0213272 -0.45111 -0.523381 -0.722892
0.408225 -0.27128 -0.103853 0.851701 -0.494478 -0.173485
-0.222019 0.468489 -0.00805964 -0.468249 0.877163 -0.106435
0.410459 0.0876383 -0.0890365 0.45111 0.52338 0.722892
0.0805063 -0.0615769 -0.185426 -0.839926 -0.0248451 0.542132
-0.39331 0.29989 -0.144327 -0.681244 0.725203 -0.0999333
-0.0183151 -0.166403 0.362462 0.451111 0.52338 0.722892
0.340827 0.107845 -0.060214 0.45111 0.52338 0.722892
-0.206339 -0.036237 0.385555 0.45111 0.523381 0.722892
-0.073083 0.265613 -0.377255 -0.45111 -0.52338 -0.722892
-0.181629 0.200993 0.198378 0.45111 0.52338 0.722892
-0.330781 -0.221053 0.135908 -0.45111 -0.52338 -0.722892
0.180248 0.388848 -0.271946 0.287805 0.681406 -0.672945
-0.4563 0.206535 0.0521563 -0.863934 0.459272 0.206608
0.0350671 0.30735 -0.410788 0.158681 0.750049 -0.642065
0.0346886 -0.449986 0.222885 0.107235 -0.83591 0.538288
0.336748 -0.243069 -0.264714 -0.45111 -0.52338 -0.722892
-0.395909 0.170539 0.27595 -0.891539 0.227312 0.391775
-0.168313 -0.387176 0.278744 -0.287805 -0.681406 0.672945
-0.232747 0.102069 0.301899 0.45111 0.52338 0.722892
0.197785 0.261622 -0.0822865 0.45111 0.52338 0.722892
0.194771 -0.213133 0.263322 0.45111 0.523381 0.722892
-0.112427 -0.366793 0.320688 -0.202261 -0.728961 0.653993
-0.359478 0.258852 0.257772 -0.190634 0.626187 0.756008
0.135985 0.156835 -0.0239962 -0.487363 -0.534088 0.690816
-0.0791154 0.162691 0.0562586 0.709136 -0.702001 0.0657296
-0.143445 -0.347127 0.110282 -0.45111 -0.52338 -0.722892
-0.154122 0.10051 -0.207148 -0.45111 -0.52338 -0.722892
-0.0973981 0.153524 -0.280929 -0.45111 -0.52338 -0.722892
-0.257196 -0.0419481 0.421423 0.43346 0.516479 0.738486
-0.370527 -0.0439499 0.0324867 -0.45111 -0.523381 -0.722892
-0.0995392 -0.319622 0.375965 -0.24534 -0.70606 0.664295
0.240512 -0.211873 -0.227245 -0.45111 -0.52338 -0.722892
-0.206886 0.00393897 -0.0654055 0.774121 -0.541969 -0.327119
0.0601745 -0.318311 -0.0376466 -0.45111 -0.523381 -0.722892
-0.407175 0.290779 -0.106107 -0.709136 0.702002 -0.0657303
-0.170752 -0.26575 0.068405 -0.45111 -0.52338 -0.722892
-0.418771 -0.0166892 0.27243 -0.839926 -0.0248451 0.542132
0.287226 0.0849582 -0.420837 0.686084 0.314658 -0.655956
-0.0524839 -0.340034 0.368303 -0.158681 -0.750049 0.642065
-0.120438 0.105055 0.229652 0.45111 0.523381 0.722892
-0.357854 -0.116369 0.0770107 -0.45111 -0.52338 -0.722892
