ply
format ascii 1.0
comment Created by Open3D
element vertex 128
property double x
property double y
property double z
property double nx
property double ny
property double nz
end_header
0.23897 -0.183495 0.0792798 0.919235 -0.378582 0.108088
0.0497474 0.226935 -0.0168405 0.369558 0.567516 -0.735766
0.201243 -0.219888 0.27747 0.849548 -0.465107 0.248885
-0.373548 -0.20454 0.349727 -0.320242 -0.602255 0.731255
-0.108355 0.0236807 0.445238 0.191764 0.639969 0.744087
-0.0525438 0.168224 0.273807 0.172788 0.709348 0.683352
0.181127 -0.148634 0.430631 0.891245 0.134303 0.433181
0.131834 -0.404713 0.0749457 0.622804 -0.682235 -0.382976
-0.119065 0.188185 -0.122786 0.452326 0.513171 -0.729423
0.11753 0.157087 -0.248884 0.384753 -0.789499 -0.478181
-0.342746 -0.0495819 0.0323964 -0.922351 0.373382 -0.099274
-0.169181 -0.377689 0.0171028 -0.153446 -0.682715 -0.714391
-0.0505412 -0.482723 0.264017 -0.405 -0.535854 0.740835
-0.22067 0.217532 -0.102512 -0.923714 0.371266 -0.0944189
0.156219 0.296839 -0.36991 0.299266 0.612893 -0.731301
-0.270096 -0.382785 0.0530132 -0.257988 -0.605991 -0.752474
0.165265 -0.322044 0.19034 0.920848 -0.376906 0.0999034
-0.206478 -0.428558 0.240281 -0.299414 -0.657336 0.691564
0.0904924 -0.191666 0.56814 -0.354987 -0.581133 0.732304
0.282178 0.0771695 -0.0370714 0.280871 0.614229 -0.737451
-0.403847 -0.152842 0.189364 -0.939786 0.340823 0.0253242
-0.110991 0.106111 0.361875 0.136171 0.728014 0.671902
-0.190547 -0.246233 0.389637 -0.358798 -0.586433 0.726196
-0.350084 -0.0423862 0.152928 -0.948133 0.315258 -0.0406891
0.00149251 0.253541 0.168838 0.228939 0.722215 0.652681
-0.379701 -0.0827511 0.2625 -0.925497 0.37867 0.00805066
0.245101 -0.209133 -0.11953 0.904965 -0.406107 0.126947
-0.227854 0.0623505 0.440026 0.13738 0.8 0.58406
-0.219156 0.239086 -0.00815356 -0.933573 0.350825 -0.0732335
0.0155868 -0.116617 -0.31727 0.297259 0.628736 -0.71856
0.181819 0.0675242 -0.127135 0.286825 0.629306 -0.722291
-0.102318 -0.082635 -0.313725 -0.125581 -0.624559 -0.770815
0.207685 -0.21768 0.171535 0.925003 -0.376325 0.0524252
0.099087 0.256809 -0.294509 -0.846235 0.530987 0.0440306
-0.375864 -0.0341972 0.357478 -0.922683 0.371923 -0.101636
0.161759 -0.261736 -0.208688 0.418843 -0.806923 -0.416468
0.170996 0.143325 0.225699 0.315612 0.662919 0.678916
0.135995 -0.332595 -0.060157 0.491834 -0.790339 -0.365328
-0.0819887 -0.293844 0.406364 -0.205445 -0.697025 0.686985
-0.389665 -0.333893 0.232406 -0.361901 -0.57657 0.732526
0.113997 -0.400325 0.386515 0.869742 -0.458404 0.182795
-0.0287777 -0.124709 0.566967 -0.28294 -0.679921 0.6765
0.0272398 0.112895 0.309971 0.180313 0.687881 0.70307
-0.116501 -0.382435 0.320548 -0.285935 -0.638095 0.714895
0.0309281 -0.205659 -0.224935 -0.227352 -0.595587 -0.770446
-0.297538 -0.0134975 -0.212982 -0.918015 0.375444 -0.127636
-0.117392 0.318545 0.140854 0.197397 0.713489 0.672285
0.0584473 0.18479 0.221288 0.352384 0.56428 0.746601
0.0142109 -0.258859 0.481642 -0.502539 -0.486185 0.714898
-0.121526 0.24804 0.219083 0.172642 0.727327 0.664221
-0.312051 -0.276462 -0.0463436 -0.668869 -0.298449 -0.680839
0.0783466 -0.288471 -0.158543 -0.155876 -0.722899 -0.673142
-0.227167 -0.0831042 -0.279068 -0.160734 -0.689296 -0.706424
-0.119433 0.27228 0.0456044 -0.406085 0.820875 0.401571
0.27688 -0.112191 -0.0324918 0.929035 -0.35931 0.0882614
-0.204044 0.251379 0.117828 -0.578701 0.690428 0.434068
-0.118328 0.0931786 -0.205346 0.372086 0.567651 -0.734387
0.0927833 0.160321 -0.0876187 0.292461 0.613429 -0.733601
-0.438796 -0.220355 0.253794 -0.958068 0.280804 -0.0570582
0.00326753 -0.561766 0.166687 0.466392 -0.643762 -0.606671
-0.274473 -0.211911 -0.126125 -0.690727 -0.342377 -0.636925
0.181064 0.13636 -0.045359 0.818891 0.235929 0.523216
-0.0531759 0.0158469 -0.239031 0.403219 0.538272 -0.740052
-0.114541 -0.178111 0.486612 -0.284314 -0.618761 0.732326
0.107923 0.302269 0.0862405 0.209816 0.705592 0.676844
-0.0144088 0.335052 0.0405839 0.261446 0.651862 -0.711844
-0.308093 -0.0197244 0.533581 -0.284456 -0.627703 0.72462
-0.0811686 -0.31935 -0.0745086 -0.253723 -0.654702 -0.712032
0.255949 0.00130306 -0.111709 0.205079 0.669859 -0.713604
0.226389 -0.0730596 -0.186527 0.391164 0.566207 -0.725535
0.278484 0.156959 0.183949 0.23859 0.73161 0.638609
0.246791 0.244347 0.0857062 0.264273 0.648108 -0.714224
-0.387822 -0.15704 0.0350427 -0.917698 0.375126 -0.130811
-0.469639 -0.324641 0.156558 -0.875728 0.436159 -0.207041
0.0314268 -0.450867 0.0548279 0.377779 -0.789584 -0.483571
-0.235615 0.014733 -0.323436 0.251747 0.662596 -0.705401
-0.0998288 0.380503 0.0513632 -0.409072 0.798165 0.442259
-0.301216 0.0433323 -0.0170054 -0.887878 0.427907 -0.16902
-0.138791 0.282416 -0.053997 0.299229 0.647968 -0.700428
-0.295562 0.0671196 0.361203 -0.554527 0.709858 0.434282
-0.257852 0.121117 -0.112609 -0.954902 0.296897 0.00370879
0.144461 -0.0134082 -0.172833 0.292871 0.654034 -0.697471
0.115313 -0.448899 0.18634 0.920873 -0.378347 0.094049
0.208835 -0.183733 -0.286668 0.27601 0.632824 -0.723431
0.267479 -0.0801853 0.160387 0.915128 -0.386461 0.114844
-0.159145 -0.516797 0.149007 -0.190754 -0.717594 -0.66983
-0.226621 0.132909 0.325722 -0.464085 0.766573 0.443837
0.110858 -0.11357 -0.274234 0.422783 0.529495 -0.735452
-0.377469 -0.310978 0.0491498 -0.716281 -0.35058 -0.603353
-0.0500278 -0.248488 -0.161223 -0.200544 -0.746929 -0.633939
0.0429721 -0.0312947 -0.232278 0.333122 0.566978 -0.753369
-0.423029 -0.225345 0.113306 -0.92362 0.374235 -0.0829107
-0.304796 0.00240047 -0.111852 -0.908113 0.366367 -0.202747
0.19076 -0.291747 0.0482005 0.92473 -0.380596 -0.00456322
0.0196501 -0.35237 -0.0647162 -0.221555 -0.672671 -0.705994
0.0478205 0.0372716 0.382516 0.212569 0.764962 0.607986
0.228731 -0.0172734 0.295406 0.746442 0.268131 0.60904
-0.0111816 -0.3864 0.359099 -0.290379 -0.643491 0.708237
0.319526 0.0508781 0.139256 0.969266 0.000403447 0.246013
0.0731435 -0.520547 0.274834 0.881215 -0.441148 0.16985
-0.297525 0.0845184 0.123969 -0.867406 0.432831 -0.24549
-0.200057 -0.0161431 0.514277 0.0502736 0.786239 0.615874
-0.179319 -0.153318 -0.216131 -0.269197 -0.746991 -0.607896
0.338747 0.171948 0.105621 0.784027 0.289842 0.548902
-0.246563 -0.126812 0.471604 -0.192425 -0.670945 0.716104
-0.2601 0.169249 0.0771846 -0.922746 0.372936 -0.0972582
-0.311193 -0.102959 -0.132624 -0.839579 -0.237496 -0.488571
-0.179585 -0.249675 -0.117719 -0.263085 -0.67165 -0.692584
0.111684 -0.104509 0.512838 0.175878 0.682269 0.709631
0.125071 0.225919 0.158228 0.217052 0.703005 0.677253
-0.302959 -0.275686 0.31744 -0.370067 -0.58122 0.72473
-0.0950563 -0.453913 0.071111 -0.244828 -0.682706 -0.688457
-0.0212424 -0.0413112 0.484356 0.257952 0.588207 0.766468
-0.403843 -0.0805027 0.43547 -0.38788 -0.554012 0.736627
-0.260696 0.091263 -0.216291 -0.959049 0.283239 0.000252575
0.132235 -0.382582 0.290189 0.93137 -0.364034 -0.00544942
-0.0232814 0.225404 -0.0925871 -0.595585 0.719485 0.35724
0.148886 0.216818 0.0131566 0.342418 0.584347 -0.735723
0.152675 0.0427936 0.343606 0.22945 0.612321 0.756581
0.122587 -0.0277222 0.424338 0.218327 0.714759 0.664419
-0.410876 -0.391218 0.101808 -0.731631 -0.298053 -0.613091
0.132771 -0.289482 0.50705 -0.334484 -0.587547 0.736823
0.0121303 0.0830324 -0.189027 0.405395 0.53265 -0.742925
-0.319951 0.0664863 0.255953 -0.887278 0.432136 -0.161235
-0.260597 -0.467152 0.130448 -0.179541 -0.741615 -0.646353
0.277958 -0.1641 -0.209893 0.915043 -0.381496 0.130983
0.220761 -0.10877 0.345997 0.927899 0.178717 0.327206
-0.23811 0.188264 0.19908 -0.559545 0.761103 0.328073
