ply
format ascii 1.0
comment Created by Open3D
element vertex 835
property double x
property double y
property double z
property double nx
property double ny
property double nz
end_header
-0.100272 0.378656 -0.305687 -0.48516 0.653104 -0.581442
-0.56417 0.20695 0.215249 -0.389156 0.890368 0.236225
0.185183 0.0866653 0.388849 -0.20991 0.0176672 -0.977561
0.14574 0.446463 0.208674 0.261573 -0.691368 -0.673491
-0.126306 -0.127529 -0.390498 0.122008 0.2186 0.968157
-0.252251 -0.509128 -0.179739 -0.271584 0.773454 0.572723
-0.326938 0.284001 -0.0865322 0.535073 -0.810874 0.237025
-0.158068 -0.368818 -0.284572 -0.14053 0.615883 0.775203
-0.182331 -0.478789 -0.261569 0.172099 -0.779084 -0.602835
0.511708 -0.0579788 0.219907 -0.456511 0.55696 -0.693825
0.251547 -0.170114 0.366379 0.428155 -0.428943 0.795419
-0.122193 0.197983 0.362802 0.116724 -0.583598 -0.80361
-0.176864 -0.131866 -0.38335 0.0992209 0.234432 0.967056
-0.0447373 -0.397552 -0.298615 0.208801 -0.681687 -0.701217
0.102298 0.138798 0.390377 -0.0731096 -0.281244 -0.956847
0.431215 -0.0349601 -0.429463 -0.124206 0.57298 0.810103
-0.457903 0.229281 -0.152027 -0.51759 0.737814 -0.433279
0.0384282 -0.143768 -0.450966 -0.0115799 -0.372181 -0.928088
-0.338846 0.0669989 -0.370932 -0.355503 0.322612 -0.877234
-0.058402 -0.265692 -0.398383 0.0495511 -0.469652 -0.88146
0.315603 -0.0121306 -0.507449 -0.0684571 -0.352706 -0.933227
0.199636 -0.334654 0.269198 0.507096 -0.652129 0.563543
-0.285628 -0.117619 -0.36472 0.224716 0.046267 0.973325
0.219242 0.24321 0.353175 -0.0683174 -0.305454 -0.949753
-0.141227 -0.298387 0.494623 0.442003 -0.240194 0.864257
0.504367 -0.211474 0.128501 0.529658 -0.802076 0.27593
0.552854 0.0541696 0.320942 0.446042 -0.372283 0.813911
0.0447522 0.180963 -0.485493 -0.25432 0.172663 -0.951582
0.0810319 0.250384 0.405319 -0.0142874 0.416654 0.908953
-0.623533 0.173101 -0.0329305 -0.493035 0.820108 -0.290413
-0.266398 0.185259 -0.282359 0.478864 -0.568515 0.668939
-0.287564 0.15999 -0.353005 -0.438424 0.45509 -0.775034
-0.0616235 -0.569933 0.121327 0.503252 -0.857333 0.108249
0.195361 0.273301 0.342545 -0.0047573 -0.396174 -0.918163
0.262095 -0.119102 0.384527 0.431471 -0.336832 0.836885
-0.172301 0.367037 -0.133642 0.560004 -0.797627 0.224025
-0.0879773 0.0963474 -0.40356 0.353906 -0.183133 0.917177
0.0405926 -0.0321229 0.474481 0.223554 0.0102269 0.974638
-0.329654 0.294656 0.254244 -0.319518 0.8416 0.435452
0.474625 -0.0878029 -0.375743 -0.219036 0.679072 0.700632
-0.192898 -0.536844 -0.104626 -0.281332 0.867698 0.409821
0.247271 -0.329434 -0.125204 -0.432332 0.856309 0.282532
0.364994 -0.299938 0.134337 0.528493 -0.779008 0.337404
-0.271939 0.0481327 -0.348895 0.375043 -0.278245 0.884264
0.514572 -0.0565242 -0.422528 0.864794 0.460909 -0.199235
-0.0105111 -0.454762 0.204915 -0.547213 0.774074 -0.318383
0.0674808 0.138381 -0.498654 -0.247965 0.0466321 -0.967646
-0.0995906 -0.497795 -0.0990872 -0.380332 0.858137 0.344889
-0.628835 0.132681 0.0674435 0.532422 -0.845899 -0.0313335
-0.409041 -0.0558349 0.536306 0.000833387 0.389757 0.920918
0.224404 0.585858 0.0260975 0.421149 -0.86419 -0.275335
-0.147292 0.267878 -0.369606 -0.513865 0.500582 -0.696678
-0.224083 0.314545 0.293447 -0.260431 0.80129 0.538619
-0.159619 -0.533412 -0.190106 0.299298 -0.791144 -0.533396
0.0901469 -0.3969 0.183859 -0.536431 0.776786 -0.329917
-0.0578841 0.115106 0.462614 0.0546606 0.332003 0.941693
0.347191 -0.227349 0.171854 -0.576445 0.700071 -0.42144
-0.519439 0.0834261 -0.266143 -0.454987 0.514519 -0.726813
-0.231381 -0.449807 0.407899 -0.437148 0.47573 -0.763271
-0.411625 0.254276 0.0534843 0.479915 -0.877172 0.0158586
-0.000496554 0.46643 -0.160556 0.537374 -0.808216 0.240865
0.236956 0.339491 0.310642 0.0464206 -0.463454 -0.884904
-0.0867638 0.406351 -0.170827 0.442679 -0.810704 0.383137
0.22094 0.0472097 -0.470351 0.107231 0.227066 0.967958
0.416405 -0.163256 0.190003 -0.564284 0.646671 -0.513226
0.171197 -0.072224 0.381545 -0.368078 0.221586 -0.903005
0.00933329 -0.438006 -0.129344 -0.341795 0.862836 0.37241
0.630942 -0.00769039 0.188789 0.845999 0.501675 -0.180575
-0.580402 0.0479911 -0.176741 0.482421 -0.594623 0.64319
-0.0215238 -0.360447 -0.256199 -0.191664 0.719681 0.667326
-0.013986 0.468139 -0.108789 0.514265 -0.843711 0.153893
-0.314476 0.242187 -0.187374 0.501415 -0.71481 0.487472
-0.521938 0.178845 0.316777 -0.311464 0.816371 0.486342
-0.0517506 -0.203679 -0.426151 0.0156713 -0.474341 -0.880202
0.412277 -0.309804 -0.0201625 0.487261 -0.869183 0.0842504
0.326192 -0.120908 -0.381631 -0.173386 0.638728 0.749643
-0.356547 -0.0803645 0.543081 0.0654602 0.383567 0.92119
0.105635 0.533478 -0.303103 -0.532281 0.708357 -0.463581
0.38377 -0.27176 -0.049282 -0.502272 0.863307 0.0492335
-0.0545448 -0.269169 0.471589 0.335794 -0.293001 0.895205
0.340199 -0.0804715 0.365447 0.371734 -0.329562 0.867873
-0.611578 0.127433 -0.0152822 0.526265 -0.814317 0.244815
0.110133 -0.0493562 -0.487573 -0.021382 -0.333694 -0.942439
-0.474172 0.0136633 0.438836 0.132897 -0.525508 -0.840345
0.0843911 -0.358032 -0.29607 0.26734 -0.692545 -0.670008
0.389511 0.0522354 0.382834 0.3475 -0.191068 0.918007
0.243765 -0.405275 0.0271909 0.493631 -0.865534 0.0847251
-0.200501 0.182296 -0.386251 -0.415627 0.380286 -0.826218
0.431749 -0.0427979 0.275395 -0.420549 0.414972 -0.806807
0.2843 0.13053 -0.54553 -0.17204 -0.124658 -0.977171
0.31532 -0.206234 0.227291 -0.509295 0.628685 -0.587685
0.355083 -0.262461 0.212566 0.487863 -0.67626 0.551962
0.0450916 -0.332987 0.386542 0.508043 -0.531478 0.677807
-0.0629813 -0.315688 -0.371407 0.146512 -0.556551 -0.817793
-0.0078603 -0.220567 -0.415232 0.036731 -0.434692 -0.89983
-0.054552 -0.47898 0.32464 0.527018 -0.688872 0.497702
0.146724 0.38855 -0.462152 -0.420392 0.415527 -0.806603
0.0384836 -0.51606 0.0686861 0.54654 -0.836721 0.0345179
0.038554 0.424118 0.272471 -0.250532 0.758589 0.601479
-0.146018 0.29466 0.265994 0.296905 -0.77574 -0.556843
0.492167 0.315871 0.349635 0.870774 0.446913 -0.204993
0.142806 0.252179 0.402499 0.000625588 0.359777 0.933038
-0.599836 0.156806 -0.108899 -0.494436 0.74421 -0.449093
-0.308015 0.0716216 -0.323705 0.407505 -0.348436 0.844116
0.160653 0.47018 -0.418196 -0.482927 0.564114 -0.669744
0.379828 -0.146763 0.238222 -0.464308 0.558009 -0.687782
0.110342 -0.00788998 0.407487 -0.252439 0.0385065 -0.966846
0.161963 0.573381 -0.103456 0.52501 -0.850292 -0.0369898
0.381588 -0.322802 -0.101054 0.471145 -0.86708 -0.161848
0.20681 -0.34959 -0.126702 -0.327391 0.922517 0.204395
0.157607 -0.393565 -0.206038 0.355723 -0.836248 -0.417314
0.440853 -0.115094 0.291889 0.358169 -0.521002 0.774772
-0.188014 0.150898 0.443744 -0.0710378 0.496717 0.865
0.382902 -0.261544 0.0333467 -0.464535 0.862426 -0.201069
0.283585 0.320085 0.318797 0.0189441 -0.444712 -0.895473
0.00049575 -0.539707 0.0666423 0.475022 -0.879269 0.0352088
0.491772 0.222638 0.313601 -0.247386 0.00505663 -0.968904
0.153482 0.145812 -0.521944 -0.189817 -0.00200194 -0.981817
0.221408 -0.0687649 0.419045 0.304878 -0.196498 0.9319
-0.0590548 -0.321671 0.449934 0.463154 -0.353275 0.812825
-0.028568 -0.492558 0.113976 -0.54105 0.835505 -0.095899
0.141581 0.544583 -0.322145 -0.503625 0.710243 -0.49185
0.193467 0.646032 -0.0986166 -0.500384 0.865796 0.00354085
-0.340434 -0.180455 -0.401339 -0.212596 -0.0479163 -0.975965
-0.248954 -0.172553 -0.418331 -0.15618 -0.143773 -0.977209
-0.0981574 0.463898 -0.158161 -0.483911 0.824487 -0.293343
0.627723 -0.0384877 0.229413 0.453868 -0.545298 0.704736
0.240269 0.0496307 -0.525729 -0.0661662 -0.221737 -0.972859
0.418565 -0.250417 -0.0293702 -0.495362 0.866123 -0.066693
0.127136 0.452879 -0.330433 0.452175 -0.580903 0.676823
0.108476 -0.0505244 0.404184 -0.330296 0.141792 -0.933166
-0.0982091 0.101478 0.467512 0.0322653 0.266168 0.963386
-0.169974 0.353757 -0.272632 -0.499273 0.677361 -0.540286
0.10309 0.17025 -0.506672 -0.29029 0.0789452 -0.953677
0.057482 -0.388751 -0.18346 -0.325663 0.82772 0.456972
0.254013 0.187248 0.414922 0.127803 0.185583 0.974282
-0.0349121 -0.384382 0.328691 -0.538323 0.582409 -0.609104
-0.0949841 -0.092455 0.50676 0.202968 0.0506171 0.977876
-0.559602 0.161046 -0.00433465 0.44303 -0.841623 0.308862
0.00117996 0.110074 0.407458 -0.0148896 -0.307817 -0.951329
-0.00437512 0.322381 0.284714 0.160376 -0.742597 -0.650253
0.0791557 -0.31604 -0.267011 -0.237001 0.762044 0.602594
0.259592 -0.12148 -0.395211 -0.0910278 0.469096 0.878443
-0.00737911 -0.485905 0.0627599 -0.5005 0.864412 0.04787
-0.554163 -0.110541 -0.279932 0.309452 -0.257127 0.915492
-0.069225 -0.472611 -0.127407 -0.417864 0.805289 0.420594
0.357181 -0.106096 0.278848 -0.451956 0.49162 -0.744342
0.056023 0.0708853 0.41195 -0.0738514 -0.230562 -0.970251
-0.634062 -0.0149999 -0.259912 -0.443023 0.457503 -0.770988
-0.497024 0.166174 -0.20093 -0.441241 0.652583 -0.615988
0.212295 0.589619 -0.174511 0.526958 -0.839658 0.131493
-0.0258306 0.157061 -0.414571 0.349024 -0.206881 0.913993
0.13649 -0.172137 0.421319 0.368486 -0.264241 0.891288
0.131908 -0.431863 0.191311 0.515816 -0.780972 0.352161
-0.264602 -0.354994 0.511931 -0.855423 -0.476218 0.203635
0.26818 0.247695 0.34738 -0.0674905 -0.249003 -0.966148
0.188224 0.432542 -0.458022 -0.418603 0.453586 -0.786785
0.305556 0.439525 0.255883 0.138201 -0.541182 -0.829471
0.266057 -0.170057 -0.356213 -0.169746 0.614844 0.770164
0.322199 -0.358543 0.0394206 0.471965 -0.868175 0.153363
0.538524 -0.119204 -0.390749 0.265808 -0.747596 -0.608642
0.329356 0.407839 0.281528 0.074921 -0.484587 -0.871529
-0.393177 0.0600387 0.418752 0.119714 -0.560769 -0.819272
-0.0151932 0.406975 -0.25333 0.544624 -0.707735 0.449996
0.566949 -0.165584 -0.138889 -0.417401 0.903584 0.096502
-0.45596 -0.290172 -0.369806 -0.160819 -0.129335 -0.978473
0.205238 0.548346 -0.276569 0.542915 -0.738173 0.40043
0.13537 -0.463402 -0.0156545 0.543853 -0.831305 -0.114702
-0.504994 0.116511 0.328948 0.317851 -0.733938 -0.600255
-0.0932484 0.172714 -0.439471 -0.384099 0.327316 -0.863326
-0.0863817 0.0491348 -0.411338 0.262136 -0.0701124 0.962481
-0.189878 0.403427 0.00144567 -0.610145 -0.453106 0.649937
-0.537625 0.204909 -0.0936372 -0.550518 0.775742 -0.308472
0.025377 -0.468077 0.0816192 -0.468196 0.867012 -0.170533
0.137706 -0.0844097 -0.475286 -0.0210565 -0.324552 -0.945633
0.357489 -0.129304 0.33147 0.39322 -0.463873 0.793851
-0.164849 0.30995 0.32005 -0.244468 0.715269 0.654696
-0.128611 -0.580967 -0.0811641 0.401021 -0.86966 -0.287878
0.0585417 0.126426 -0.44587 0.271359 -0.0817827 0.958997
0.404825 -0.0322069 0.35324 0.400812 -0.348719 0.847198
-0.165767 -0.152122 0.47195 -0.289365 -0.02692 -0.95684
0.280807 -0.319715 -0.0901131 -0.456781 0.868343 0.193216
0.301216 -0.350281 -0.1559 0.399221 -0.8876 -0.229759
0.0690885 0.479466 0.215091 -0.324724 0.715719 0.618304
0.160064 -0.232035 -0.32714 -0.199148 0.688451 0.697406
-0.268351 0.279102 -0.177204 0.510056 -0.736785 0.443836
-0.277181 -0.0476016 0.475932 -0.0373819 -0.338876 -0.940088
-0.161413 0.195639 0.418207 -0.0985145 0.542845 0.834035
0.339982 -0.0104742 0.329773 -0.359496 0.266381 -0.894317
0.474042 0.278024 0.367837 0.160422 0.132856 0.978066
0.149317 -0.436486 0.146746 0.513226 -0.817419 0.261581
-0.133085 0.234972 -0.395634 -0.434483 0.422562 -0.795403
0.0466406 0.511597 0.15227 -0.332091 0.84887 0.41126
0.0502216 0.319678 0.301762 0.12844 -0.627806 -0.7677
-0.636292 0.181256 0.0264606 -0.506149 0.842117 -0.186152
0.108154 -0.365997 0.217823 -0.516144 0.735683 -0.438596
0.0271977 -0.313203 -0.357583 0.0913881 -0.677342 -0.72997
-0.153001 0.225776 0.33396 0.11686 -0.60368 -0.788616
0.559711 0.00442486 0.29478 0.412496 -0.405915 0.815524
0.231267 -0.254926 -0.355596 0.276607 -0.661657 -0.696921
-0.121745 0.305356 -0.353845 -0.446742 0.520502 -0.727667
0.018296 0.138212 -0.432442 0.290455 -0.113062 0.950186
0.65166 -0.168975 -0.00304629 0.619756 -0.76637 0.169056
-0.00923615 0.412452 0.175103 0.362807 -0.770062 -0.524762
0.224768 0.171505 -0.487603 0.254212 -0.0353535 0.966502
-0.325704 0.221999 0.35654 -0.254011 0.671038 0.696553
-0.00811406 0.135474 0.452601 0.0422102 0.322051 0.945781
-0.0741236 -0.0298901 0.498294 0.150524 0.144207 0.978032
0.6213 -0.176362 -0.222216 0.387362 -0.882976 -0.265149
-0.262129 0.0073343 -0.361437 0.267541 -0.162155 0.949804
0.31276 -0.157924 -0.423223 0.133967 -0.643541 -0.753596
-0.53443 0.0790199 -0.180502 0.480616 -0.627785 0.612287
-0.307436 0.281662 -0.239267 -0.481475 0.682434 -0.549969
-0.544571 0.130869 0.275267 0.346448 -0.823471 -0.449298
-0.0190852 0.271895 -0.374785 0.431246 -0.417089 0.80004
-0.267388 -0.604959 -0.0712701 -0.874392 -0.450026 0.181428
0.293959 -0.302082 -0.133322 -0.428369 0.850944 0.303964
0.435252 -0.246482 -0.263304 0.373938 -0.78332 -0.496568
0.00945252 -0.158245 -0.392766 0.0160981 0.33057 0.943644
0.0295919 0.186251 -0.428772 0.244787 -0.199602 0.948809
-0.214699 0.0543218 0.435185 0.026305 -0.397062 -0.917415
-0.594866 0.2082 0.0522222 -0.476484 0.87405 -0.0948658
0.305488 -0.12237 -0.448183 0.0592612 -0.499309 -0.864395
0.563654 -0.105401 -0.324349 0.864688 0.455434 -0.211884
0.27747 -0.00351371 0.410199 0.263803 -0.115113 0.957683
-0.164239 0.424739 -0.155254 -0.482841 0.797825 -0.361027
-0.0220155 0.464106 0.183971 -0.364056 0.807375 0.464338
-0.441872 0.217352 -0.0674623 0.526752 -0.801408 0.283333
-0.442123 -0.162618 -0.328724 0.252914 -0.0412318 0.96661
0.108023 0.343154 0.355751 -0.0949856 0.560417 0.822746
0.266998 -0.112774 0.325182 -0.448978 0.409763 -0.794049
0.116012 -0.379387 0.292257 0.440638 -0.661318 0.607039
0.222921 -0.41276 -0.0511296 0.454202 -0.86818 -0.199913
0.0137616 -0.450968 -0.0859853 -0.426833 0.860812 0.277157
-0.314115 0.361964 -0.0342728 -0.496969 0.855397 -0.146005
-0.548656 0.0977074 0.382704 -0.84447 -0.495926 0.202307
0.533772 0.230808 0.326488 0.846754 0.488868 -0.209799
0.604285 -0.148555 -0.0963387 -0.479541 0.877079 -0.027809
0.178569 0.280575 0.393376 0.00721134 0.370766 0.928698
0.355315 -0.191907 -0.379963 0.20982 -0.714986 -0.666911
0.28956 0.321522 -0.492803 0.80097 0.567602 -0.190463
0.265377 -0.362971 0.143907 0.521735 -0.798084 0.30142
0.0234414 0.307133 0.367634 -0.18716 0.592435 0.783576
0.128639 -0.357096 -0.282074 0.234048 -0.711313 -0.662764
0.162765 -0.364812 -0.249827 0.305097 -0.784309 -0.540163
0.0620479 -0.418151 -0.231223 0.301409 -0.814847 -0.495153
0.00475446 -0.510767 -0.0977914 0.370021 -0.895606 -0.246929
-0.405458 0.2975 -0.0774677 -0.441481 0.852729 -0.279191
-0.0624374 -0.498672 -0.0541603 -0.431182 0.850879 0.300147
-0.582965 0.134496 -0.16175 -0.453556 0.688114 -0.566379
-0.420888 0.257467 -0.149659 -0.55426 0.761369 -0.336324
0.192548 -0.118707 -0.403848 -0.0694043 0.500638 0.86287
-0.188923 -0.641205 0.127526 0.496912 -0.86562 0.0614873
-0.244394 0.104371 -0.340643 0.374229 -0.336389 0.864173
0.0204697 0.533761 -0.182016 -0.524662 0.822559 -0.219378
0.573784 -0.127513 0.0781692 -0.476577 0.766874 -0.42986
-0.00644492 0.472124 -0.271922 -0.607852 0.715563 -0.344217
0.552343 -0.11698 0.120136 -0.469702 0.715482 -0.517171
-0.222981 -0.317549 -0.376445 0.0706417 -0.467013 -0.881424
-0.166399 -0.522297 0.277527 -0.47578 0.731347 -0.488637
0.493387 -0.258497 -0.139297 0.40628 -0.905725 -0.120823
-0.378777 -0.315542 -0.317891 0.062174 0.285374 0.956397
-0.109079 0.128304 -0.444921 -0.340152 0.216121 -0.915198
0.322181 -0.158301 0.267624 -0.447844 0.520608 -0.726914
0.189481 0.476768 0.189472 0.264917 -0.75075 -0.605139
-0.0599342 0.151497 -0.456837 -0.330574 0.184633 -0.925544
0.187421 0.623693 -0.22 0.861041 0.466263 -0.202996
-0.148442 -0.427333 0.441334 0.469211 -0.489718 0.734858
0.132798 0.605081 0.00128458 -0.396885 0.906536 0.143785
0.0974855 0.296834 -0.419696 0.401221 -0.344513 0.848724
-0.0869569 -0.0550579 -0.408345 0.169019 0.101912 0.98033
-0.209783 0.311757 -0.191691 0.483776 -0.749766 0.451455
-0.152877 0.391582 0.0678656 0.394252 -0.912434 -0.109677
-0.192981 -0.0136301 0.513654 0.0124388 0.300845 0.953592
-0.355265 -0.12139 -0.400652 -0.270523 0.0336356 -0.962126
-0.144695 -0.530534 0.230912 -0.48014 0.787269 -0.386875
-0.309209 -0.469822 -0.2363 -0.180223 0.649585 0.73862
0.296476 -0.135012 0.299456 -0.38922 0.445358 -0.806328
0.209816 -0.31358 -0.206299 -0.328841 0.8523 0.406753
0.431601 -0.240083 0.169687 0.499681 -0.740528 0.449374
-0.355355 -0.370233 -0.356227 -0.00151387 -0.39838 -0.917219
0.556762 0.198467 0.348691 0.827683 0.522259 -0.205394
0.259866 -0.373071 -0.150328 0.498048 -0.782254 -0.374202
0.371357 0.487501 0.24162 0.89954 0.390656 -0.195489
-0.157612 -0.386855 -0.333572 0.136536 -0.60586 -0.783767
-0.46802 0.15112 0.382058 -0.253508 0.685739 0.682272
0.253534 -0.284696 -0.315954 0.254141 -0.72145 -0.644144
0.101855 -0.0156975 -0.441692 0.0614318 0.269227 0.961115
0.296837 -0.244919 0.196101 -0.506135 0.685239 -0.523712
-0.604445 0.201274 0.127342 -0.492381 0.852022 0.177818
-0.329782 -0.0348249 0.473237 -0.0265419 -0.352864 -0.935298
0.0440819 0.511468 -0.266744 -0.499246 0.757879 -0.419968
0.258778 0.602983 0.0371838 0.867455 0.434012 -0.243218
-0.4449 0.27486 0.169185 -0.445455 0.860114 0.248542
-0.118076 -0.245739 -0.352135 -0.0444351 0.440346 0.896728
0.210539 0.451881 0.294827 -0.163593 0.654124 0.738484
-0.0880147 -0.525074 0.0071919 -0.45598 0.881013 0.126087
-0.0522936 -0.0665327 0.49656 0.232548 0.0262769 0.97223
0.101292 0.505601 -0.333929 -0.550159 0.694216 -0.4641
0.580638 -0.114277 -0.286327 0.844385 0.489856 -0.216923
0.198498 0.325139 0.372289 0.0159313 0.37854 0.925448
-0.126936 0.356972 -0.213738 0.508225 -0.737395 0.444923
-0.41764 -0.338915 -0.361141 -0.0899614 -0.198519 -0.97596
-0.546642 0.103555 -0.229811 -0.496628 0.609262 -0.618191
0.634945 -0.141628 0.093443 0.406179 -0.805897 0.430754
-0.329599 0.111105 0.393323 0.147523 -0.608364 -0.779827
-0.44917 0.0429802 0.482595 -0.128435 0.570903 0.810909
0.0449692 0.258867 -0.470629 -0.391756 0.315976 -0.86411
0.37256 -0.139077 -0.424031 0.188091 -0.605856 -0.77302
0.0349541 0.0590916 -0.443367 0.229924 -0.0561041 0.97159
0.206627 -0.286513 -0.33304 0.232324 -0.73747 -0.634163
0.313221 -0.0967984 0.311019 -0.442901 0.420825 -0.791672
-0.0166862 -0.479435 -0.040517 -0.449485 0.862523 0.232416
0.553723 0.186332 0.309395 0.842993 0.492938 -0.215349
-0.0652454 0.473951 -0.189427 -0.494677 0.80514 -0.327176
-0.0764722 0.314918 0.345223 -0.215007 0.635596 0.741479
-0.559211 0.14662 0.223966 0.415051 -0.837778 -0.35477
0.0889212 0.544124 -0.259839 -0.569555 0.738101 -0.361682
-0.10322 -0.0218242 -0.460508 -0.163402 -0.102159 -0.981256
-0.17991 -0.480176 -0.183352 -0.192528 0.78426 0.589804
0.311831 -0.0375816 -0.441466 -0.0568064 0.482559 0.87402
0.398613 -0.068879 0.341673 0.420735 -0.405659 0.811432
-0.427227 0.297559 0.125406 -0.453503 0.886848 0.0885186
-0.13035 -0.608982 0.0370727 0.467881 -0.879753 -0.0843896
0.151578 -0.23694 0.320645 -0.485839 0.478222 -0.731618
-0.573389 0.212546 0.165449 -0.417841 0.894439 0.159339
0.0939815 0.415649 -0.342911 0.484582 -0.597121 0.639239
0.289003 -0.338764 0.167455 0.535386 -0.765984 0.355851
-0.227134 0.17484 0.362292 0.185597 -0.667374 -0.721225
-0.284412 -0.0817561 -0.417222 -0.236262 0.0240589 -0.971391
-0.597611 0.178031 -0.0718383 -0.540745 0.805475 -0.242499
-0.0579075 0.301562 -0.332747 0.412452 -0.525799 0.743921
0.0468754 -0.445205 0.268746 0.59274 -0.648637 0.477419
0.156007 0.488492 0.1563 0.363589 -0.794635 -0.486167
-0.0488992 -0.523422 0.248027 0.525016 -0.755232 0.392406
0.210873 -0.423142 -0.00907557 0.516601 -0.851625 -0.088647
0.598806 0.0644196 0.243744 -0.406951 0.417637 -0.812386
-0.114475 -0.177877 0.459994 -0.310915 0.135253 -0.940765
-0.285056 -0.580214 -0.100705 -0.882878 -0.428127 0.192961
-0.0137115 -0.128288 0.486315 0.274404 -0.0869172 0.957678
0.454124 0.0385934 0.298746 -0.42122 0.345371 -0.838626
-0.387413 -0.251317 -0.335058 0.0669697 0.216327 0.974021
0.100361 0.578066 0.0359849 -0.447409 0.859718 0.246395
-0.255798 0.346472 0.214425 -0.362528 0.833831 0.416293
-0.584814 0.01691 -0.269143 -0.406872 0.473606 -0.781122
0.0629495 -0.239171 -0.404428 0.111309 -0.552767 -0.825869
0.488539 -0.147694 -0.378081 0.292535 -0.7829 -0.549082
-0.265453 0.248474 0.350152 -0.247388 0.712611 0.656494
-0.465617 0.195571 -0.196175 -0.57038 0.670087 -0.475026
-0.254881 0.0878445 0.473559 -0.0743753 0.529447 0.845076
-0.263757 0.0280754 0.445042 0.0207156 -0.426342 -0.904325
0.344162 0.0269521 -0.525383 -0.0284255 -0.390954 -0.919971
-0.176804 -0.378701 0.420052 -0.377163 0.394468 -0.83794
0.548339 -0.235711 -0.0445772 0.486024 -0.86983 0.0847088
-0.0279118 -0.441107 0.249779 -0.508376 0.737057 -0.445309
0.0217198 -0.0489726 0.429726 -0.176725 -0.0362256 -0.983593
0.32445 0.138512 0.407802 0.203537 0.0628385 0.977049
0.239222 -0.317276 -0.169514 -0.381879 0.863482 0.329495
-0.0568814 -0.101031 -0.406814 0.103009 0.178034 0.978618
-0.304018 0.251092 -0.274292 -0.505057 0.625646 -0.594545
0.167164 -0.386821 -0.0262674 -0.477201 0.874899 0.0826469
0.442694 -0.285024 -0.144741 0.401687 -0.900029 -0.169101
0.245501 0.428369 0.319087 -0.132922 0.550842 0.823957
-0.648643 0.018721 -0.230726 -0.485847 0.520951 -0.701828
0.412545 -0.177995 -0.287877 -0.301397 0.816491 0.492445
-0.48119 0.097726 0.434862 -0.17234 0.684799 0.70806
0.0337482 -0.51534 0.107893 0.494235 -0.860286 0.125064
0.116609 0.545366 -0.0821618 0.489286 -0.872119 -0.00269279
-0.0515061 -0.55674 0.161364 0.492913 -0.834789 0.245284
-0.0511638 0.359389 0.308135 -0.160329 0.777007 0.608732
-0.088318 0.390578 0.256157 -0.282955 0.72514 0.627781
0.254121 -0.271305 0.205488 -0.507027 0.684699 -0.523556
-0.0539406 0.373154 -0.264321 0.541495 -0.687953 0.483222
-0.013625 0.309399 -0.418073 -0.343037 0.473573 -0.811205
-0.108538 0.0497818 -0.456303 -0.305108 0.0757522 -0.9493
0.110443 -0.21816 0.413757 0.417225 -0.381965 0.824637
-0.211995 -0.0695175 0.525084 0.0945189 0.196343 0.975969
-0.312991 -0.495646 -0.279481 0.0996314 -0.562468 -0.820794
-0.0430828 -0.0107033 0.441614 -0.147274 -0.14901 -0.977807
-0.263998 0.213364 0.314362 0.25473 -0.702599 -0.664429
-0.150961 -0.199024 0.51758 0.277661 -0.0841434 0.956987
-0.254743 -0.622172 -0.106747 0.358131 -0.799969 -0.481447
0.269841 -0.164896 -0.42628 0.158218 -0.614356 -0.773003
0.233583 -0.20357 -0.402385 0.140574 -0.633066 -0.761227
-0.358079 0.274399 -0.0475005 0.499288 -0.836059 0.227413
-0.0369112 -0.235171 0.414675 -0.329902 0.267398 -0.905352
-0.122779 -0.483251 -0.150602 -0.311208 0.827528 0.467276
-0.555417 -0.0102769 -0.29901 -0.385009 0.414999 -0.824344
-0.266127 -0.527198 -0.241155 0.268487 -0.702415 -0.659187
-0.472553 -0.338798 -0.318403 -0.825941 -0.539828 0.162504
-0.0781413 -0.040897 0.450273 -0.241649 -0.08978 -0.966202
0.184567 0.575016 -0.322096 -0.478872 0.714299 -0.510351
0.194686 0.475079 -0.362444 0.443652 -0.578095 0.684821
-0.113626 0.404214 -0.12445 0.538437 -0.818505 0.200337
0.126799 -0.0212022 0.453936 0.241906 -0.0340547 0.969702
-0.181979 -0.599431 0.277589 0.564106 -0.760433 0.321754
-0.165767 -0.611467 -0.0423163 0.438844 -0.848685 -0.295211
-0.608728 0.0604969 -0.140311 0.483146 -0.634881 0.602906
0.495484 -0.157676 0.211936 0.435714 -0.635024 0.637886
0.308754 -0.287108 0.225223 0.550138 -0.660564 0.510885
0.12075 0.491538 0.128927 0.343835 -0.826141 -0.446395
-0.429533 -0.318528 -0.31434 0.0789313 0.271402 0.959224
-0.031284 0.498389 0.100308 -0.404178 0.827174 0.390415
0.125119 -0.468447 0.0759147 0.478594 -0.864696 0.152472
0.310327 -0.158535 -0.353241 -0.197191 0.616212 0.762495
-0.433164 0.0540986 -0.267366 0.446728 -0.459322 0.767762
-0.115579 -0.527133 -0.173621 0.325712 -0.803514 -0.498273
-0.331537 0.144315 0.361488 0.190679 -0.674742 -0.712997
0.375813 0.164694 0.345124 -0.211202 -0.0220038 -0.977195
-0.158329 -0.569699 0.0616984 -0.458894 0.888485 0.0033252
0.434721 0.150174 0.331158 -0.191413 0.0796995 -0.978268
0.0322983 -0.467146 -0.168913 0.365752 -0.835054 -0.410987
0.115412 -0.402847 -0.0901373 -0.435598 0.848173 0.301424
0.296908 -0.0539092 0.391319 0.250522 -0.169396 0.953176
0.267451 0.368634 -0.477987 0.853729 0.479519 -0.203
0.665215 -0.13561 0.0203192 0.872351 0.450462 -0.189966
-0.155698 0.346275 0.183454 0.376069 -0.830639 -0.410622
-0.401015 -0.0130806 0.518526 0.0109136 0.417562 0.908583
0.368303 0.421674 0.273079 0.037998 -0.576091 -0.816502
0.180074 0.352551 0.29871 0.0809439 -0.560301 -0.824325
0.534882 -0.150837 0.0841595 -0.530951 0.757313 -0.380221
0.343895 0.189474 -0.51225 0.105341 0.0801146 0.991204
-0.00751481 0.106175 -0.427568 0.217663 -0.070775 0.973454
-0.335038 0.0125246 0.507705 -0.0309018 0.468515 0.882915
0.221475 -0.209217 0.363563 0.435302 -0.454045 0.777403
0.589384 -0.208579 -0.0204831 0.520524 -0.849683 0.0842203
0.510216 0.250728 0.362312 0.281947 -0.00754556 0.9594
0.174676 0.521346 0.216229 -0.244025 0.795394 0.554798
0.0718588 -0.245785 0.4193 0.485361 -0.383275 0.785827
0.419944 0.137026 0.382702 0.256806 -0.0456123 0.965386
0.44328 -0.206836 0.200512 0.447872 -0.69197 0.566205
0.239131 -0.398902 0.0787093 0.495496 -0.850048 0.178611
-0.166367 -0.555376 0.194804 -0.482931 0.822556 -0.300298
-0.238766 -0.0589692 -0.427986 -0.220768 0.00322581 -0.975321
-0.262442 -0.373313 -0.351989 0.0847738 -0.467405 -0.879969
-0.613385 0.138524 0.196283 -0.84327 -0.505427 0.182862
0.151327 0.229967 -0.514794 -0.30985 0.157647 -0.937625
0.312017 0.261056 0.340145 -0.0928824 -0.245359 -0.964972
-0.512555 0.239676 0.192989 -0.41495 0.869461 0.268057
-0.362454 0.119346 0.442412 -0.135801 0.571886 0.809015
-0.0321019 0.508648 0.0600694 -0.395648 0.908462 0.134758
-0.399768 0.0816788 -0.335153 -0.39098 0.413882 -0.822093
0.400826 -0.201233 -0.350113 0.260997 -0.793727 -0.549434
0.293528 0.281923 -0.552321 -0.219804 0.10009 -0.970396
-0.314728 -0.0689679 -0.356941 0.277964 -0.0828466 0.957012
-0.174569 -0.384557 0.479099 0.422867 -0.391261 0.817373
0.208546 0.596305 -0.0796952 0.459009 -0.88834 0.0127375
-0.304355 -0.285111 0.509444 -0.853853 -0.475802 0.211063
-0.416684 -0.056857 0.482549 0.0219324 -0.423465 -0.905647
-0.0641349 0.0130406 0.490452 0.128179 0.183514 0.974624
0.284526 0.402277 0.280427 0.105093 -0.524928 -0.844634
-0.163284 -0.0892632 0.522133 0.201217 0.0857722 0.975784
-0.188003 0.0166527 -0.436111 -0.260834 0.0624792 -0.96336
-0.13707 0.321912 -0.254088 0.475177 -0.653622 0.589054
-0.515599 0.048143 -0.291784 -0.391051 0.409006 -0.824496
-0.354884 -0.172025 0.558785 -0.873692 -0.448583 0.188244
0.0335149 -0.396479 0.254164 -0.472159 0.706335 -0.527406
0.0693534 0.442898 0.17606 0.315898 -0.78125 -0.538383
0.303121 -0.234935 -0.351054 0.232996 -0.675885 -0.699208
-0.0624825 0.387841 -0.328209 -0.491434 0.62694 -0.604515
-0.0385944 0.422278 -0.30864 -0.51718 0.665334 -0.538382
0.22234 0.34572 -0.514427 -0.343809 0.253463 -0.904185
-0.620782 -0.026312 -0.216778 -0.860496 -0.467987 0.201332
0.0779226 0.469272 -0.266524 0.53267 -0.742711 0.405763
0.524495 -0.243958 -0.00958944 0.527706 -0.847204 0.0614206
-0.564542 0.103825 0.310032 0.315474 -0.773223 -0.550094
0.319831 0.243923 -0.53679 0.850959 0.483502 -0.205168
-0.146897 0.346661 -0.303298 -0.52645 0.612696 -0.589453
-0.0207294 -0.0378176 -0.421529 0.169915 0.119552 0.97818
0.0102239 -0.473393 0.0175294 -0.460387 0.887427 -0.0227288
0.578894 -0.160706 -0.0709942 -0.486859 0.87326 -0.0196219
-0.0127646 0.0292083 0.482482 0.119254 0.198568 0.972805
0.311847 -0.044579 0.332572 -0.383064 0.312267 -0.86934
-0.00845923 0.0230655 -0.43205 0.23089 0.0393332 0.972184
0.591071 0.106244 0.277596 0.878944 0.423347 -0.219624
0.134264 0.327942 0.309097 0.11631 -0.563731 -0.817728
0.214988 0.505919 0.165639 0.28492 -0.77534 -0.563621
-0.0711031 -0.553402 0.217284 0.569439 -0.787449 0.235931
-0.174975 -0.510587 -0.226201 0.245978 -0.698946 -0.671543
-0.154736 0.0293049 0.445465 -0.0224596 -0.348743 -0.936949
-0.0891351 0.322111 -0.294124 0.473361 -0.592989 0.651378
-0.383667 -0.156735 -0.34187 0.261791 -0.0236984 0.964834
0.146305 -0.318238 0.24493 -0.550681 0.677205 -0.487999
-0.25112 0.222568 -0.336292 -0.476519 0.535014 -0.697632
-0.480454 0.085238 -0.218057 0.43593 -0.538651 0.720986
-0.0627821 -0.354579 -0.277222 -0.203445 0.66566 0.717988
-0.299933 0.274211 -0.147682 0.54251 -0.755613 0.36706
0.381542 -0.328366 -0.0457691 0.508152 -0.855356 -0.10073
-0.262953 0.318151 0.257647 -0.335938 0.766789 0.546974
0.1906 0.518391 0.135646 0.325314 -0.815957 -0.477896
-0.132119 -0.0232148 -0.404 0.236615 0.000216918 0.971603
-0.481634 0.16745 0.260679 0.326066 -0.792672 -0.515123
-0.0894659 0.491491 -0.047535 -0.489456 0.871729 -0.0228399
0.307891 0.166082 0.355783 -0.142816 -0.0922284 -0.985443
0.287704 0.0172581 -0.519754 -0.0448244 -0.263025 -0.963747
0.125359 0.112954 0.446088 0.149041 0.127225 0.980612
-0.208116 -0.654131 0.0468145 0.484352 -0.859156 -0.165087
0.440725 -0.238062 -0.06328 -0.481389 0.875492 0.0421705
0.124832 -0.254062 -0.38222 0.168301 -0.499485 -0.849817
0.0245368 0.445956 0.237289 -0.240413 0.818058 0.522478
0.101521 -0.190365 -0.428812 0.0772369 -0.51016 -0.856605
0.507394 -0.16689 -0.341666 0.303585 -0.768572 -0.563146
-0.472751 -0.294222 -0.313952 0.147616 0.158643 0.976239
-0.0379733 0.430208 -0.192158 0.56211 -0.772233 0.296123
0.607349 -0.14515 -0.141739 -0.467384 0.867818 0.168653
0.0529414 -0.498014 -0.0697222 0.435079 -0.877489 -0.201792
0.11762 0.518523 0.188841 -0.309521 0.784044 0.538026
0.00867324 0.445395 -0.323152 -0.482008 0.649181 -0.588416
-0.0220008 -0.286689 -0.320032 -0.124554 0.56495 0.81567
0.391049 -0.00989141 -0.449865 -0.0785404 0.512152 0.855296
0.313186 -0.270466 0.141952 -0.501096 0.76633 -0.402046
-0.365446 0.212763 0.265261 0.329449 -0.774491 -0.540025
0.411836 -0.12061 -0.431828 0.153126 -0.688303 -0.709078
0.223551 0.427126 -0.478186 -0.474358 0.411213 -0.778388
0.48265 -0.130339 -0.317966 -0.304832 0.763474 0.569372
-0.0797753 -0.23798 0.43204 -0.359814 0.260137 -0.896026
-0.408583 -0.387976 -0.345048 -0.0165923 -0.347913 -0.93738
-0.131976 -0.274841 0.44116 -0.314744 0.249913 -0.915685
0.173395 0.314948 -0.446047 0.38647 -0.292481 0.874698
0.274835 -0.0368968 0.35079 -0.293935 0.264844 -0.918401
0.447851 -0.0568753 -0.474426 0.146178 -0.517435 -0.843145
0.35772 -0.340457 -0.00345164 0.457272 -0.883014 0.105779
-0.330354 -0.333127 -0.369495 -0.0450393 -0.395126 -0.917522
-0.00790377 0.0574956 0.422899 -0.101767 -0.147601 -0.983798
-0.340353 0.238828 -0.256066 -0.533786 0.620759 -0.574223
-0.224629 0.254928 -0.328984 -0.462846 0.527951 -0.712068
0.112536 0.0275808 0.456772 0.206467 0.0481817 0.977267
-0.478857 0.145327 0.301539 0.313119 -0.776288 -0.547113
-0.00554581 -0.0201987 0.484689 0.187963 0.0790813 0.978987
-0.484886 0.208031 0.136133 0.443305 -0.879626 -0.172452
-0.188348 -0.637464 0.172214 0.479785 -0.844612 0.237564
0.359436 -0.0446002 -0.492179 0.0981802 -0.487237 -0.867733
-0.530264 0.170726 0.191367 0.403687 -0.863773 -0.301551
-0.546784 -0.0589041 -0.265554 0.42476 -0.394051 0.815048
-0.471596 0.0575181 0.404923 0.191563 -0.651797 -0.733801
-0.146858 0.342267 0.289463 -0.224896 0.73031 0.645034
0.231207 0.20016 -0.539472 -0.249243 0.0367513 -0.967743
0.101618 0.394584 0.249739 0.21857 -0.693766 -0.686233
-0.349212 -0.20479 0.520108 -0.848973 -0.492234 0.192226
0.108085 0.12437 -0.511403 -0.195975 -0.0571722 -0.978941
0.169151 -0.264674 -0.292081 -0.238031 0.713425 0.659065
-0.417966 0.0164083 0.504011 -0.0768794 0.472785 0.877818
0.156992 0.170045 -0.47174 0.248468 -0.035062 0.968005
0.455536 0.0283007 -0.478411 0.897614 0.405942 -0.171755
-0.191577 -0.587555 0.0770677 -0.438206 0.898659 0.0196937
-0.307918 0.114253 0.454191 -0.079083 0.528707 0.845112
0.0120192 0.345962 0.338353 -0.181449 0.602346 0.777339
0.0986195 -0.00678454 -0.494726 -0.145623 -0.173577 -0.973994
0.209575 0.339957 -0.453685 0.433658 -0.327521 0.839447
-0.46457 -0.000831277 0.492113 -0.90573 -0.404395 0.126956
-0.123639 0.0908609 -0.447259 -0.304047 0.155922 -0.93981
0.397652 -0.217104 0.128646 -0.542481 0.751527 -0.375394
-0.495364 -0.0807639 -0.353587 -0.372378 0.213336 -0.903229
-0.468828 -0.121838 -0.316006 0.310629 -0.1672 0.93571
-0.186904 -0.184838 -0.372544 0.155878 0.177874 0.971629
-0.516686 -0.0914114 -0.289962 0.299762 -0.246734 0.921556
-0.267653 -0.0348374 -0.367213 0.278127 -0.0983501 0.955496
0.0387848 -0.456734 -0.0260291 -0.460648 0.864447 0.201332
-0.157072 -0.137664 0.521473 0.228019 0.00793691 0.973624
0.0298745 0.498019 -0.0926837 0.502839 -0.862443 0.057836
0.0628716 0.499397 -0.304762 -0.540273 0.704556 -0.460116
0.494706 0.12257 0.359704 0.27386 -0.165595 0.947406
-0.133556 0.137223 0.454598 -0.0363518 0.510013 0.859398
-0.421507 -0.124957 -0.32949 0.338041 -0.172299 0.925225
-0.110422 0.26977 -0.319215 0.421739 -0.536333 0.731084
0.597089 -0.206333 -0.125302 0.436363 -0.89921 -0.0317551
0.113115 -0.342242 0.330351 0.441774 -0.617035 0.651232
-0.0741259 0.386448 0.177296 0.360851 -0.828382 -0.428451
-0.057681 -0.501852 -0.174348 0.320404 -0.787234 -0.526881
-0.389478 0.29317 -0.118543 -0.482209 0.801923 -0.352695
-0.23207 -0.284455 0.531594 0.313924 -0.160298 0.935819
0.298245 -0.163613 0.342611 0.519643 -0.46007 0.719936
0.0341783 0.221398 -0.474693 -0.339954 0.25223 -0.905986
0.0244671 -0.517949 -0.0417629 0.490576 -0.840129 -0.231341
0.151944 -0.447417 -0.0578859 0.406215 -0.902563 -0.142725
-0.154596 -0.113024 0.46935 -0.194465 -0.12345 -0.97311
0.155257 -0.214674 -0.40755 0.111819 -0.622571 -0.774533
-0.18719 -0.570224 -0.0193741 -0.39532 0.8887 0.23224
-0.0218356 -0.328108 -0.351922 0.137869 -0.62145 -0.771227
0.316356 -0.349219 0.0872615 0.511073 -0.832886 0.212382
0.0856375 0.258707 0.345891 0.0348766 -0.447763 -0.893472
-0.171632 0.228172 -0.376213 -0.477992 0.487825 -0.730445
-0.531565 -0.232238 -0.323012 -0.835547 -0.499432 0.228972
-0.507101 -0.0147407 -0.32617 -0.501496 0.313369 -0.806413
-0.011449 -0.527177 -0.0630999 0.435364 -0.859529 -0.26771
-0.0665109 0.424396 0.0964007 0.403678 -0.883886 -0.236199
-0.422165 0.246144 0.0154724 0.502676 -0.861506 0.0715832
0.212328 0.0913823 0.433449 0.187458 0.050052 0.980997
0.152795 0.485274 -0.314485 0.516239 -0.69263 0.503748
-0.559932 0.207239 -0.0548339 -0.464553 0.831052 -0.305848
-0.0914924 -0.45017 -0.26189 0.263032 -0.683813 -0.680599
0.220102 0.0971978 -0.480123 0.111579 0.137049 0.98426
-0.184286 0.378765 -0.0409831 0.492917 -0.864206 0.100904
-0.192006 -0.504627 0.325749 -0.495301 0.685765 -0.533294
0.424756 -0.185563 0.155461 -0.493725 0.714473 -0.495746
0.0277138 0.538147 0.0512676 -0.452422 0.855819 0.250776
-0.426415 0.249578 0.261303 -0.361735 0.844406 0.395128
0.464331 0.361826 0.351754 0.087175 0.254177 0.963221
0.130306 0.509792 -0.256082 0.550316 -0.756785 0.352745
-0.380996 0.264838 0.267562 -0.321761 0.854642 0.407501
-0.653187 0.173219 0.111531 -0.86474 -0.460784 0.199757
-0.415451 -0.274473 -0.376831 -0.0874614 -0.196966 -0.976501
0.393625 -0.308247 0.0670242 0.496789 -0.8312 0.249612
0.0882038 0.505389 -0.213181 0.556793 -0.799478 0.225423
0.135236 0.275203 0.340199 0.0363828 -0.417598 -0.907903
-0.421693 0.0957477 0.381633 0.167739 -0.634712 -0.754323
0.153682 0.621732 -0.0285254 -0.509758 0.834501 0.209177
0.166964 0.532883 0.0900786 0.362334 -0.849408 -0.383692
-0.332163 0.143113 -0.27146 0.456568 -0.525424 0.717966
0.437864 -0.117505 0.218866 -0.485142 0.5936 -0.642087
-0.104195 -0.0921097 0.458779 -0.209474 -0.203477 -0.956409
0.115006 -0.119566 -0.408047 -0.0344816 0.399479 0.916094
0.0531728 0.214161 0.420576 -0.0223163 0.405782 0.913697
-0.487891 0.258188 0.1661 -0.413999 0.888765 0.196729
0.2887 0.599215 0.157134 0.831526 0.509203 -0.221983
0.392126 -0.0986572 -0.386756 -0.179682 0.731423 0.657825
0.0136841 0.0670092 -0.487726 -0.170565 -0.0337432 -0.984768
0.152127 0.0408181 -0.462132 0.139278 0.165305 0.976359
-0.238937 -0.0166547 -0.426599 -0.227563 0.009022 -0.973722
0.436439 -0.0897007 -0.385261 -0.173048 0.638712 0.749734
-0.241583 -0.454439 -0.295652 0.148006 -0.545782 -0.824752
0.0919493 0.367327 -0.444189 -0.364779 0.389819 -0.845563
-0.10714 0.149318 -0.383255 0.358468 -0.285489 0.888818
-0.0868414 0.432574 -0.0509413 0.432582 -0.879303 0.199246
-0.523355 0.18755 0.145505 0.4306 -0.898674 -0.0834816
0.356798 -0.245329 0.130884 -0.526449 0.756902 -0.387235
-0.0819097 -0.584017 0.0374862 0.49047 -0.864362 -0.110985
-0.200934 -0.278064 0.46734 -0.333518 0.211553 -0.918701
-0.280345 -0.311733 0.543534 0.278823 -0.170264 0.945128
0.54266 -0.0865974 -0.365042 0.88922 0.408124 -0.206695
0.152474 -0.0946259 -0.418366 -0.0454218 0.3523 0.934784
-0.155608 0.0580541 -0.442269 -0.338603 0.17006 -0.925434
-0.133919 -0.194339 -0.427608 -0.0606943 -0.295107 -0.953534
0.283166 -0.346795 -0.19091 0.352101 -0.877771 -0.324873
0.155224 0.0620646 0.447174 0.212874 0.0322374 0.976548
0.176739 0.271785 -0.516554 -0.378323 0.246098 -0.892361
-0.121114 -0.337177 -0.30217 -0.185016 0.594318 0.782659
-0.142314 0.425522 0.152762 -0.384858 0.864702 0.322761
0.1661 0.154459 0.433087 0.155216 0.149202 0.976548
-0.430292 -0.0221467 -0.306096 0.441995 -0.300315 0.845252
0.195135 -0.167754 0.33381 -0.424011 0.42306 -0.800771
-0.336262 0.312501 0.0371083 0.865392 0.411054 0.286587
-0.420687 0.153965 0.397187 -0.219055 0.676804 0.702817
0.0139454 -0.226229 -0.357947 -0.0809623 0.496939 0.864001
-0.0706948 0.248257 -0.35633 0.408687 -0.438006 0.800703
-0.553512 0.187996 0.271874 -0.296922 0.91573 0.270695
0.118698 -0.397323 0.142193 -0.465891 0.832825 -0.298912
-0.508826 -0.0493223 -0.280491 0.370914 -0.339136 0.864529
0.12974 -0.159144 -0.442272 0.0465398 -0.466319 -0.883392
-0.122134 0.243708 0.391831 -0.120916 0.578756 0.806486
-0.403433 0.248693 -0.0405039 0.484562 -0.837343 0.253094
-0.343701 -0.518546 -0.203376 -0.892729 -0.417313 0.169958
0.219886 -0.156462 0.389023 0.421155 -0.37591 0.825421
0.499391 0.0817377 0.291555 -0.387644 0.296973 -0.872662
0.507322 -0.197307 -0.0215707 -0.472362 0.868918 -0.147839
0.0920033 0.0945969 -0.456673 0.219799 0.0204577 0.975331
-0.149194 -0.467016 0.413274 0.452076 -0.511336 0.730865
0.162907 -0.368434 0.141346 -0.506989 0.801978 -0.315901
-0.670816 0.138172 -0.0435362 -0.861053 -0.463148 0.209956
0.337217 0.228746 0.396205 0.124046 0.234325 0.964212
-0.177855 -0.54486 0.357067 0.51104 -0.71525 0.476712
-0.0202554 0.438023 0.226292 -0.375608 0.722098 0.580942
0.481329 -0.0914902 0.210476 -0.459491 0.592861 -0.66135
0.205106 0.641649 -0.0130307 -0.448663 0.875622 0.17885
0.364521 -0.129218 -0.364148 -0.197073 0.657682 0.72706
0.163361 0.5633 -0.16653 0.496621 -0.848481 0.182887
0.621404 0.0431827 0.284051 0.435597 -0.415921 0.798288
-0.305009 -0.22713 -0.350108 0.104626 0.213924 0.971231
0.607771 -0.121289 0.0424033 -0.480873 0.810004 -0.335642
0.385854 0.0719655 0.33456 -0.292064 0.174897 -0.940271
0.394234 -0.282141 -0.2217 0.396958 -0.856107 -0.330915
-0.243819 0.399731 -0.0617822 -0.494299 0.85985 -0.127774
-0.33094 -0.156229 0.506154 -0.141498 -0.170854 -0.975083
0.114355 0.0285506 -0.454191 0.178063 0.125791 0.975946
0.247882 -0.329762 0.0930071 -0.525114 0.81791 -0.235113
-0.506941 0.198694 0.0138055 0.508303 -0.852824 0.11966
-0.442821 0.080276 -0.314425 -0.448555 0.453745 -0.770009
0.0809757 0.382498 0.322238 -0.166417 0.626971 0.76106
-0.285147 0.373044 -0.0699768 -0.493305 0.851083 -0.179741
0.161377 -0.450548 0.0319613 0.477902 -0.87514 0.0757585
0.237599 0.608288 -0.0371162 0.406812 -0.899458 -0.159625
-0.0313463 0.368002 -0.369092 -0.455032 0.562337 -0.690451
0.0263972 -0.301011 0.417639 0.358 -0.436104 0.82562
-0.269707 -0.125193 -0.419828 -0.145129 -0.0778709 -0.986344
-0.460658 0.149952 -0.24969 -0.570315 0.587035 -0.57457
-0.0580699 -0.471872 0.232979 -0.504849 0.760175 -0.408976
0.0166482 -0.0756818 0.481522 0.249759 -0.0328078 0.967752
0.191965 0.578484 0.142727 -0.338587 0.764079 0.549128
0.318968 0.549865 0.170402 0.862657 0.465915 -0.19684
-0.175409 0.440695 0.0149903 -0.452585 0.891667 0.00982246
-0.328524 -0.466705 -0.303503 0.0838295 -0.528444 -0.844819
-0.225907 0.400032 -0.100055 -0.522175 0.828748 -0.201272
-0.102099 0.41386 0.0676393 0.429941 -0.874946 -0.222757
-0.546579 -0.174492 -0.29871 0.286231 -0.11742 0.950939
-0.479693 0.189516 0.326356 -0.295043 0.801843 0.519613
0.370862 -0.197165 0.187884 -0.550845 0.67655 -0.488722
0.0368234 0.0932599 0.461479 0.0848082 0.252524 0.963867
0.349744 -0.0828482 -0.409673 -0.131775 0.602366 0.787268
-0.319876 0.286989 0.143749 0.423019 -0.860915 -0.282631
-0.0967973 0.418162 -0.259943 -0.535148 0.717739 -0.445498
-0.184031 -0.568469 -0.148962 0.307709 -0.837941 -0.450743
-0.367438 -0.00482711 0.459329 0.134546 -0.558479 -0.818534
0.1825 0.637201 -0.0525348 -0.419211 0.906481 0.0505356
0.0635459 -0.433259 0.131729 -0.492842 0.839236 -0.229758
0.11832 -0.161869 0.373098 -0.315769 0.319588 -0.893394
-0.462555 0.00723142 -0.337601 -0.357191 0.344837 -0.868045
0.241098 0.289537 0.335035 -0.0197116 -0.402162 -0.915356
-0.375206 -0.484651 -0.245208 -0.803942 -0.563444 0.190286
0.164757 0.396171 -0.405076 0.457585 -0.490796 0.741441
-0.0392773 -0.49818 0.284602 0.51186 -0.735825 0.443351
-0.588967 -0.108749 -0.324859 -0.409283 0.261986 -0.873986
0.226641 -0.20224 0.296344 -0.495758 0.532197 -0.686288
0.200635 0.320803 0.318954 0.0555615 -0.468955 -0.881473
0.303472 -0.310518 0.0324409 -0.516667 0.853147 -0.0720794
-0.406585 0.288938 0.187332 -0.435624 0.843418 0.314449
0.379215 -0.247724 0.0946335 -0.530512 0.7948 -0.294702
0.107871 -0.103797 0.450149 0.310252 -0.160462 0.937014
0.154048 0.576536 -0.28294 -0.51356 0.759892 -0.398523
-0.22437 -0.104442 -0.379195 0.196983 0.0533358 0.978955
-0.422562 0.0445932 -0.341715 -0.439337 0.375977 -0.815858
0.207423 -0.11638 0.409382 0.385835 -0.303831 0.871101
0.161375 0.0188487 0.396483 -0.21763 -0.0359258 -0.97537
-0.223265 0.352354 -0.0510233 0.496749 -0.855536 0.145943
0.116686 -0.280126 0.310327 -0.445089 0.5541 -0.703469
0.436767 -0.00184234 -0.509439 0.0528866 -0.460617 -0.886022
-0.0687652 0.0358728 -0.469599 -0.282212 0.0875259 -0.955351
0.0828214 -0.0654076 0.462575 0.263165 -0.0656277 0.962516
0.235642 0.364435 0.354042 -0.0425122 0.458047 0.887911
-0.544954 0.232288 0.00907501 -0.481368 0.865526 -0.13838
0.248174 -0.248599 0.31667 0.461663 -0.558989 0.688766
0.458286 -0.025601 0.334126 0.416907 -0.392497 0.819838
0.186371 -0.416861 -0.119852 0.417218 -0.862738 -0.285679
-0.403728 0.121604 -0.310628 -0.461614 0.493992 -0.736807
0.145473 0.278355 -0.448117 0.363648 -0.267764 0.892223
0.00122764 -0.130397 0.429398 -0.260721 0.113895 -0.958672
-0.136936 -0.16547 -0.381227 0.0747493 0.277152 0.957914
-0.278778 -0.147938 0.495147 -0.175885 -0.110527 -0.978186
-0.4462 0.280699 -0.0544149 -0.496458 0.837191 -0.229434
0.349095 0.456427 0.251876 0.119214 -0.567987 -0.814358
0.48635 -0.211946 -0.058373 -0.480967 0.86675 -0.131964
-0.449053 0.123133 0.341555 0.242842 -0.787068 -0.567055
-0.362919 0.334219 -0.020008 -0.518967 0.849739 -0.0928265
0.183815 -0.292399 0.243181 -0.434226 0.641134 -0.632767
-0.298147 0.320299 0.234634 -0.385503 0.766505 0.513671
-0.454293 0.259586 0.212921 -0.450437 0.824336 0.342894
0.243826 0.187384 0.36676 -0.178957 -0.168593 -0.969304
0.109028 -0.144199 0.440221 0.406831 -0.265669 0.874019
-0.585723 0.160978 0.0887398 0.470439 -0.881049 0.0493952
-0.0410537 0.193207 0.375022 0.0429216 -0.468097 -0.882634
-0.327335 -0.55644 -0.214128 -0.828836 -0.516339 0.215463
0.455356 -0.0788504 0.240066 -0.442149 0.520387 -0.730549
0.281691 0.247684 -0.497737 0.290465 -0.0875958 0.952868
-0.187446 -0.584207 0.119167 -0.494591 0.866093 -0.0725461
0.479091 -0.021178 -0.491202 0.861437 0.466912 -0.199796
0.505109 -0.0968553 -0.350871 -0.242537 0.76626 0.594997
0.354188 0.276082 0.332799 -0.121608 -0.209893 -0.970132
0.563156 -0.189284 0.0932501 0.503626 -0.78554 0.359566
0.0881796 -0.341625 0.271468 -0.536222 0.640532 -0.549713
0.423708 -0.283841 -0.182108 0.428292 -0.858196 -0.282958
0.207383 0.241648 0.408311 0.0698356 0.289889 0.954509
-0.558742 -0.0622617 -0.321727 -0.400121 0.316593 -0.860042
-0.378409 -0.402146 -0.286138 -0.0206011 0.425482 0.904732
0.158413 -0.164071 0.355566 -0.461033 0.376199 -0.803693
0.547246 -0.178212 -0.0992778 -0.560401 0.8206 0.112097
0.50581 0.0176445 0.325317 0.454651 -0.362702 0.813474
-0.490565 -0.171665 -0.3155 0.270195 -0.0735997 0.959988
-0.216916 -0.385534 -0.281773 -0.097297 0.511413 0.853809
0.0415291 0.431173 -0.364238 -0.440504 0.601651 -0.666312
-0.0566331 -0.0911581 0.448506 -0.232511 0.0108501 -0.972533
-0.150129 0.439345 0.105094 -0.422327 0.873277 0.242956
-0.00505075 0.534562 -0.0225417 -0.467286 0.88403 0.0115937
-0.246004 0.0668271 -0.408772 -0.416312 0.260236 -0.871184
0.189526 0.0425311 0.440187 0.186016 0.00616961 0.982527
0.386847 -0.187723 0.267945 0.425501 -0.599051 0.678297
-0.0455387 0.354161 0.239363 0.281273 -0.729938 -0.622957
0.340649 -0.0253994 0.381856 0.395853 -0.313149 0.863272
0.0567948 0.220342 0.36082 0.0185073 -0.424758 -0.905118
-0.278618 -0.438647 -0.253121 -0.146647 0.597231 0.78855
0.101431 -0.264664 0.395509 0.472046 -0.484634 0.736412
-0.296239 -0.394557 -0.342545 0.032307 -0.491618 -0.870211
-0.243557 -0.567999 -0.18572 0.248682 -0.816143 -0.5216
0.431931 -0.240705 -0.109713 -0.448919 0.88538 0.120721
0.506534 -0.175558 0.0633916 -0.52519 0.817501 -0.236363
-0.514434 0.0454287 -0.223766 0.471791 -0.531556 0.703464
-0.0328741 0.140051 0.400284 -0.0136755 -0.378443 -0.925524
0.221611 -0.101122 0.351083 -0.344291 0.332311 -0.878085
-0.24023 -0.641412 -0.0462968 -0.858308 -0.471163 0.203255
0.20238 0.388449 0.276431 0.133006 -0.49044 -0.861265
0.238117 -0.392507 -0.109983 0.428278 -0.876508 -0.219799
-0.226106 -0.48828 -0.266344 0.199277 -0.659592 -0.724725
0.655644 -0.0494765 0.197321 0.375535 -0.571945 0.729282
0.138177 0.201842 0.422694 0.0549985 0.298233 0.952907
0.395557 0.186762 0.390827 0.259518 -0.0228705 0.965467
-0.264387 0.238985 0.281284 0.289332 -0.7699 -0.568807
-0.0631393 0.165599 -0.397189 0.339326 -0.262363 0.90334
0.155888 -0.11955 0.429724 0.352691 -0.251557 0.901292
-0.250278 -0.556958 -0.116914 -0.225071 0.879606 0.419089
-0.280805 0.302845 0.156514 0.383928 -0.884433 -0.265286
0.349895 0.513661 0.210218 0.831393 0.513623 -0.212077
-0.132827 -0.412623 -0.309325 0.21605 -0.686971 -0.693825
-0.273816 0.350153 -0.164304 -0.522794 0.779524 -0.345007
-0.355156 0.307981 -0.138123 -0.472651 0.776285 -0.417112
-0.0724152 0.113096 -0.461412 -0.330614 0.180731 -0.926299
0.486179 -0.268545 -0.0972682 0.45939 -0.887796 -0.0278991
-0.0904717 0.215986 -0.423326 -0.310516 0.324081 -0.893617
0.58914 -0.125916 -0.249967 -0.360629 0.865688 0.347175
-0.0256126 0.0355985 -0.479027 -0.205015 -0.00962597 -0.978712
0.0435889 0.420768 -0.29513 0.51798 -0.67041 0.531269
0.549936 0.0986284 0.335119 0.323812 -0.244755 0.913915
-0.284152 -0.605432 -0.150008 -0.864222 -0.458338 0.207476
-0.313146 0.236242 0.258701 0.313361 -0.784325 -0.535387
0.190173 -0.00311136 -0.506089 -0.131084 -0.194183 -0.972168
0.419705 0.222065 0.383157 0.194757 0.025695 0.980515
0.348844 0.0292841 0.338302 -0.413373 0.288277 -0.863724
0.643269 -0.101095 0.0314159 -0.514096 0.800493 -0.308085
-0.0450778 -0.363637 0.4188 0.381732 -0.483594 0.787666
-0.326377 0.145908 -0.338902 -0.434824 0.453674 -0.777887
0.247662 0.326506 -0.471634 0.366125 -0.26042 0.893383
0.153539 0.327883 0.367202 -0.0379591 0.442571 0.89593
-0.216655 -0.624926 0.0972493 -0.831643 -0.519239 0.196877
-0.254165 0.325277 -0.0950268 0.503123 -0.816651 0.282752
-0.543475 0.181971 0.0880249 0.477043 -0.875841 -0.0730285
0.547381 -0.148168 -0.228974 -0.38614 0.855779 0.344294
0.408582 -0.0841644 -0.459791 0.135267 -0.530595 -0.836762
-0.646575 0.104615 -0.019972 0.509466 -0.798097 0.321693
-0.0535237 -0.11372 -0.456057 -0.195382 -0.153278 -0.968675
-0.176627 -0.117453 -0.437962 -0.170445 -0.135503 -0.976006
0.442544 -0.0647925 0.32066 0.342659 -0.407973 0.846252
-0.237232 0.269675 0.258975 0.30773 -0.784629 -0.538201
-0.330056 -0.0746569 -0.403332 -0.309527 0.0793698 -0.947572
-0.0958901 -0.527318 0.141618 -0.508436 0.846115 -0.159943
-0.394668 0.23109 0.316232 -0.321159 0.792884 0.517872
-0.484229 0.212895 0.283971 -0.405949 0.788054 0.462792
-0.0348286 -0.471311 -0.204784 0.335915 -0.748909 -0.571224
0.429997 0.0642199 -0.495233 0.832143 0.525216 -0.178007
