ply
format ascii 1.0
comment Created by Open3D
element vertex 128
property double x
property double y
property double z
property double nx
property double ny
property double nz
end_header
0.450665 0.0114299 0.0862794 0.244772 0.948702 0.200128
-0.337588 0.244958 -0.0566601 0.244772 0.948702 0.200128
-0.0805375 -0.158751 0.1594 -0.244772 -0.948702 -0.200128
-0.154047 0.105897 0.378072 0.244772 0.948702 0.200128
0.195471 -0.123521 -0.345189 -0.244772 -0.948702 -0.200128
0.449025 -0.282946 0.153589 -0.210543 -0.149474 0.96609
0.0785651 0.0279075 -0.385275 -0.520361 0.302699 -0.798497
0.302857 0.0639296 0.0181865 0.244772 0.948702 0.200128
0.226759 -0.23587 0.149131 -0.244772 -0.948702 -0.200128
-0.21277 0.00407454 0.483402 -0.844656 0.107296 0.524447
0.36314 0.02103 -0.320719 0.903459 -0.14825 -0.402224
0.184228 -0.143555 -0.236466 -0.244772 -0.948702 -0.200128
0.0840941 -0.0877553 -0.378513 -0.244772 -0.948702 -0.200128
-0.364463 0.00503133 0.282146 -0.73409 0.0464911 0.677459
-0.0365677 -0.112832 0.57212 0.804866 -0.313904 0.503641
-0.431862 0.15511 -0.0164195 -0.65452 0.313957 -0.687776
0.554033 -0.201254 0.161893 0.548118 -0.305653 0.778552
-0.255076 -0.122559 0.201306 -0.244772 -0.948702 -0.200128
0.0287479 -0.225961 0.379092 0.520361 -0.302699 0.798497
-0.475334 -0.0563225 0.156705 -0.244772 -0.948702 -0.200128
-0.377985 0.232008 0.0541378 0.244772 0.948702 0.200128
-0.0493832 -0.0184054 -0.468934 0.549757 0.0342218 -0.834624
0.25097 -0.142719 0.26583 0.520361 -0.302699 0.798497
-0.298234 0.140563 0.347037 -0.764629 0.0619591 0.641486
-0.199382 0.138043 0.281133 0.244772 0.948702 0.200128
0.15526 -0.236007 0.292838 0.520361 -0.302699 0.798497
0.053805 0.132589 -0.0026831 0.244772 0.948702 0.200128
0.458601 0.0358545 -0.039211 0.244771 0.948702 0.200129
0.218189 0.173442 -0.397401 0.244772 0.948702 0.200128
-0.329005 0.0912279 -0.350346 -0.520361 0.302699 -0.798497
-0.272251 0.247098 -0.146715 0.244772 0.948702 0.200128
0.33897 -0.243972 0.0502985 -0.244772 -0.948702 -0.200128
0.054479 -0.150638 -0.0441976 -0.244772 -0.948702 -0.200128
-0.191282 -0.106732 0.0482503 -0.244772 -0.948702 -0.200128
-0.0496076 -0.105086 -0.132831 -0.244772 -0.948702 -0.200128
-0.0901023 0.228817 -0.282839 0.244772 0.948702 0.200128
0.335142 -0.216773 -0.0739596 -0.244769 -0.948703 -0.200125
0.122363 0.0894172 0.118121 0.244772 0.948702 0.200128
-0.351757 -0.0334927 -0.102663 -0.244772 -0.948702 -0.200128
-0.195999 0.249343 -0.25062 0.244772 0.948702 0.200128
0.12425 0.0553814 0.27716 0.244772 0.948702 0.200128
-0.0812234 -0.11769 -0.0344102 -0.244772 -0.948702 -0.200128
0.434915 -0.0338068 -0.16262 0.864107 -0.119827 -0.488835
-0.508366 0.128935 0.0592901 -0.905948 0.297326 -0.301423
0.578617 -0.163605 0.0520277 0.789267 -0.075075 -0.609444
-0.0239761 0.128468 0.111986 0.244772 0.948702 0.200128
0.293469 0.132097 -0.293477 0.244772 0.948702 0.200128
0.308694 -0.115512 -0.396974 0.919816 -0.161931 -0.357375
-0.334625 0.148423 -0.112007 -0.65452 0.313957 -0.687775
0.356296 -0.0875789 -0.296062 0.903459 -0.14825 -0.402224
-0.232217 0.207262 -0.369433 -0.520361 0.302699 -0.798497
0.391042 0.0971146 -0.246984 0.244772 0.948702 0.200128
0.30028 0.0227 -0.44498 0.625991 0.00299288 -0.779824
-0.393091 -0.097788 0.252682 -0.244772 -0.948702 -0.200128
0.56957 -0.00780813 0.0320459 0.244772 0.948702 0.200128
-0.419718 0.0270102 -0.306355 -0.244772 -0.948702 -0.200128
0.493385 -0.277156 0.0559417 -0.490619 -0.0568408 0.869518
0.115564 0.176323 -0.353124 -0.520361 0.302699 -0.798497
-0.479321 0.0452714 -0.0213942 -0.65452 0.313957 -0.687776
0.00679759 0.135652 -0.425612 0.549757 0.0342217 -0.834623
-0.142321 0.159265 0.110741 0.244772 0.948702 0.200128
-0.201784 -0.0825509 -0.0535321 -0.244773 -0.948702 -0.200129
-0.170231 0.212274 -0.106412 0.244772 0.948702 0.200128
-0.0789128 -0.236623 0.52656 -0.244773 -0.948702 -0.200126
-0.268883 0.00776398 -0.3996 -0.244772 -0.948702 -0.200128
-0.245095 -0.139485 0.460711 -0.844656 0.107296 0.524447
0.249027 0.0115341 0.325572 0.520361 -0.302699 0.798497
0.493743 -0.197227 -0.0478661 0.789253 -0.0750673 -0.609463
0.0202632 -0.204855 0.254666 -0.244772 -0.948702 -0.200128
-0.3565 0.0341814 0.169583 -0.161718 0.243462 -0.956333
0.374479 -5.99546e-05 0.233928 0.244772 0.948702 0.200128
-0.0494733 -0.0772884 -0.264767 -0.244772 -0.948702 -0.200128
-0.0221227 -0.147067 0.466384 0.946445 -0.278607 0.163156
-0.263202 0.202904 0.051716 0.244774 0.948701 0.200132
0.11362 0.140629 -0.113955 0.244772 0.948702 0.200128
-0.481269 0.24588 0.114702 0.244772 0.948702 0.200129
-0.292691 0.0156956 0.367422 -0.793283 0.0772742 0.60393
0.0363903 -0.112935 -0.200805 -0.244772 -0.948702 -0.200128
-0.424654 -0.0433105 0.033037 -0.244772 -0.948702 -0.200128
-0.0117039 0.0698473 0.374866 0.244772 0.948702 0.200128
-0.100405 0.0681914 0.491204 0.244772 0.948702 0.200128
0.175781 -0.0654272 -0.481593 -0.32579 0.274881 -0.9046
0.0882978 0.168896 -0.21698 0.244772 0.948702 0.200128
-0.536338 0.0114199 0.101331 -0.919864 0.161974 0.357232
0.402246 -0.115032 0.17903 0.372833 -0.282632 0.883807
-0.334019 0.189573 -0.309797 -0.520361 0.302699 -0.798497
-0.460319 0.10571 0.182148 -0.667659 0.0152494 0.744311
0.384976 0.0737904 -0.128996 0.244772 0.948702 0.200128
0.00186725 -0.0065247 0.566955 0.940923 -0.282234 0.187102
-0.379497 0.134958 0.257802 -0.70174 0.0309085 0.711762
-0.371856 0.0673136 -0.208702 -0.818114 0.091311 0.56776
-0.148676 -0.0414695 -0.313233 -0.244772 -0.948702 -0.200128
0.501849 -0.0500523 0.201135 -0.210543 -0.149474 0.96609
-0.246549 -0.154754 0.343495 -0.244772 -0.948702 -0.200128
-0.109957 -0.200044 0.391131 -0.244772 -0.948702 -0.200128
0.024101 -0.0350957 0.455238 0.652563 -0.313853 0.689679
-0.113634 0.131679 0.206424 0.244772 0.948702 0.200128
0.223612 0.0364529 -0.354438 0.776946 -0.0684379 -0.625837
0.625385 -0.0497831 0.141303 0.954752 -0.271799 0.120719
-0.0416139 0.175304 -0.0884666 0.244772 0.948702 0.200128
-0.0302068 -0.0610456 -0.365331 -0.244772 -0.948702 -0.200128
0.420215 -0.201292 -0.152028 0.84121 -0.105154 -0.530386
-0.0885653 0.167697 0.00501929 0.244772 0.948702 0.200128
-0.0348399 0.244709 -0.425766 0.244772 0.948702 0.200128
0.487112 -0.0829767 -0.0729588 0.816237 -0.0902218 -0.570628
0.00021984 0.0928348 0.251311 0.244772 0.948702 0.200128
-0.160653 0.113501 -0.451613 -0.520361 0.302699 -0.798497
-0.088224 0.0137694 0.633778 -0.204938 -0.15112 0.967038
-0.180244 -0.179314 0.572458 -0.667585 0.0152159 0.744378
-0.387954 0.211011 0.165864 0.244772 0.948702 0.200128
0.0219354 0.206503 -0.314092 0.244772 0.948702 0.200128
0.196819 0.134738 -0.187786 0.244772 0.948702 0.200128
0.10031 -0.188204 0.0778304 -0.244772 -0.948702 -0.200128
0.36378 -0.061982 -0.0564106 0.830827 -0.0988255 -0.547686
0.322825 0.0356355 0.127891 0.244772 0.948702 0.200128
-0.177783 -0.0660671 -0.161029 -0.244772 -0.948702 -0.200128
0.122382 0.0136693 0.408913 0.520361 -0.302699 0.798497
0.358344 -0.210864 0.170025 0.520361 -0.302699 0.798497
-0.302961 -0.0850271 0.0819534 -0.244772 -0.948702 -0.200128
-0.271088 0.177339 0.182552 0.244772 0.948702 0.200128
0.320213 -0.179392 -0.232903 -0.244772 -0.948702 -0.200128
0.179938 -0.190622 -0.00810071 -0.244772 -0.948702 -0.200128
0.139146 -0.120432 0.347153 0.520361 -0.302699 0.798497
0.241288 -0.177857 -0.14365 -0.244772 -0.948702 -0.200128
0.348525 0.138595 -0.391619 0.244772 0.948702 0.200128
0.241799 0.100476 -0.0803826 0.244772 0.948702 0.200128
-0.351144 0.286267 -0.235906 0.244772 0.948702 0.200128
-0.30368 -0.00711643 -0.286501 -0.244772 -0.948702 -0.200128
