ply
format ascii 1.0
comment Created by Open3D
element vertex 835
property double x
property double y
property double z
property double nx
property double ny
property double nz
end_header
0.11893 0.540462 -0.0106859 0.148701 0.830695 -0.536501
-0.399159 -0.112075 0.0383317 -0.962035 -0.259686 0.0839794
0.139009 -0.227394 0.33432 0.393631 -0.468897 0.79069
-0.0648839 0.493102 -0.100415 0.11851 -0.985826 0.118756
-0.248404 0.0790047 0.325251 -0.612296 0.175743 0.770849
0.16202 -0.360293 0.172438 0.478975 -0.802356 0.356101
-0.179803 0.368686 0.260263 -0.0760361 0.550531 0.831345
0.460818 0.245078 -0.369075 0.89188 -0.346997 -0.290075
-0.288128 -0.0105349 0.30066 -0.690952 -0.000801798 0.7229
-0.333983 -0.239115 -0.0695111 -0.795579 -0.574052 -0.193696
-0.0992215 0.537989 -0.07498 0.148701 0.830696 -0.5365
0.493831 0.261976 -0.287787 0.891879 -0.346997 -0.290076
0.0433703 -0.251473 -0.0293176 -0.0643212 0.993533 -0.0935682
0.23586 0.281242 -0.368557 -0.397036 0.917785 -0.00576568
0.0399346 0.54278 -0.0289917 0.148703 0.830695 -0.5365
0.312497 -0.0302201 0.275038 0.741485 -0.0786347 0.666346
0.105252 0.18092 0.367685 0.213073 0.346749 0.913436
-0.144076 0.451935 -0.204672 0.767201 0.381272 -0.515785
-0.0387632 -0.315703 -0.270336 -0.0912664 -0.768748 -0.633006
0.151103 0.11821 -0.278345 -0.356113 -0.447157 0.820508
-0.123773 -0.176245 -0.371646 -0.29298 -0.50238 -0.813497
0.360184 -0.195103 -0.097565 0.827246 -0.530454 -0.185155
-0.164848 -0.107426 -0.0909724 0.286358 -0.619769 0.730675
-0.0343988 0.0295857 0.41398 -0.0749142 0.0647152 0.995088
-0.180742 0.0534946 -0.547681 -0.815843 -0.203535 -0.54127
0.380634 -0.153645 0.0781699 0.892617 -0.389996 0.226137
0.205262 -0.007073 -0.100259 -0.348637 0.856011 -0.381704
0.234575 0.190574 -0.218337 -0.34444 0.860164 -0.376137
0.0405671 0.217971 -0.531737 0.1487 0.830696 -0.536501
0.212547 0.00695331 -0.0768659 -0.363139 0.822652 -0.437462
0.0161314 0.335936 0.0364218 0.227962 0.439797 -0.868684
-0.157219 0.222251 -0.053363 0.610705 0.588966 -0.5293
-0.438696 0.322424 -0.241772 -0.89188 0.346997 0.290075
0.238147 0.074763 -0.0302278 -0.624928 -0.653622 0.4269
0.212333 0.106873 0.346838 0.509431 0.188305 0.839655
-0.0654173 0.484868 0.193787 -0.0760353 0.550531 0.831345
-0.281211 0.516225 0.0106095 -0.89188 0.346997 0.290075
-0.27494 0.333864 -0.439742 0.148701 0.830695 -0.536501
0.162056 0.233122 -0.474606 0.1487 0.830695 -0.536501
0.372478 0.00949885 0.198181 0.862001 -0.0326488 0.505854
0.510942 0.206342 -0.0477284 0.815843 0.203534 0.54127
0.375485 -0.096525 -0.222809 0.89188 -0.346997 -0.290075
0.251432 0.45392 0.243261 -0.076036 0.550531 0.831345
0.136576 0.142368 -0.602645 0.0760358 -0.550531 -0.831345
0.239448 0.0638906 -0.150352 -0.343958 0.861763 -0.372904
0.479818 0.0357016 -0.0601967 0.89188 -0.346997 -0.290075
0.278172 0.185309 -0.516453 0.148701 0.830696 -0.5365
0.162947 0.174612 -0.564953 0.148702 0.830695 -0.536501
-0.359425 0.149239 0.168445 -0.843773 0.294157 0.44891
0.308431 0.330932 0.210662 0.815843 0.203534 0.54127
0.206728 -0.165493 0.0358485 -0.150139 -0.830292 0.536724
-0.165257 -0.151842 -0.413868 -0.310472 -0.948942 0.0558271
-0.277466 0.425079 0.131156 -0.89188 0.346997 0.290075
0.249369 -0.131155 0.307795 0.622449 -0.281765 0.730182
0.134904 0.0784459 -0.243479 -0.18141 0.970278 -0.160162
0.340342 0.267958 0.186243 0.815844 0.203534 0.54127
0.347954 0.210666 -0.457851 0.148701 0.830696 -0.536501
0.426325 0.0605642 -0.254409 0.89188 -0.346997 -0.290075
0.417187 0.282131 0.0650874 0.815844 0.203534 0.541269
-0.111094 -0.0294871 -0.511492 0.0760363 -0.550531 -0.831345
0.123103 -0.35801 0.219373 0.405293 -0.78843 0.462726
-0.261088 0.362602 0.256249 -0.89188 0.346997 0.290075
-0.392583 -0.0252526 0.137294 -0.931429 -0.091999 0.352102
-0.113001 0.444936 0.215879 -0.0760359 0.550531 0.831345
-0.185332 -0.153034 -0.0535257 -0.148701 -0.830696 0.5365
0.184514 0.0397111 -0.159576 -0.304957 0.905502 -0.295071
0.360164 0.126066 0.201365 0.825639 0.170185 0.53792
0.252551 0.240346 0.312073 0.151279 -0.522943 0.838836
0.165833 0.150661 0.0953837 -0.174184 0.541824 -0.822245
-0.1035 -0.111074 0.395545 -0.246047 -0.166994 0.954764
-0.023966 0.0756727 -0.301632 0.211946 0.976401 -0.0414787
-0.16782 0.113149 -0.176844 0.342938 -0.692632 0.634551
0.0706643 -0.422047 0.0531287 0.228313 -0.973342 0.0218772
-0.222188 -0.130535 -0.411146 -0.366604 -0.927561 0.0723294
0.0085287 -0.235957 0.366951 0.0732469 -0.406882 0.910539
0.227984 -0.342185 -0.0674424 0.573998 -0.801726 -0.166615
-0.142576 0.395056 -0.237813 0.62458 0.660553 -0.416617
-0.169923 0.211516 -0.0816424 0.619375 0.618215 -0.483927
0.174311 -0.151042 0.132671 -0.361815 0.746996 -0.557752
0.0400879 0.231861 -0.510363 0.1487 0.830696 -0.536501
-0.259597 -0.251509 0.23773 -0.696465 -0.473941 0.53881
-0.129805 0.348737 -0.138008 0.608306 0.587143 -0.534066
0.243874 -0.337399 0.0480306 0.604604 -0.792042 0.0844045
0.187512 -0.13694 0.0560826 -0.61322 -0.60264 0.510673
0.17761 -0.135941 0.0458478 -0.60304 -0.576268 0.551596
0.517376 0.240128 -0.189258 0.89188 -0.346997 -0.290075
-0.271413 0.346735 -0.418835 0.1487 0.830696 -0.5365
-0.0262098 0.116285 0.149189 0.265705 0.437869 -0.858878
0.363365 0.482202 0.0709791 0.815844 0.203534 0.541269
0.0268935 -0.12365 -0.436515 0.0760356 -0.550531 -0.831345
-0.166422 -0.176133 0.0646855 0.604549 0.733301 -0.311112
0.141057 0.0952926 0.382024 0.316517 0.169824 0.933262
-0.191715 -0.0817323 0.155884 0.569348 0.540434 -0.619495
-0.145396 0.333562 -0.404304 0.148701 0.830695 -0.536501
-0.174914 0.152956 -0.216024 0.557863 0.800628 -0.218595
-0.297708 0.437653 -0.285351 0.148701 0.830695 -0.536501
-0.00761181 0.0901662 -0.322458 0.0183961 -0.476773 0.878834
-0.129635 -0.085853 -0.172993 0.189682 -0.549588 0.813618
0.18188 -0.0260166 0.0303365 -0.360494 0.731002 -0.579379
0.19021 0.525542 -0.0140308 0.148702 0.830695 -0.536501
0.235246 -0.0255168 -0.0191508 -0.982678 0.184552 0.0168881
-0.167592 0.151118 -0.204007 0.552987 0.806777 -0.208125
-0.341251 0.495936 -0.207175 0.148701 0.830695 -0.536502
-0.250481 -0.0636293 0.090424 0.974229 -0.216115 -0.0645979
0.416756 -0.0814011 -0.0585135 0.951071 -0.301653 -0.0668526
0.171899 -0.0738203 0.204974 -0.824349 -0.195534 -0.531239
0.0987079 0.0212699 0.187913 -0.104978 0.508521 -0.854626
0.0166772 -0.245999 0.0449877 -0.108696 0.987349 -0.115442
0.0552697 -0.380154 0.231884 0.267642 -0.825107 0.497561
0.116132 0.571091 0.0359637 0.1487 0.830696 -0.536501
0.123142 -0.236396 -0.332305 0.281839 -0.614549 -0.736815
-0.159048 -0.0422562 -0.131115 0.286929 -0.621281 0.729165
0.189161 -0.330531 -0.168803 0.451183 -0.809517 -0.375655
-0.372202 0.407475 -0.334343 -0.365602 0.744884 -0.558107
0.233016 0.168722 -0.0508267 -0.620704 -0.692631 0.367409
0.1099 -0.0994008 0.213473 -0.24133 0.586122 -0.773447
-0.4146 0.390198 -0.248758 -0.89188 0.346997 0.290075
-0.319324 0.379958 0.0564318 -0.89188 0.346997 0.290075
-0.183996 -0.388559 0.0374176 -0.484754 -0.874361 -0.0225039
0.438118 0.0295493 -0.181049 0.891879 -0.346997 -0.290076
-0.26851 -0.0982391 -0.323477 -0.637444 -0.356484 -0.68307
0.151721 -0.144929 0.364908 0.384303 -0.28576 0.877868
-0.402743 -0.1047 0.019379 -0.957446 -0.284885 0.0462347
0.171798 -0.0652409 0.152576 -0.592473 -0.756388 0.277224
0.207488 -0.27716 0.246843 0.559092 -0.599846 0.572364
-0.296708 0.0703354 -0.379222 -0.815844 -0.203534 -0.541269
0.178092 -0.122962 0.35877 0.438806 -0.261682 0.859634
-0.033834 -0.429533 0.109747 -0.0428268 -0.992708 0.112683
-0.0617526 0.0559361 -0.258915 0.124217 -0.516091 0.847479
0.129706 0.192381 0.0731601 -0.445599 -0.888019 0.113415
-0.0957337 0.243832 -0.33575 0.451788 0.88421 -0.118574
0.411966 -0.0960355 -0.0606167 0.951071 -0.301653 -0.0668526
0.157314 -0.320705 0.243429 0.489092 -0.687361 0.536957
0.00502996 -0.200068 0.382434 0.0618783 -0.355297 0.932703
0.0384753 0.585461 0.0366894 0.148701 0.830695 -0.536501
-0.0881204 -0.21348 -0.120173 -0.148711 -0.830725 0.536453
-0.00495514 -0.0301113 0.265928 0.0805946 0.455394 -0.886635
0.110656 -0.219093 -0.350937 0.234531 -0.615936 -0.752076
0.297153 0.511653 -0.0058952 0.148701 0.830696 -0.536501
0.1693 0.387771 -0.0423504 -0.445872 -0.887844 0.113716
0.176905 -0.0888276 -0.445855 0.0760358 -0.550531 -0.831345
0.117944 0.199798 -0.53843 0.148701 0.830695 -0.536501
0.254763 0.259527 -0.196247 -0.614556 -0.603777 0.507716
-0.161903 0.134181 -0.155706 0.361411 -0.732533 0.576869
0.25046 -0.310032 0.135105 0.642505 -0.704965 0.300352
0.195496 -0.0647951 -0.460069 0.0760357 -0.550531 -0.831345
0.129218 -0.310702 -0.248393 0.276708 -0.784353 -0.555179
0.223904 0.228834 -0.31375 -0.290358 0.918041 -0.269985
0.0022166 -0.125959 -0.199788 -0.00314349 0.54344 0.839442
-0.297639 -0.21684 -0.196841 -0.717496 -0.535513 -0.44545
-0.0222445 0.0627456 0.201747 0.221098 0.438874 -0.870922
0.0431614 -0.0256747 -0.225327 -0.139569 -0.444707 0.884735
0.0461851 0.534157 -0.0406104 0.148703 0.830695 -0.5365
0.0945486 0.0405247 0.403519 0.24752 0.0924494 0.964462
-0.0904005 0.0594224 -0.568477 0.0760363 -0.550531 -0.831345
-0.218464 -0.11589 0.0882541 0.622021 0.63735 -0.454834
-0.0784411 0.0999493 -0.594221 0.0760362 -0.550531 -0.831345
0.0971837 0.513579 0.189645 -0.0760355 0.550531 0.831345
0.461191 0.385811 -0.0402248 0.815844 0.203534 0.541269
-0.0656365 0.237661 0.0969018 0.0145942 -0.997288 0.0721346
0.0578598 0.254658 0.0810651 0.117366 0.446223 -0.887193
0.212468 -0.0742301 0.0679931 -0.360926 0.739564 -0.568135
-0.114316 -0.329277 -0.227698 -0.281382 -0.788746 -0.546538
0.399924 -0.124949 -0.0738444 0.912932 -0.389312 -0.122443
0.311172 0.216707 -0.458692 0.1487 0.830695 -0.536502
-0.278459 0.431889 0.119955 -0.89188 0.346997 0.290075
0.360694 0.493749 -0.0160047 0.148702 0.830695 -0.536502
-0.156642 0.20111 0.040792 0.539767 0.514849 -0.666019
0.308275 0.544031 0.130766 0.815844 0.203534 0.541269
0.146133 -0.0486192 0.143249 -0.586795 -0.765444 0.264134
-0.36453 -0.059914 -0.213972 -0.863922 -0.224681 -0.45073
0.162848 -0.250875 -0.300206 0.365074 -0.645459 -0.670898
-0.31534 -0.192776 0.206712 -0.793892 -0.377889 0.476377
0.412315 0.284488 0.0715445 0.815844 0.203534 0.541269
0.0477843 -0.365425 -0.193637 0.110421 -0.869773 -0.480938
0.314294 0.40909 0.172436 0.815843 0.203534 0.54127
0.0676883 -0.0876119 0.231635 -0.148939 0.529914 -0.83487
-0.119879 0.10434 0.17661 0.482452 -0.536712 -0.692229
0.238895 -0.208649 0.27589 0.635239 -0.443831 0.632048
-0.0695146 0.0918328 -0.246066 0.347331 0.935327 -0.0672668
0.0930411 0.144675 0.103844 -0.437433 -0.432366 -0.788487
0.102509 0.358332 -0.015595 0.043326 0.459793 -0.886968
0.18327 0.454939 -0.059873 -0.436745 -0.893062 0.108141
-0.0402982 -0.149066 0.201027 0.154492 0.445136 -0.882035
0.011542 -0.174737 -0.404089 0.0760356 -0.550531 -0.831345
0.338258 0.230102 -0.430444 0.148701 0.830696 -0.536501
-0.0917682 -0.0840549 -0.17907 0.117462 -0.514251 0.849558
0.148337 0.219081 0.0602758 -0.129552 0.519482 -0.844603
-0.0772116 0.00512534 -0.531314 0.0760365 -0.550531 -0.831345
-0.241852 -0.0343547 0.0750405 0.622856 0.630772 -0.462794
-0.0448529 0.554212 0.149747 -0.0760353 0.550531 0.831345
-0.273625 -0.319886 -0.0163194 -0.682553 -0.724375 -0.0969636
-0.028472 0.25707 0.341991 -0.0621903 0.485939 0.871778
0.187687 0.204968 0.325925 0.415081 0.373308 0.829668
0.345546 -0.228155 0.0439028 0.822365 -0.55632 0.119264
-0.152031 0.186632 -0.212276 0.345878 -0.700385 0.624363
0.4706 0.110934 -0.178531 0.89188 -0.346997 -0.290074
0.313935 -0.265621 0.0665019 0.756598 -0.639878 0.134596
-0.298755 0.485327 -0.211825 0.148701 0.830695 -0.536502
0.181555 -0.0906079 -0.0947541 -0.3041 0.906651 -0.292417
-0.233457 -0.0450618 0.0716395 0.623826 0.637241 -0.452509
0.370854 0.190804 0.169266 0.815844 0.203533 0.541269
-0.0253865 0.286147 -0.441452 0.397323 0.446625 0.801661
-0.0332947 0.152487 0.165529 0.260654 0.439625 -0.859528
0.527328 0.212992 -0.126199 0.89188 -0.346997 -0.290075
0.0902279 -0.0153454 -0.20928 -0.264768 -0.439518 0.858325
-0.440642 0.264625 -0.178614 -0.89188 0.346997 0.290075
-0.288048 0.136156 -0.417025 -0.815844 -0.203534 -0.541269
-0.237913 -0.338859 -0.0690445 -0.591954 -0.775084 -0.220988
0.132852 0.138377 -0.600343 0.0760358 -0.550531 -0.831345
-0.243958 -0.101478 0.0733622 0.623197 0.650716 -0.433814
0.293772 -0.102126 0.276776 0.719193 -0.249268 0.648557
0.172496 0.0205179 0.149431 -0.562142 -0.797157 0.22031
0.263333 0.259293 -0.406012 0.148701 0.830696 -0.536501
0.123939 -0.214557 -0.0630649 -0.1487 -0.830695 0.536501
-0.0471307 -0.30157 -0.286097 -0.13798 -0.760981 -0.633932
-0.213603 -0.300582 -0.193479 -0.525973 -0.728601 -0.43874
0.196141 -0.289632 -0.230697 0.459343 -0.729468 -0.506834
-0.329564 0.434613 -0.0404305 -0.89188 0.346997 0.290075
-0.0216604 0.0753277 -0.297972 0.211946 0.976401 -0.0414787
-0.139902 0.118323 0.0922665 0.522451 0.501404 -0.689666
0.0314257 0.387233 0.2673 -0.0760362 0.550531 0.831345
0.145955 -0.0530879 0.387025 0.355367 -0.105725 0.928729
-0.0929346 -0.134203 0.190507 0.408247 0.460193 -0.788389
-0.391369 0.00815981 -0.18001 -0.94006 -0.075873 -0.332462
-0.271464 0.461632 0.105884 -0.89188 0.346997 0.290075
-0.205738 0.282207 0.274125 -0.3779 -0.453236 0.807322
-0.252099 -0.141402 0.310038 -0.641663 -0.242962 0.727487
-0.13916 -0.095528 0.38723 -0.349295 -0.170022 0.921458
0.196881 -0.102537 -0.0197888 -0.578408 -0.547321 0.604883
0.0398509 -0.354701 -0.214593 0.0767223 -0.843359 -0.531845
0.305731 -0.282253 -0.0136401 0.720942 -0.692033 -0.0365181
0.479901 0.322082 -0.248768 0.148701 0.830695 -0.536501
0.158938 -0.258953 -0.293977 0.35512 -0.681725 -0.639641
-0.26732 0.56848 -0.0743606 0.148701 0.830696 -0.5365
0.15877 0.20641 -0.313937 -0.566585 0.516463 0.642065
0.43642 0.15506 0.0838811 0.815844 0.203534 0.541269
0.145439 0.040389 0.108926 -0.221929 0.567957 -0.792573
-0.19512 0.0795304 0.10297 0.256797 -0.938798 0.229596
0.350334 -0.170564 -0.172968 0.818711 -0.458249 -0.346005
-0.365952 0.235383 0.0860122 -0.89188 0.346997 0.290075
-0.0818183 -0.36118 -0.190569 -0.199581 -0.859524 -0.470518
0.0696604 0.224188 -0.514048 0.148701 0.830695 -0.536501
0.355251 0.0369961 -0.444743 0.89188 -0.346997 -0.290075
0.221123 0.451103 0.242354 -0.0760361 0.550531 0.831345
0.29104 -0.282504 -0.0963528 0.697342 -0.687471 -0.202725
-0.0208341 -0.217045 -0.107054 -0.148131 -0.830689 0.536669
-0.311638 -0.0436989 -0.313837 -0.815844 -0.203534 -0.54127
0.290471 0.371445 -0.205991 -0.589406 0.625847 -0.5108
0.441133 0.461217 -0.0383476 0.815844 0.203534 0.541269
0.214353 0.362998 0.300079 -0.0760361 0.550531 0.831345
-0.210287 -0.131848 -0.369086 -0.37438 -0.923851 0.0796169
0.0659407 0.196527 -0.405222 0.0651731 0.996545 -0.0514775
-0.105047 0.0574954 -0.24917 0.199765 -0.556747 0.806304
0.162765 -0.335242 -0.186229 0.374329 -0.8257 -0.422016
0.148975 -0.0978283 -0.442449 0.0760371 -0.550531 -0.831344
-0.197355 0.194926 -0.575824 -0.815844 -0.203534 -0.54127
0.344921 -0.00225654 -0.429549 0.89188 -0.346997 -0.290075
-0.37629 0.0653589 0.171679 -0.888794 0.124127 0.441178
-0.157845 0.134134 -0.0106989 0.926203 -0.307428 -0.218256
0.401175 0.314598 0.0770142 0.815844 0.203534 0.54127
0.237819 -0.102764 0.326677 0.573619 -0.238505 0.78363
0.401072 -0.0842222 -0.158855 0.89188 -0.346997 -0.290075
0.323086 0.462168 0.139224 0.815843 0.203534 0.54127
-0.0715717 -0.0847618 0.225735 0.275565 0.441703 -0.853793
-0.016158 -0.427752 -0.0109972 -0.0142949 -0.991256 -0.131173
-0.304977 -0.0107886 0.283499 -0.720096 -0.0144272 0.693724
-0.390205 0.324256 -0.094868 -0.89188 0.346997 0.290075
-0.458125 0.157777 -0.104552 -0.89188 0.346997 0.290075
0.176774 -0.0160599 0.054846 -0.966993 0.00859889 -0.254659
-0.0690729 0.155219 0.154208 0.338627 0.446015 -0.828494
-0.260764 -0.00456794 0.324975 -0.628133 0.023382 0.777754
0.237688 -0.313124 0.154534 0.610454 -0.709301 0.352473
-0.0111149 0.0469243 0.413446 -0.0244766 0.106934 0.993965
-0.143866 0.00910932 -0.186213 0.258885 -0.596621 0.759619
0.210091 0.253449 -0.0141842 -0.247773 0.58933 -0.768959
-0.347518 -0.126416 -0.20286 -0.815273 -0.354719 -0.457717
-0.0474392 0.0146779 0.413718 -0.117846 0.0694995 0.990597
0.132748 0.007492 -0.513678 0.0760367 -0.550531 -0.831345
-0.198365 0.0520014 -0.119048 0.352187 -0.713807 0.605346
0.108919 0.0627264 0.177583 -0.429516 -0.896991 0.104511
-0.0567647 -0.24247 0.0249655 0.225714 0.973167 -0.0447136
-0.394381 0.139164 0.0860585 -0.929726 0.251766 0.268744
0.414977 0.371382 -0.190428 0.148701 0.830695 -0.536501
0.433508 0.103712 -0.283938 0.89188 -0.346997 -0.290075
0.0352664 0.296005 0.0290985 0.00895462 -0.541179 -0.84086
0.212214 0.43744 0.250587 -0.0760361 0.550531 0.831345
-0.273715 0.0916591 -0.421896 -0.815844 -0.203534 -0.541269
-0.381416 0.288927 -0.0255843 -0.89188 0.346997 0.290075
-0.143494 -0.374476 0.217934 -0.484636 -0.783915 0.388078
-0.144104 -0.187029 0.0823703 0.604549 0.733301 -0.311112
-0.057996 -0.181656 0.386392 -0.118253 -0.317866 0.940732
0.0833697 -0.012998 -0.21011 -0.246936 -0.439123 0.863825
-0.215293 -0.154012 0.334122 -0.548176 -0.257339 0.795789
0.0901179 -0.301336 0.305764 0.320957 -0.597697 0.734673
0.505438 0.0772977 0.00909286 0.815843 0.203535 0.541271
-0.218742 -0.344771 -0.0940337 -0.529784 -0.808657 -0.255739
0.209693 -0.11025 -0.0144602 -0.584332 -0.552237 0.594635
0.0793004 -0.415317 -0.0262088 0.24255 -0.960263 -0.138076
-0.0818808 -0.134956 0.195388 0.366232 0.451346 -0.813733
-0.0131096 0.458149 -0.071121 0.366195 0.448419 -0.815366
-0.187692 0.106494 -0.118911 0.604418 0.735111 -0.307068
0.203546 0.0932016 -0.0571842 -0.988683 0.118699 -0.0917371
0.184694 -0.131951 -0.00510734 -0.350844 0.849922 -0.393117
-0.106056 0.32206 0.297884 -0.0760359 0.550531 0.831345
-0.307986 0.128228 0.254915 -0.724754 0.274967 0.631763
-0.0693109 0.30107 -0.380255 0.568941 0.815784 0.103937
0.289871 0.364471 0.226026 0.815844 0.203534 0.541269
-0.397032 0.418295 -0.30288 -0.364071 0.766882 -0.528531
0.415821 0.433886 -0.0934151 0.148701 0.830695 -0.536501
0.319672 0.0632854 0.268103 0.735196 0.0966645 0.670927
-0.319751 -0.0524921 0.262663 -0.783004 -0.105902 0.612936
0.216366 0.131153 -0.233156 -0.506134 -0.494896 0.706333
0.0740192 0.54885 -0.0101457 0.148702 0.830695 -0.536501
0.10086 0.587946 0.0578279 0.148701 0.830696 -0.536501
-0.19718 -0.37599 0.109778 -0.54059 -0.830253 0.1358
0.0933487 0.41797 -0.0332401 -0.278339 -0.959276 0.0481388
0.339098 0.290928 0.179481 0.815844 0.203534 0.54127
-0.0518305 -0.241139 0.0787516 0.249765 0.967147 -0.0473681
-0.162821 0.079802 -0.212095 0.301277 -0.63583 0.7106
0.0397853 -0.0424038 0.413881 0.112766 -0.0710542 0.991078
0.200367 -0.360724 0.0975161 0.552929 -0.815147 0.172641
0.310659 -0.0359478 -0.46864 0.076036 -0.550531 -0.831345
0.37556 -0.00446147 0.191505 0.88097 -0.0595851 0.469405
-0.299662 0.460739 -0.250147 0.148701 0.830695 -0.536501
0.00733834 -0.161837 0.195132 -0.106814 0.510538 -0.853195
-0.113769 0.268484 0.0232233 0.484808 0.483875 -0.728578
-0.0929492 0.102248 -0.236681 0.406116 0.909353 -0.0902611
0.337144 0.0668123 -0.534267 0.076036 -0.550531 -0.831345
0.213203 0.224613 -0.473604 0.148701 0.830696 -0.536501
-0.398566 -0.108856 0.0517889 -0.950362 -0.273723 0.147945
-0.1157 -0.413701 0.121487 -0.305708 -0.945385 0.113094
0.349125 -0.143728 -0.206947 0.800284 -0.43751 -0.410038
-0.000237533 0.301142 0.0620732 -0.10081 -0.993899 0.0447503
-0.0296695 0.0765096 -0.311861 0.225618 0.973241 -0.0435714
-0.313624 0.523128 -0.157415 0.148701 0.830696 -0.5365
-0.0303685 -0.123827 0.215331 0.105188 0.451305 -0.886148
-0.390162 0.186136 0.0704863 -0.89188 0.346997 0.290075
0.255751 0.256079 -0.413091 0.148701 0.830696 -0.5365
-0.111334 0.284126 -0.0412917 0.220394 -0.956191 0.192681
-0.226584 0.485358 -0.191773 0.148701 0.830695 -0.536501
-0.0139554 0.0740532 -0.291411 0.186891 0.981549 -0.0404032
0.224999 0.0731996 -0.118097 -0.363552 0.821215 -0.439814
-0.157754 0.254792 -0.156315 0.624098 0.678302 -0.387825
-0.194554 0.357182 0.266532 -0.0760362 0.550531 0.831345
0.28236 -0.246265 -0.19163 0.659833 -0.637647 -0.397526
0.240105 0.231544 -0.239022 -0.569492 -0.537175 0.622191
-0.0989403 0.430951 -0.14463 0.567191 0.535156 -0.626021
-0.268595 0.310373 -0.474357 0.148701 0.830695 -0.536501
0.546831 0.322333 -0.170933 0.62222 0.674527 -0.39731
-0.0835068 -0.392137 -0.122467 -0.205938 -0.918852 -0.336601
-0.24897 -0.15258 0.308666 -0.621201 -0.28736 0.729063
-0.358846 0.224264 -0.343443 -0.815844 -0.203534 -0.54127
0.148 0.104532 -0.287118 -0.346428 -0.44632 0.825097
-0.248147 0.596696 -0.00364713 -0.234809 0.950208 -0.204865
-0.0262506 0.200049 -0.578007 0.1487 0.830696 -0.536501
-0.0125512 0.0545254 -0.558114 0.0760365 -0.550531 -0.831345
-0.0203996 0.119188 -0.305785 0.053511 -0.489113 0.870577
0.276144 0.333165 -0.215894 -0.62069 -0.630263 0.466382
0.12068 0.0513797 0.140787 -0.494587 -0.856267 0.148964
0.222806 -0.348545 -0.0525373 0.549138 -0.825289 -0.131705
-0.349138 -0.0436119 -0.24848 -0.832909 -0.210807 -0.511686
-0.381443 -0.0929665 0.138998 -0.921621 -0.219837 0.319821
0.445719 0.321666 0.00721502 0.815844 0.203534 0.54127
0.0800073 -0.412765 -0.0413267 0.210723 -0.965242 -0.154608
-0.259145 0.0931936 -0.444435 -0.815844 -0.203534 -0.54127
-0.294213 0.349187 -0.421358 0.1487 0.830696 -0.5365
-0.205174 -0.356176 0.163828 -0.58544 -0.762481 0.27547
-0.179192 0.0896089 -0.148118 0.568687 0.789628 -0.230396
-0.20635 -0.362441 -0.0605801 -0.518241 -0.828412 -0.212509
0.447366 0.00328469 -0.121196 0.89188 -0.346997 -0.290075
-0.393453 0.275016 -0.0459529 -0.89188 0.346997 0.290075
-0.085707 0.167919 -0.296324 0.407753 0.908284 -0.0935795
-0.167924 0.161192 0.349221 -0.411724 0.307778 0.857763
-0.363896 0.412305 -0.333337 -0.365602 0.744884 -0.558107
0.165261 0.0654393 0.121374 -0.221419 0.570302 -0.791031
-0.121913 -0.407239 0.14853 -0.345824 -0.921082 0.178923
-0.0128222 0.270099 -0.3838 0.384532 0.903934 0.187183
0.209624 0.360029 -0.025959 -0.663082 -0.317483 -0.677884
0.278434 0.028405 -0.514203 0.0760353 -0.550531 -0.831345
0.201129 -0.229486 0.293693 0.536044 -0.471276 0.700397
0.109602 0.412656 -0.0396309 -0.31707 -0.946625 0.0580398
0.129571 -0.10366 0.385107 0.347381 -0.210312 0.913835
0.343963 -0.22833 0.054 0.822365 -0.55632 0.119265
0.43121 0.326177 -0.255922 0.148701 0.830695 -0.536501
0.285716 0.240123 0.279047 0.815844 0.203534 0.54127
0.265207 0.207506 -0.209896 -0.359085 0.831331 -0.4242
0.282401 0.382689 0.230435 0.815844 0.203534 0.541269
0.0853599 -0.043253 0.406475 0.20512 -0.047271 0.977595
0.305584 -0.118897 -0.410967 0.89188 -0.346997 -0.290075
-0.360153 0.0913916 0.194706 -0.866151 0.144196 0.478528
-0.0960047 0.231746 0.0548943 0.121749 -0.985078 0.121647
0.340024 -0.138207 0.196566 0.821493 -0.335324 0.461203
-0.220835 -0.335045 -0.116483 -0.540061 -0.786967 -0.298357
-0.165804 0.146727 0.0484357 0.250451 -0.942228 0.222441
0.439663 0.289537 0.0284254 0.815844 0.203534 0.54127
0.134779 0.433252 0.246278 -0.0760352 0.550531 0.831345
0.156791 -0.378729 -0.0811595 0.37226 -0.901126 -0.222249
0.279925 0.263363 -0.395112 0.148701 0.830696 -0.536501
-0.355882 0.324758 0.0100601 -0.891879 0.346998 0.290076
-0.402609 -0.0896289 0.0574077 -0.964478 -0.209916 0.160364
0.0967712 -0.227843 0.0471541 -0.287252 0.918613 -0.271361
-0.435077 0.233097 -0.231864 -0.815844 -0.203534 -0.54127
0.13222 0.577491 0.150526 -0.076036 0.550531 0.831345
0.185385 -0.105661 -0.0329959 -0.560553 -0.529011 0.637125
-0.0575631 0.205562 -0.57815 0.148701 0.830696 -0.536501
0.0844548 0.0714371 0.153666 -0.403862 -0.910304 0.0907804
-0.441867 0.199064 -0.103953 -0.89188 0.346997 0.290075
-0.352406 0.478933 -0.163678 -0.89188 0.346997 0.290075
-0.201185 -0.0970254 -0.0656269 0.32472 -0.664071 0.673474
-0.234054 0.536965 0.130793 -0.89188 0.346997 0.290075
-0.143796 0.0206933 0.211455 0.44592 0.470052 -0.761713
0.397592 -0.13018 0.0390161 0.930026 -0.341343 0.136149
-0.0626506 -0.200147 -0.0924654 -0.148627 -0.83075 0.536437
0.0553925 -0.11059 0.219243 -0.148939 0.529914 -0.83487
0.226052 0.0357956 0.0648666 -0.939951 -0.0498138 -0.337656
0.32846 0.195478 -0.48677 0.148701 0.830696 -0.536501
-0.284658 0.358069 -0.404958 0.148701 0.830695 -0.536501
0.145514 0.593577 0.0789235 0.148702 0.830695 -0.536501
0.285972 0.370841 -0.201548 -0.58743 0.621857 -0.5179
0.0844462 0.172862 -0.58942 0.148701 0.830695 -0.536501
0.179371 0.213621 -0.500001 0.1487 0.830695 -0.536501
0.0180472 -0.367238 -0.195636 0.0670275 -0.868542 -0.491061
0.435281 0.13084 -0.310939 0.891879 -0.346998 -0.290076
0.171442 -0.304195 -0.230441 0.404551 -0.76867 -0.495465
-0.132221 0.441233 -0.167496 0.598978 0.569664 -0.562768
0.0779144 -0.405134 -0.0787889 0.213744 -0.942505 -0.256902
-0.0186738 0.498922 -0.0602106 0.350639 -0.553264 -0.755613
-0.0670482 -0.239973 0.0207136 0.273517 0.960511 -0.0510601
0.43224 0.295105 -0.303747 0.148701 0.830695 -0.536501
0.158988 -0.223148 -0.327956 0.374153 -0.607651 -0.70055
0.27249 -0.306986 0.0805253 0.682813 -0.714407 0.152935
-0.138723 -0.270712 -0.287983 -0.31854 -0.685628 -0.654558
0.141809 0.0547 0.388114 0.34539 0.108495 0.932167
-0.301583 0.408932 -0.330895 0.148701 0.830696 -0.5365
0.43765 0.43706 -0.0824511 0.148701 0.830695 -0.536501
0.191028 -0.334346 -0.158339 0.451183 -0.809517 -0.375655
0.0114221 -0.430838 0.0746385 0.0823807 -0.995186 0.0530932
0.126479 -0.0525812 -0.132749 -0.640401 0.495852 0.586529
-0.0912266 -0.422775 0.0240185 -0.205331 -0.977411 -0.0500577
-0.26194 -0.297321 -0.128969 -0.625274 -0.700978 -0.343019
-0.120056 -0.395721 0.196469 -0.376195 -0.872289 0.312393
-0.135151 -0.0951665 -0.1689 0.566354 0.370752 0.736061
0.404232 -0.0176434 -0.228783 0.89188 -0.346997 -0.290075
0.324099 -0.130329 0.226411 0.770782 -0.322523 0.549431
0.317368 0.542776 0.117532 0.815843 0.203534 0.54127
0.510876 0.0875599 -0.0267355 0.89188 -0.346997 -0.290075
-0.172199 0.0239737 0.151112 0.209464 -0.960633 0.182507
-0.153804 0.38614 -0.27232 0.615938 0.7039 -0.353757
0.0227496 -0.232943 0.108156 -0.300064 0.908672 -0.290304
0.471813 0.0131477 -0.057829 0.891879 -0.346997 -0.290076
-0.114534 -0.223648 0.00095814 0.406477 0.908781 -0.094304
0.493203 0.244747 -0.0354327 0.815844 0.203534 0.54127
-0.196977 0.226803 -0.097151 0.622995 0.630905 -0.462423
0.424527 0.317524 0.0407157 0.815844 0.203534 0.541269
0.294795 -0.147222 -0.396403 0.076036 -0.550531 -0.831345
0.207387 -0.0554271 0.356908 0.511438 -0.134804 0.848681
-0.141261 -0.269049 -0.28849 -0.31854 -0.685628 -0.654558
-0.265543 -0.299008 0.166208 -0.688857 -0.645535 0.329788
-0.0854246 0.0779933 -0.239932 0.193154 -0.552482 0.810836
0.220389 -0.323232 0.164156 0.610455 -0.709301 0.352472
0.112558 0.390685 0.272434 -0.0760358 0.550531 0.831345
-0.136364 0.327636 -0.126012 0.314008 -0.897948 0.308364
0.477501 0.235455 -0.00827102 0.815844 0.203534 0.54127
0.51019 0.13752 -0.0886105 0.89188 -0.346997 -0.290075
-0.0308843 -0.0365032 -0.235744 0.0189432 -0.476988 0.878706
-0.412363 0.0540348 -0.111879 -0.984281 0.0349572 -0.173114
0.0163728 0.246257 0.349557 0.0361271 0.473637 0.879979
-0.0898014 -0.236913 -0.0468414 0.29691 0.953275 -0.0557804
0.254116 0.19976 -0.133198 -0.621519 -0.624165 0.473427
-0.00528597 -0.240513 -0.125213 -0.0514315 0.548295 0.834702
0.34964 -0.111685 -0.284138 0.89188 -0.346997 -0.290075
0.237056 0.397408 0.279369 -0.076036 0.550531 0.831345
-0.396191 0.385762 -0.186848 -0.89188 0.346997 0.290075
-0.345606 0.120329 0.207275 -0.817227 0.225919 0.53019
-0.0708545 0.137187 0.3887 -0.188491 0.267727 0.944877
-0.356729 0.268981 -0.36345 -0.815844 -0.203534 -0.54127
-0.0235397 -0.183853 0.388557 -0.027185 -0.333004 0.942533
0.0616375 0.42687 -0.00381559 -0.196656 -0.979645 0.0402716
-0.102783 0.457565 -0.126428 0.536227 0.512174 -0.670923
-0.214593 0.566151 -0.0633531 0.1487 0.830695 -0.536501
-0.0617907 -0.1794 -0.393303 -0.216774 -0.975061 0.0475859
0.320704 -0.0589376 0.259725 0.767202 -0.169531 0.618595
-0.389684 0.000858584 -0.182264 -0.9231 -0.103408 -0.370395
0.127826 -0.131719 0.179628 -0.310833 0.650571 -0.692922
0.317497 -0.109468 -0.385618 0.89188 -0.346997 -0.290075
0.213219 -0.0795593 0.0605135 -0.363656 0.746765 -0.556863
-0.0502086 -0.0603454 -0.485489 0.0760365 -0.550531 -0.831345
0.159031 0.0950954 0.0761861 -0.55343 -0.805739 0.210953
0.389293 0.0413161 -0.345243 0.89188 -0.346997 -0.290075
-0.170805 0.168369 -0.605856 -0.815844 -0.203534 -0.541269
0.293836 -0.256573 -0.153063 0.676634 -0.656444 -0.333539
-0.378541 0.233421 0.0496539 -0.89188 0.346997 0.290075
0.313044 0.243547 -0.416615 0.148701 0.830696 -0.536501
0.184767 0.207916 -0.371501 -0.523478 0.527986 0.668731
-0.0990403 0.0397281 0.200155 0.0246817 -0.996899 0.07472
0.498081 0.227419 -0.0362684 0.815844 0.203534 0.54127
0.145493 0.18721 0.0947718 -0.45481 -0.882488 0.119841
-0.454972 0.122806 -0.160404 -0.815843 -0.203534 -0.54127
-0.116821 0.346996 -0.271264 0.966556 -0.00746109 0.256347
-0.0507747 0.179673 -0.613596 -0.00689379 0.473784 -0.880614
-0.0742961 0.0783691 0.402206 -0.196821 0.172439 0.965156
0.0251529 0.505953 -0.0661159 0.238679 0.194821 -0.951356
0.184455 0.11887 0.3585 0.427233 0.226113 0.875411
0.0683822 0.287124 0.0410529 -0.275113 -0.960171 0.0488347
-0.258279 -0.0553336 -0.38989 -0.815844 -0.203534 -0.541269
-0.218894 0.0553436 -0.0811494 0.607807 0.727616 -0.318034
-0.137928 0.480388 -0.174895 0.1487 0.830695 -0.536502
0.152295 -0.0833433 -0.451738 0.0760371 -0.550531 -0.831344
0.0717652 0.219736 0.129738 -0.29337 -0.954556 0.0525144
-0.133578 0.0457921 -0.235366 0.430455 0.896409 -0.105638
-0.126148 0.378207 -0.20485 0.347026 -0.856431 0.382228
-0.215602 -0.0131877 -0.0179053 0.615528 0.708914 -0.344334
-0.194624 0.177062 -0.0181471 0.608163 0.587189 -0.534179
0.112898 -0.174837 -0.0595792 -0.243884 0.945821 -0.214341
0.382375 0.040715 0.181464 0.875632 0.00832662 0.482908
-0.0648505 0.493821 -0.108163 0.53892 0.226917 -0.811218
0.378369 0.280547 0.124193 0.815844 0.203534 0.54127
0.280176 -0.119624 -0.416016 0.076036 -0.550531 -0.831345
0.195009 0.230609 0.0479673 -0.517836 -0.838389 0.170148
0.0884661 0.0574801 -0.550831 0.0760358 -0.550531 -0.831345
0.42362 -0.0604146 -0.0330818 0.977543 -0.210525 -0.00945087
0.156375 0.152069 0.361198 0.351229 0.304015 0.885558
-0.327425 0.424442 -0.0216891 -0.89188 0.346997 0.290075
0.218458 0.130114 0.0569017 -0.855394 -0.162097 -0.491961
-0.318922 0.400102 -0.349372 0.148701 0.830695 -0.536501
-0.0897617 -0.237865 -0.0628958 0.29691 0.953275 -0.0557804
0.34234 0.0668962 -0.520209 0.89188 -0.346997 -0.290075
0.372755 -0.121043 -0.201874 0.89188 -0.346997 -0.290075
-0.1758 0.254259 -0.23049 0.361583 -0.738434 0.569186
-0.464296 0.110611 -0.141764 -0.815843 -0.203534 -0.54127
0.280562 -0.304654 0.0519892 0.700093 -0.708167 0.0914803
-0.135623 0.531465 -0.0951703 0.148702 0.830696 -0.5365
-0.0861963 0.177295 0.073507 0.426358 0.464078 -0.776434
-0.178677 -0.00147075 -0.530125 -0.815844 -0.203534 -0.54127
0.413464 0.238492 -0.396608 0.148701 0.830696 -0.536501
0.0308662 0.133788 -0.366942 0.0685975 0.532561 0.843607
-0.100507 -0.144531 -0.434339 0.0760354 -0.550531 -0.831345
0.332692 0.449917 0.129353 0.815844 0.203534 0.54127
-0.0470738 0.299981 0.0118485 0.0302853 -0.996525 0.0775946
0.0116071 0.365138 -0.0108495 -0.0941577 -0.994497 0.04594
-0.152784 0.318763 0.295794 -0.0760363 0.550531 0.831345
0.0572224 -0.256258 -0.332362 0.12199 -0.688563 -0.714843
0.151216 0.0515887 -0.541191 0.0760348 -0.550531 -0.831345
-0.4365 0.240901 -0.137497 -0.89188 0.346997 0.290075
0.233641 0.00446479 0.0150614 -0.624798 -0.651348 0.43055
-0.279778 -0.133034 0.286901 -0.707111 -0.224249 0.670601
0.453856 0.333386 -0.00945546 0.815844 0.203534 0.541269
-0.357951 -0.112533 -0.193255 -0.842728 -0.329262 -0.425907
0.117211 0.247437 -0.464871 0.1487 0.830695 -0.536501
0.218532 0.381277 0.288357 -0.0760353 0.550531 0.831345
-0.302686 -0.292321 0.0123709 -0.745939 -0.665599 -0.0235268
-0.196134 -0.0492326 -0.121695 0.313754 -0.649969 0.69217
0.359457 -0.190088 0.0908531 0.842227 -0.485453 0.234496
0.139116 -0.0435716 -0.125106 -0.716256 0.464959 0.520376
-0.153361 0.459832 0.202323 -0.0760363 0.550531 0.831345
0.134821 0.218074 -0.505455 0.1487 0.830696 -0.536501
0.545636 0.285231 -0.129686 0.815844 0.203534 0.541269
0.307581 -0.177901 -0.239941 0.705555 -0.487755 -0.514089
-0.23807 -0.105982 0.00472356 -0.149502 -0.830695 0.536278
-0.350404 0.419895 -0.0869013 -0.89188 0.346997 0.290075
0.350371 -0.185429 -0.150124 0.807503 -0.496772 -0.318051
0.255102 0.044872 -0.527241 0.0760365 -0.550531 -0.831345
-0.405946 -0.0417539 0.0848237 -0.969515 -0.12029 0.213475
0.466008 0.432803 -0.0799026 0.601057 0.758019 -0.253252
-0.225261 0.61021 0.0441504 -0.173678 0.973041 -0.151749
0.0131474 -0.208187 -0.0908915 -0.148253 -0.443193 0.884082
-0.289537 0.333563 0.203517 -0.89188 0.346997 0.290075
-0.111246 -0.211842 0.0831332 0.556531 0.801486 -0.218845
0.231773 0.0474574 -0.0733119 -0.607785 -0.58609 0.535813
-0.347615 0.120952 -0.321524 -0.815844 -0.203534 -0.541269
0.24268 0.48716 -0.0589173 0.148702 0.830695 -0.536501
0.155102 -0.186883 0.346979 0.435129 -0.3777 0.817316
-0.154673 0.315415 0.297838 -0.0760363 0.550531 0.831345
-0.121618 -0.137954 -0.12628 0.169653 -0.538447 0.825405
0.383779 0.178515 0.154406 0.815844 0.203534 0.54127
-0.0847532 0.359966 -0.0373985 0.140806 -0.981216 0.131871
0.188485 0.244965 -0.0140094 -0.223485 0.569059 -0.791345
0.31855 -0.242356 -0.124021 0.735728 -0.623073 -0.265488
-0.341642 0.170631 0.186424 -0.816293 0.312901 0.48555
0.14226 0.371485 -0.00880808 -0.0365124 0.481727 -0.87556
0.0953921 -0.233706 -0.0939419 -0.474817 0.535879 0.698128
-0.166012 0.310322 -0.253826 0.604573 0.734745 -0.307639
-0.434527 0.300782 -0.258145 -0.815843 -0.203534 -0.54127
0.115057 0.13205 -0.350234 -0.0596712 0.994138 -0.0901599
0.21697 0.360347 -0.0461711 -0.518728 -0.837617 0.171227
0.280971 0.50752 -0.0167791 0.148702 0.830695 -0.536501
0.0208149 0.0449148 0.413382 0.0632384 0.0911439 0.993828
0.210267 -0.0590999 -0.46249 0.0760357 -0.550531 -0.831345
-0.0753941 0.364772 0.272404 -0.0760349 0.550531 0.831345
0.166368 0.0925925 0.139835 -0.183142 0.546419 -0.817243
0.245914 -0.182917 -0.303052 0.555025 -0.538343 -0.63414
-0.20894 0.188052 -0.555778 -0.815844 -0.203534 -0.54127
0.257887 0.289993 -0.14984 -0.62549 -0.663593 0.410373
0.0211639 0.111905 -0.593028 0.0760366 -0.550531 -0.831345
0.0975686 -0.380326 -0.140341 0.247324 -0.906757 -0.341501
-0.395448 -0.110144 0.0694381 -0.950362 -0.273723 0.147945
0.444954 0.228635 0.0433516 0.815844 0.203534 0.541269
-0.218407 0.0157794 0.0275284 0.625833 0.649438 -0.43193
0.0435774 -0.233618 -0.114849 -0.148594 -0.830938 0.536155
0.521489 0.318203 -0.105689 0.815843 0.203534 0.54127
0.0159852 0.099849 -0.585518 0.0760366 -0.550531 -0.831345
-0.0764077 -0.171988 0.177009 0.408247 0.460193 -0.788389
-0.00989966 -0.126984 -0.149599 0.083087 0.995457 -0.0464906
-0.0815083 0.129587 0.134673 0.375946 0.4518 -0.809037
0.225318 0.0636728 -0.0622761 -0.6153 -0.601012 0.510089
-0.167493 0.376984 -0.343197 0.148702 0.830694 -0.536502
0.015446 0.134859 -0.305158 0.13933 0.521865 0.841572
0.0348571 0.457076 -0.0542453 0.255895 0.437781 -0.861897
0.0920495 -0.411617 -0.0295469 0.242549 -0.960263 -0.138077
-0.261347 -0.192886 -0.26816 -0.613483 -0.530677 -0.584825
-0.429517 0.223433 -0.23661 -0.815844 -0.203534 -0.54127
0.153307 -0.367321 0.167904 0.471522 -0.817619 0.330403
0.294291 0.0452749 0.29588 0.673901 0.0360573 0.737941
-0.192581 0.394784 -0.322589 0.148701 0.830696 -0.536501
-0.0123162 -0.250146 -0.00303359 0.0540005 0.997003 -0.0554006
-0.447956 0.245298 -0.21704 -0.815843 -0.203534 -0.54127
-0.158667 0.622435 0.0559361 -0.122196 0.985289 -0.119469
-0.0682617 -0.226665 0.136325 0.604549 0.733301 -0.311112
-0.413382 -0.0510247 0.0298588 -0.985471 -0.154993 0.0694598
-0.068515 0.066646 -0.251122 0.139775 -0.524519 0.839847
0.39145 0.43919 0.044822 0.815844 0.203534 0.54127
0.216034 -0.342377 -0.0977689 0.514175 -0.827965 -0.223825
-0.119105 -0.189814 -0.0921183 -0.148702 -0.830695 0.536501
-0.10139 0.220451 -0.567244 0.148702 0.830695 -0.536501
-0.201071 0.455835 0.200606 -0.0760362 0.550531 0.831345
0.077852 -0.14116 -0.118634 -0.299172 -0.441097 0.846126
0.415954 0.192629 -0.444276 0.89188 -0.346997 -0.290075
0.0174351 0.21592 0.132108 0.175002 0.442175 -0.879691
-0.230798 -0.0984504 -0.0340866 0.575352 0.780409 -0.244808
0.0523019 0.282083 0.338841 -0.0760361 0.550531 0.831345
-0.230039 0.184327 -0.522574 -0.815844 -0.203534 -0.54127
-0.266349 0.133185 -0.448613 -0.815844 -0.203534 -0.541269
-0.366114 0.00788035 -0.251122 -0.815844 -0.203534 -0.541269
0.302957 0.531374 0.14354 0.815844 0.203534 0.541269
0.127565 -0.0789147 0.390362 0.335394 -0.150351 0.930003
0.208275 0.243361 -0.349338 -0.426015 -0.462994 0.77727
-0.181433 0.128767 0.353911 -0.455874 0.255905 0.852462
-0.25009 0.300846 0.263141 -0.413297 -0.461576 0.784942
-0.281362 0.564381 -0.0845994 0.148701 0.830696 -0.5365
0.305488 0.479766 -0.0529581 0.1487 0.830696 -0.5365
0.400566 0.155281 -0.446911 0.89188 -0.346997 -0.290075
0.488372 0.350649 -0.202188 0.148701 0.830696 -0.5365
0.241474 -0.21721 0.267134 0.601154 -0.477875 0.640508
0.0648324 0.186348 0.123514 0.0529129 0.459749 -0.886471
-0.0891918 0.103539 0.139419 0.0522802 -0.994917 0.0860656
-0.0895756 0.453075 -0.119453 0.529079 0.505874 -0.681298
0.221742 -0.330686 -0.122259 0.536087 -0.803177 -0.259841
0.197738 -0.307415 -0.202129 0.445063 -0.760891 -0.47219
0.400799 0.0224004 -0.28724 0.89188 -0.346997 -0.290075
0.405704 -0.100304 0.0544669 0.93232 -0.315263 0.177166
0.0612033 0.215176 -0.530345 0.148701 0.830695 -0.536501
0.183911 0.10062 -0.57067 0.0760348 -0.550531 -0.831345
0.429129 -0.0247592 0.00906988 0.984695 -0.157502 0.0746312
0.196163 -0.134641 0.0692819 -0.619189 -0.613089 0.49064
-0.263049 0.444512 0.152236 -0.89188 0.346997 0.290075
-0.0564606 -0.0729231 0.235978 0.203539 0.441692 -0.873773
0.125878 -0.404997 0.0518788 0.352727 -0.933835 0.0594619
-0.14679 0.0174555 0.221135 -0.148516 -0.830867 0.536287
-0.389019 0.220213 -0.296441 -0.815844 -0.203534 -0.541269
-0.134729 -0.405224 0.131874 -0.38416 -0.912157 0.142798
-0.242525 0.466988 0.188454 -0.89188 0.346997 0.290075
0.210714 -0.220638 -0.298351 0.462641 -0.595319 -0.656931
-0.426149 0.125835 -0.0305097 -0.619956 -0.632834 0.46387
-0.285923 0.354448 0.189645 -0.89188 0.346997 0.290075
0.379259 0.413524 0.0728479 0.815844 0.203534 0.54127
0.00485527 0.0397351 0.414328 0.0194883 0.0996258 0.994834
0.150818 -0.111529 -0.141498 -0.221135 0.955591 -0.194797
-0.193026 0.194026 -0.177727 0.366084 -0.757694 0.540262
-0.256626 0.586031 -0.0424102 -0.245882 0.942537 -0.2262
-0.236738 0.00350804 -0.444483 -0.815844 -0.203534 -0.541269
0.130925 -0.0190149 0.227981 -0.481261 -0.865642 0.13803
0.352636 -0.0615345 -0.334918 0.89188 -0.346997 -0.290075
0.12424 -0.0472829 -0.478183 0.0760348 -0.550531 -0.831345
0.238944 0.117565 -0.576857 0.0760371 -0.550531 -0.831344
0.214351 0.0396237 0.0451531 -0.61666 -0.707062 0.346113
0.449329 0.42531 -0.0974076 0.148701 0.830695 -0.536501
-0.182885 0.218311 -0.089752 0.622995 0.630905 -0.462423
0.0600356 0.147252 -0.61288 0.076036 -0.550531 -0.831345
-0.219747 -0.00481361 -0.00854188 0.620737 0.690906 -0.370586
-0.00645345 0.0911459 0.219531 0.195465 0.438644 -0.877146
0.00342746 0.137661 -0.352204 0.175389 0.983632 -0.0413081
0.260313 0.498705 -0.0361547 0.148702 0.830695 -0.536502
-0.245986 0.0812759 0.326513 -0.574983 0.185815 0.796786
-0.30164 -0.236199 0.187945 -0.786238 -0.468346 0.40309
0.137212 0.400859 -0.0582808 -0.386011 -0.918897 0.0813839
0.194933 0.503527 0.205243 -0.0760367 0.550531 0.831345
0.35442 0.467219 -0.0588222 0.148701 0.830695 -0.536501
-0.18231 -0.31552 -0.201319 -0.448481 -0.761422 -0.468082
0.490602 0.0689238 -0.0667799 0.89188 -0.346997 -0.290075
-0.102597 0.300144 0.312714 -0.0760359 0.550531 0.831345
0.194881 0.0908022 -0.250791 -0.252325 0.940862 -0.226079
-0.0651747 0.407396 0.245112 -0.0760353 0.550531 0.831345
0.311572 -0.273472 -0.0403943 0.745876 -0.662736 -0.0667071
-0.118083 0.413423 -0.0778186 0.737521 -0.454573 -0.499425
-0.190381 0.148156 -0.568749 -0.815844 -0.203534 -0.541269
-0.310829 0.420701 -0.315235 0.148701 0.830695 -0.536501
0.216613 0.0192992 0.0623178 -0.331738 0.676451 -0.657543
0.233237 0.277636 -0.311343 -0.516951 -0.499232 0.695362
-0.207786 0.0740788 -0.51466 -0.815844 -0.203534 -0.541269
0.176986 -0.0578396 -0.00167487 -0.974239 0.216936 0.0616186
-0.0569594 0.343367 0.288265 -0.0760364 0.550531 0.831345
0.0848338 -0.171875 -0.132178 -0.299172 -0.441097 0.846126
-0.0333478 -0.0494782 -0.242734 0.0189432 -0.476988 0.878706
0.0928671 0.486507 0.207178 -0.0760355 0.550531 0.831345
-0.403549 -0.0710579 0.0744536 -0.962327 -0.185468 0.198815
-0.420339 0.304793 -0.164239 -0.89188 0.346997 0.290075
-0.0766907 -0.151087 -0.42782 0.0760365 -0.550531 -0.831345
0.00988275 -0.0636182 -0.220351 0.0620604 0.996826 -0.049865
0.367468 -0.059933 -0.291231 0.89188 -0.346997 -0.290075
-0.220143 -0.0413754 0.109714 -0.148716 -0.830691 0.536504
-0.0136654 0.468422 -0.0657474 0.349012 0.447276 -0.823489
0.215923 0.418167 -0.0703724 -0.171446 0.540329 -0.823803
0.197654 0.218396 0.00316003 -0.558971 -0.800043 0.217906
-0.177631 -0.252578 -0.283722 -0.407917 -0.656611 -0.634402
-0.4032 0.000924965 -0.142354 -0.959679 -0.088707 -0.266733
-0.142993 -0.316948 -0.229231 -0.324831 -0.776606 -0.539785
0.153419 0.1805 0.0375629 -0.711868 -0.287985 -0.640553
0.438416 -0.0196215 -0.121314 0.89188 -0.346997 -0.290075
-0.13214 0.352867 0.275098 -0.0760359 0.550531 0.831345
0.187164 0.235373 0.0546633 -0.666621 -0.319887 -0.673268
0.213575 -0.323179 0.174994 0.571447 -0.731552 0.37186
-0.31649 -0.271247 0.0693393 -0.782422 -0.611496 0.117849
0.0113758 0.25568 0.344372 -0.0057775 0.52233 0.852724
-0.049416 0.0150587 -0.225698 0.254546 0.96598 -0.0457129
-0.441081 0.239558 -0.225244 -0.815844 -0.203534 -0.54127
-0.340473 -0.0221129 0.238815 -0.833201 -0.0337793 0.551937
-0.361807 -0.0414542 -0.227573 -0.858704 -0.184502 -0.478107
-0.168634 0.315854 -0.274773 0.360427 -0.735802 0.573313
-0.342789 0.17592 0.181088 -0.816293 0.312901 0.48555
-0.3549 0.268637 -0.366078 -0.815844 -0.203534 -0.54127
0.0373171 -0.319331 -0.266574 0.0955358 -0.787006 -0.609504
0.184327 0.214065 -0.331048 -0.217837 0.957198 -0.190574
-0.163006 0.0359236 0.381666 -0.411793 0.117916 0.903616
-0.142474 0.228933 -0.180479 0.609192 0.726687 -0.317509
-0.137114 -0.27813 -0.280996 -0.318539 -0.68563 -0.654557
0.100663 0.393876 0.00271641 0.0579909 0.457786 -0.887169
0.307177 0.49261 0.151756 0.815844 0.203534 0.54127
-0.0518214 -0.117971 -0.197945 0.224441 0.499706 0.836612
-0.362683 0.182326 0.136974 -0.866059 0.316661 0.38687
-0.355554 0.110183 -0.305508 -0.815844 -0.203534 -0.541269
-0.188051 0.25579 -0.536546 0.148701 0.830695 -0.536501
0.00514784 0.297714 0.324178 -0.0760357 0.550531 0.831345
0.357194 -0.186411 -0.128347 0.819608 -0.514523 -0.252009
-0.0433101 -0.139421 -0.432492 0.0760362 -0.550531 -0.831345
-0.284762 0.338395 0.21242 -0.89188 0.346997 0.290075
0.110445 0.234654 0.341584 0.238228 0.475025 0.847112
0.176663 -0.140764 -0.0663376 -0.507329 -0.495378 0.705137
0.0528785 0.0668171 -0.29248 0.036757 0.997644 -0.0579306
0.460363 0.212098 0.0263438 0.815844 0.203534 0.54127
-0.21533 0.320644 -0.443689 0.148701 0.830696 -0.536501
0.204026 0.106373 0.3515 0.468954 0.207692 0.858456
-0.41563 0.389987 -0.251671 -0.89188 0.346997 0.290075
-0.111124 0.252678 -0.330098 0.480556 0.865888 -0.138941
0.209691 0.0707557 -0.110007 -0.363552 0.821215 -0.439814
0.202919 0.299202 0.341281 -0.0760367 0.550531 0.831345
0.0228055 0.1005 0.404311 0.0365923 0.194772 0.980166
0.03744 -0.114307 -0.19374 -0.163955 -0.442953 0.881426
0.238488 0.164175 -0.560175 0.148701 0.830695 -0.536501
-0.292219 -0.216125 0.224059 -0.7662 -0.41588 0.489879
0.299554 0.496955 0.161613 0.815844 0.203534 0.541269
-0.210234 0.606353 0.00441769 -0.198515 0.964269 -0.175435
0.076801 0.577689 0.0352779 0.148699 0.830696 -0.536501
0.0310866 0.373694 -0.0189003 0.233474 0.43749 -0.868385
0.0488371 -0.253769 -0.057453 -0.0643212 0.993533 -0.0935682
-0.0183821 -0.0594155 -0.194763 0.133158 0.990254 -0.0408106
0.192895 0.21479 -0.0204152 -0.583324 -0.771237 0.254805
-0.172317 0.129539 -0.049725 0.623679 0.640108 -0.448649
0.161231 -0.0418328 0.205164 -0.539773 -0.818838 0.195319
-0.276486 -0.19757 -0.246793 -0.65117 -0.509501 -0.562482
-0.277676 0.474755 0.0710857 -0.89188 0.346997 0.290075
0.0684617 0.596674 0.0623618 0.148702 0.830695 -0.536501
0.085018 -0.102157 0.398847 0.246157 -0.165624 0.954974
0.0499509 -0.41783 0.134225 0.222866 -0.953232 0.204154
0.25182 0.178666 -0.534044 0.148701 0.830696 -0.536501
0.201732 -0.0721246 0.0160943 -0.612779 -0.596836 0.517966
0.534697 0.320994 -0.191497 0.62571 0.656466 -0.421354
0.0821236 0.259818 -0.436105 0.0640317 0.97545 0.210705
-0.420464 0.384047 -0.259428 -0.89188 0.346997 0.290075
0.206368 0.0829792 -0.177314 -0.525361 -0.504588 0.685119
0.364149 0.0949515 -0.486713 0.89188 -0.346997 -0.290075
-0.10278 0.559738 0.140789 -0.0760366 0.550531 0.831345
0.309698 -0.0381253 0.276693 0.721018 -0.120028 0.682442
0.270371 0.528977 0.0135051 0.148701 0.830695 -0.536501
0.421842 0.244345 -0.385224 0.148701 0.830696 -0.536501
-0.278238 0.187707 0.258658 -0.65066 0.39034 0.651364
0.167968 0.0128721 0.112259 -0.584085 -0.769247 0.259044
-0.148099 -0.00433327 0.390014 -0.367115 0.024334 0.929857
-0.201481 -0.118309 -0.085589 0.300996 -0.635533 0.710985
0.326741 -0.245242 -0.0890728 0.768029 -0.619234 -0.16334
-0.137013 -0.050861 0.392981 -0.323037 -0.0710012 0.943719
-0.303152 0.335478 0.159364 -0.89188 0.346997 0.290075
0.102603 0.121355 -0.591837 0.0760358 -0.550531 -0.831345
-0.108211 0.0799147 0.178451 0.40074 0.457343 -0.793879
0.25242 0.169634 -0.120663 -0.367327 0.759815 -0.536424
0.00213834 -0.139507 -0.134608 -0.0901886 -0.451709 0.887595
-0.148274 0.592548 0.114901 -0.0760356 0.550531 0.831345
0.192418 -0.229065 0.300643 0.536045 -0.471276 0.700396
0.207581 0.249152 -0.437167 0.148701 0.830696 -0.536501
-0.179794 -0.181364 -0.0871813 0.671038 0.313739 0.671771
0.183347 -0.37548 -0.0314941 0.469108 -0.878798 -0.0874805
0.470109 0.226197 -0.317923 0.89188 -0.346997 -0.290075
-0.0951383 0.542589 0.152844 -0.0760366 0.550531 0.831345
0.204857 -0.115492 0.108567 -0.624682 -0.662261 0.413742
0.175831 0.13018 -0.259311 -0.423345 -0.462367 0.7791
0.202705 0.55395 0.172562 -0.0760361 0.550531 0.831345
-0.194628 0.50122 -0.158356 0.1487 0.830695 -0.536502
-0.407493 -0.0819854 -0.0478809 -0.96181 -0.25978 -0.0862334
-0.456108 0.189306 -0.183697 -0.815844 -0.203534 -0.54127
0.10904 0.360356 0.292197 -0.0760358 0.550531 0.831345
-0.0924569 -0.409664 -0.0588452 -0.207721 -0.947496 -0.243111
-0.09184 -0.287676 0.330994 -0.244062 -0.48836 0.837818
-0.383457 0.181815 0.0793142 -0.924665 0.293089 0.24309
-0.0883541 0.316373 0.303269 -0.0760349 0.550531 0.831345
0.192648 -0.108123 0.0328196 -0.366282 0.797682 -0.479104
0.251307 0.49499 0.216052 -0.076036 0.550531 0.831345
0.21655 -0.0643733 0.0447491 -0.623504 -0.636263 0.454326
0.0104594 -0.430311 0.0860147 0.0823808 -0.995186 0.0530932
0.163454 0.602766 0.136645 -0.076036 0.550531 0.831345
-0.237143 -0.0170859 0.0795412 0.336269 -0.873116 0.352974
0.224218 -0.0542341 -0.0461541 -0.357702 0.833326 -0.421446
-0.333571 0.404765 -0.346213 0.148701 0.830696 -0.5365
0.421078 0.119522 0.120369 0.815843 0.203534 0.54127
-0.262003 0.52338 0.0611093 -0.89188 0.346997 0.290075
-0.104877 0.039195 0.234797 0.371286 -0.550477 -0.747745
-0.141897 -0.380443 0.207297 -0.466135 -0.813953 0.346697
0.0476595 0.614904 0.084822 0.1487 0.830695 -0.536501
-0.418925 -0.0186387 0.00893602 -0.992492 -0.114546 0.042883
-0.0708107 -0.194902 0.380003 -0.148703 -0.314472 0.937547
0.228276 0.407088 0.272156 -0.0760353 0.550531 0.831345
0.00194148 0.16724 0.15588 -0.15863 -0.986475 0.041273
0.194593 0.443448 0.244997 -0.0760367 0.550531 0.831345
-0.0823625 -0.41972 0.142358 -0.195107 -0.970014 0.144932
-0.0493035 0.365495 -0.0210628 0.0585888 -0.994294 0.0891409
-0.369644 0.307656 -0.358526 -0.815844 -0.203534 -0.541269
