ply
format ascii 1.0
comment Created by Open3D
element vertex 827
property double x
property double y
property double z
property double nx
property double ny
property double nz
end_header
-0.218626 0.213471 0.119803 -0.0542444 -0.668952 0.741324
-0.420174 -0.0154032 -0.0836852 -0.263512 -0.51547 0.815384
-0.0481581 0.33415 0.233174 0.125004 0.612849 -0.78025
0.00514626 0.488678 0.363728 -0.12669 -0.602665 0.787873
-0.136493 -0.0829425 -0.0817849 -0.323324 -0.529958 0.783969
0.236532 -0.0312422 0.0229088 -0.0558967 -0.595198 0.801632
-0.0170554 -0.0281714 -0.0224273 -0.133638 -0.636771 0.759384
0.156078 -0.310685 -0.19615 -0.181909 -0.557617 0.809921
0.4026 -0.0211768 0.0558072 -0.150198 0.657053 -0.73873
-0.143028 0.284448 0.184919 -0.129509 -0.599073 0.790151
0.444813 0.00419998 0.0877593 -0.0675455 -0.605523 0.792956
-0.310756 -0.274287 -0.25523 -0.993149 0.113819 0.0264585
0.100109 0.41509 0.31104 0.249414 0.573099 -0.780609
0.282017 0.0302165 0.0695217 0.169643 0.559216 -0.811479
-0.385938 0.00957049 -0.066492 0.0903631 0.620358 -0.779096
-0.152915 0.398517 0.262856 0.0776917 0.600207 -0.796063
-0.509976 0.166547 0.0233815 0.231654 0.466423 -0.85369
-0.313388 0.136207 0.0420741 -0.232015 -0.518093 0.823255
0.576871 -0.144036 -0.00407841 0.153459 0.573637 -0.804606
0.130796 0.161397 0.143767 -0.0595472 -0.600899 0.797104
0.180817 0.0157651 0.0405713 0.129534 0.610614 -0.781263
0.131144 -0.0869478 -0.0419026 0.154451 0.579072 -0.800512
-0.233895 0.0278032 -0.0200463 -0.144129 -0.584165 0.798736
-0.110366 0.437663 0.298904 0.190394 0.407025 -0.893354
0.122671 0.242015 0.201276 -0.0680262 -0.626067 0.776797
-0.597401 0.1261 -0.0249829 0.170245 0.57555 -0.799849
0.32651 -0.211914 -0.0901993 -0.193403 -0.546156 0.815051
-0.429769 0.276542 0.12903 -0.201923 -0.571272 0.795535
-0.388541 0.259085 0.108906 0.164295 0.547173 -0.820737
-0.606749 0.178525 0.0150008 0.173578 0.543137 -0.821507
-0.113087 -0.329242 -0.262532 0.159839 0.520249 -0.838923
-0.334271 -0.11755 -0.152355 0.125003 0.616992 -0.776978
0.00868338 -0.357728 -0.262051 0.128079 0.6503 -0.748802
0.434752 0.0635139 0.130849 -0.15858 -0.574632 0.802901
0.246859 0.17737 0.175212 -0.0461643 0.621797 -0.781817
-0.229176 -0.0697969 -0.0925162 0.184603 0.554085 -0.811734
-0.183586 0.0412813 -0.00653787 0.3505 0.53774 -0.766802
0.391959 0.024721 0.0888213 0.262581 0.548535 -0.793827
-0.68592 0.153044 -0.0113115 -0.961616 0.119275 -0.24712
0.211958 -0.0202177 0.0245871 0.0402606 0.639781 -0.767502
-0.25893 -0.180825 -0.178418 -0.176932 -0.554496 0.81316
-0.210952 0.236755 0.137089 -0.161773 -0.56799 0.80698
0.120908 0.418219 0.331249 -0.100963 -0.608956 0.786752
-0.130184 0.306062 0.190986 0.119942 0.611289 -0.782266
0.514021 -0.0710701 0.0376497 -0.00221043 0.615421 -0.788196
0.415421 0.0316028 0.10219 -0.0989008 -0.615362 0.782015
-0.374068 0.0454052 -0.0378966 0.235415 0.524674 -0.818106
-0.45059 -0.0395297 -0.108119 -0.133375 -0.585429 0.799677
-0.276555 -0.0511553 -0.083117 -0.00395479 -0.60619 0.79531
-0.406595 0.0970626 -0.00700389 0.162275 0.565106 -0.808902
0.154663 0.169567 0.153905 -0.155043 -0.573689 0.804265
-0.480553 0.166119 0.0238948 0.128966 0.589804 -0.797182
0.119502 0.542847 0.421016 -0.169585 -0.561455 0.809944
0.257257 -0.129161 -0.0445055 -0.222847 -0.549266 0.805386
-0.217005 -0.261227 -0.225872 -0.250748 -0.468515 0.847124
-0.15868 0.048905 0.0105049 -0.139162 -0.585641 0.798535
-0.119893 0.0957991 0.0503678 -0.143072 -0.593356 0.792123
0.0320027 0.25859 0.192098 -0.15133 -0.58001 0.80043
-0.126379 -0.256888 -0.205889 -0.0959537 -0.607731 0.788324
0.429571 -0.123604 -0.00421206 -0.198768 -0.542399 0.816268
0.140011 0.359116 0.283948 0.0147141 0.677881 -0.735025
-0.0630152 -0.302869 -0.236238 0.177797 0.551754 -0.814835
-0.285375 -0.342737 -0.304579 0.174616 0.550376 -0.816453
-0.086322 -0.019635 -0.032044 0.177187 0.55653 -0.811714
-0.363294 -0.101288 -0.134394 -0.0547276 -0.679089 0.732013
0.241781 0.355037 0.306786 -0.107803 -0.592832 0.798079
0.655906 -0.136854 0.0202875 -0.188916 -0.569527 0.799968
-0.239311 -0.142997 -0.151858 0.283543 0.536663 -0.79473
0.17863 -0.277751 -0.176376 0.271316 0.518765 -0.810722
-0.125732 0.427141 0.28428 0.13791 0.585911 -0.798554
0.429466 -0.0397959 0.0460406 0.075441 0.61187 -0.787352
0.158036 -0.195958 -0.110841 -0.148752 -0.5791 0.801571
-0.400713 0.174148 0.0575785 -0.0957788 -0.644251 0.758794
0.402592 -0.293751 -0.139058 -0.143236 -0.747085 -0.649113
0.0142081 0.00857615 0.00550741 0.201665 0.551787 -0.809236
0.314195 0.28723 0.26551 0.955966 -0.287325 0.0597699
0.222311 0.309024 0.264364 0.0763511 0.595727 -0.79955
0.366562 0.0915647 0.130962 -0.0111341 0.680779 -0.732404
0.12062 0.0703991 0.0729481 0.216757 0.537373 -0.815013
0.00332491 -0.406761 -0.301193 0.0131945 0.684646 -0.728757
0.239535 0.142633 0.146485 0.165607 0.57783 -0.799179
0.486308 -0.0604559 0.047 0.124277 0.599822 -0.790423
0.533498 -0.099354 0.0269721 -0.141785 -0.585772 0.797977
-0.0331014 0.199182 0.132711 0.161357 0.564431 -0.809557
-0.112612 0.254108 0.166266 -0.167344 -0.550798 0.817691
-0.199751 -0.192144 -0.175501 0.244997 0.560736 -0.790918
0.375943 -0.15236 -0.0452074 0.194435 0.56875 -0.799199
0.144121 0.251776 0.206362 0.0924336 0.609018 -0.787752
0.0840471 -0.411651 -0.277675 -0.0578022 -0.675551 0.735044
0.0843495 -0.154564 -0.103287 0.221089 0.502515 -0.835822
0.218752 0.180045 0.166683 0.301386 0.501836 -0.810757
-0.132942 -0.532832 -0.408606 -0.207292 -0.570042 0.795036
-0.444131 0.188179 0.0580229 -0.104442 -0.628683 0.770617
-0.0886314 0.0556981 0.0188654 -0.0153031 0.6143 -0.788924
-0.519705 0.0855683 -0.0334946 -0.0117866 -0.581235 0.81365
0.0212833 0.0789181 0.0590472 0.0824201 0.695856 -0.713436
-0.0194279 0.112832 0.0807541 -0.112032 -0.610608 0.783969
0.327106 0.0596827 0.105306 -0.151222 -0.57799 0.80191
0.515369 -0.154335 -0.0157806 -0.24312 -0.51253 0.823532
0.0237252 0.178387 0.13669 -0.188987 -0.531031 0.826008
0.568496 -0.0443686 0.0663751 0.105259 0.62829 -0.770825
-0.156186 -0.243774 -0.202603 0.182102 0.559528 -0.808559
-0.501448 0.0933841 -0.0203889 -0.136125 -0.59481 0.792257
0.119991 -0.176833 -0.105882 -0.216623 -0.523219 0.824206
0.191806 0.43182 0.352571 -0.0272108 -0.595358 0.802999
0.483452 -0.194319 -0.0514404 -0.0572418 -0.603709 0.795147
0.204503 0.411367 0.333407 0.13165 0.595151 -0.792757
0.183937 -0.179054 -0.104146 0.0960306 0.611681 -0.785254
-0.199186 -0.277445 -0.247448 -0.0172216 0.659995 -0.751073
0.10486 -0.395157 -0.264583 0.169696 0.575225 -0.8002
-0.22352 -0.372157 -0.313109 0.0978946 0.646682 -0.756451
0.18958 0.321998 0.267094 0.055195 0.637195 -0.768724
0.00526249 -0.216584 -0.164098 0.116941 0.593084 -0.796603
0.109181 0.465285 0.355408 0.150402 0.573131 -0.805543
-0.43493 0.0565963 -0.0383602 0.234227 0.564452 -0.791538
-0.17945 -0.133488 -0.128945 -0.120685 -0.5994 0.7913
-0.457212 -0.0936287 -0.146018 0.0112404 -0.658924 0.752125
-0.238877 0.250072 0.142567 -0.164509 -0.567509 0.806765
0.541242 -0.0371151 0.0678305 0.130273 0.602194 -0.787649
-0.5229 0.118352 -0.0111211 0.301934 0.524021 -0.79639
0.0711686 -0.305485 -0.216947 0.0189425 0.601835 -0.798396
0.14646 0.236089 0.195338 0.226375 0.563572 -0.794444
-0.0961716 0.135349 0.077746 0.0244416 0.706803 -0.706988
0.339606 -0.0308688 0.045319 0.0116157 -0.609747 0.792511
-0.514866 0.205486 0.0601085 -0.182969 -0.554973 0.811497
0.593178 -0.127196 0.0128577 0.147484 0.579994 -0.801159
-0.250689 -0.0558706 -0.0903038 0.193281 0.550123 -0.812408
-0.163818 -0.217803 -0.192762 0.0579784 0.589915 -0.805381
-0.0657254 0.057316 0.0275844 -0.0270954 0.611986 -0.790404
-0.22096 -0.0258869 -0.0653085 0.193108 0.572516 -0.796828
0.0282722 0.130811 0.104339 -0.15806 -0.573605 0.803738
-0.229204 -0.0650889 -0.0980648 0.223049 0.549722 -0.805019
-0.0248032 -0.089801 -0.0727362 0.139931 0.592547 -0.793289
-0.169272 0.381014 0.24734 -0.961686 0.266868 -0.062784
0.0332509 -0.479922 -0.340237 0.557343 -0.641483 -0.527133
0.388139 -0.054811 0.0288377 0.24303 0.567328 -0.786814
-0.392329 -0.0499149 -0.10424 -0.198314 -0.525277 0.8275
0.209722 0.154134 0.154897 -0.0405946 -0.612597 0.789353
0.273649 -0.170949 -0.0795043 0.080358 0.642261 -0.762262
-0.505315 0.247902 0.0838374 -0.562525 0.550529 0.616833
-0.192463 0.0810577 0.0262928 -0.0635215 -0.600495 0.797101
0.634216 -0.180882 -0.0190586 0.607156 -0.612746 -0.505869
0.408138 -0.00571627 0.0671146 0.182131 0.524945 -0.831421
-0.00327221 0.457431 0.337181 -0.305878 -0.442621 0.842927
-0.138465 0.0620462 0.0167717 0.273501 0.543571 -0.793554
0.0418213 0.337642 0.25808 -0.284566 -0.553433 0.782773
-0.295527 -0.198628 -0.202942 0.189074 0.526966 -0.828588
-0.0919787 0.329164 0.217922 0.0873508 0.597927 -0.796777
0.200885 0.241996 0.218548 -0.126959 -0.602363 0.788061
-0.14369 0.0657639 0.0208535 -0.167375 -0.574229 0.801403
-0.401892 0.117093 0.00674846 0.184483 0.532205 -0.826271
0.104497 -0.429825 -0.296712 0.0680688 0.618489 -0.78284
-0.141166 -0.316581 -0.254687 0.0249573 -0.621881 0.782714
-0.00737408 0.37495 0.273903 -0.140771 -0.593311 0.792569
0.0869462 -0.0592485 -0.024113 -0.253469 -0.464952 0.848276
-0.00851318 -0.452283 -0.326525 -0.0683278 -0.593162 0.802178
0.0750124 -0.0129934 0.00101331 0.115798 0.589925 -0.799112
-0.0230117 0.360709 0.253286 0.0400174 0.671206 -0.74019
-0.0954663 -0.171183 -0.139143 -0.167976 -0.573604 0.801725
0.1445 0.497029 0.384425 0.0666726 0.607298 -0.791672
0.214213 -0.132756 -0.064862 0.101657 0.59598 -0.796539
0.207379 0.0697381 0.0848021 0.150648 0.564285 -0.811719
-0.401425 0.214736 0.0881685 -0.108448 -0.653547 0.749076
-0.122991 -0.0356104 -0.0429108 -0.175602 -0.573569 0.800114
-0.248352 -0.226651 -0.215587 0.165535 0.56961 -0.805073
-0.0204049 -0.331634 -0.249166 0.344203 0.489986 -0.800898
-0.215059 0.0633546 0.00968061 -0.107791 -0.626008 0.772331
0.190101 -0.0886464 -0.0306309 0.11402 0.639316 -0.760443
-0.0806708 -0.451917 -0.349078 0.221099 0.513888 -0.828876
0.0618618 -0.14998 -0.101701 0.122302 0.591688 -0.796836
-0.104201 0.214647 0.1335 0.152088 0.566618 -0.809823
0.287966 0.21879 0.216922 -0.166515 -0.533448 0.82928
-0.162655 -0.222534 -0.185136 -0.28575 -0.545211 0.788094
-0.208069 -0.249774 -0.213843 -0.18898 -0.574889 0.796108
0.0228045 -0.0381674 -0.0153805 -0.170715 -0.578715 0.797462
-0.292934 -0.0996558 -0.122153 -0.111331 -0.644048 0.756841
0.00333331 -0.0607249 -0.0468941 0.222481 0.470513 -0.853885
-0.23696 0.0522701 -0.0062709 0.119591 0.634706 -0.763444
0.28253 -0.0933884 -0.0243892 0.235686 0.50165 -0.832346
0.15519 0.415591 0.340506 -0.351006 -0.457659 0.81691
-0.243127 0.104886 0.0246554 0.123147 0.598709 -0.791443
0.00392097 0.0766173 0.060816 -0.174153 -0.471592 0.864449
0.160322 0.0841431 0.0973114 -0.0783492 -0.606516 0.791201
0.23116 -0.0939388 -0.024316 -0.147744 -0.580567 0.800696
-0.423626 0.0737794 -0.0252591 -0.00472826 0.657842 -0.753141
0.574663 -0.209638 -0.0540009 0.357584 0.453195 -0.816546
-0.100632 -0.23253 -0.181924 -0.137287 -0.587579 0.797436
0.359631 -0.177672 -0.0667607 0.182782 0.447813 -0.875245
0.0962574 -0.185805 -0.110827 -0.0310502 -0.648779 0.760343
-0.117706 0.0227733 -0.00622419 -0.159571 -0.567047 0.808081
0.183383 -0.303496 -0.182661 -0.0981997 -0.610646 0.785792
0.100126 -0.0186105 0.00360315 -0.163255 -0.563558 0.809784
-0.0954011 -0.129524 -0.116786 0.136999 0.585694 -0.79887
-0.359508 0.0158883 -0.044254 -0.0680285 -0.601291 0.796129
-0.47756 0.255649 0.0978409 -0.572632 0.684581 0.451044
-0.155289 0.180126 0.0974239 0.128078 0.603992 -0.786632
0.0838777 -0.233487 -0.150059 -0.266129 -0.478216 0.83695
0.0489373 -0.400223 -0.286704 0.225089 0.522894 -0.822141
0.173003 0.209005 0.191505 -0.234692 -0.54396 0.805623
0.242335 -0.158646 -0.0659476 -0.197593 -0.567166 0.79955
-0.11214 0.371642 0.257028 -0.147632 -0.581959 0.799705
0.467265 -0.00102415 0.0816154 0.0240896 0.600826 -0.799016
0.255054 -0.0936716 -0.0162912 -0.145865 -0.583341 0.799023
-0.0355348 0.193572 0.134256 0.164895 0.569896 -0.805002
0.176431 -0.238407 -0.141514 0.155198 0.565562 -0.809971
-0.176464 -0.295012 -0.243856 -0.120975 -0.61804 0.776783
0.243014 0.381801 0.325639 -0.147877 -0.582 0.79963
-0.0984819 -0.127466 -0.114393 0.132792 0.587523 -0.798238
-0.429164 -0.10182 -0.158129 0.0600205 0.643553 -0.763044
-0.135039 -0.267568 -0.223271 0.125856 0.607669 -0.784155
-0.115329 -0.0864645 -0.0862218 0.235358 0.483375 -0.843182
0.0895235 -0.388857 -0.264742 -0.110949 -0.590825 0.799134
-0.454346 0.129036 0.0123332 -0.025556 -0.598898 0.800417
-0.114513 -0.10875 -0.0933827 -0.0686813 -0.627742 0.775386
0.472252 -0.261666 -0.105014 0.549692 -0.679387 -0.486079
-0.157675 0.107553 0.0563078 -0.104413 -0.61025 0.785298
0.3292 0.124878 0.154323 0.149654 0.778534 0.609499
-0.266458 0.243894 0.123594 0.166635 0.514117 -0.841378
-0.32383 0.180908 0.0683804 0.0883278 0.612084 -0.785844
0.390962 -0.260242 -0.111585 -0.0733909 -0.744316 0.663782
-0.073641 -0.523912 -0.388009 -0.231809 -0.519812 0.822228
0.309284 0.266958 0.25897 -0.221143 -0.520544 0.8247
-0.0536198 0.253469 0.175135 -0.199774 -0.566379 0.799566
0.42379 0.102377 0.15287 0.0902397 0.631022 -0.770499
0.266827 -0.0758042 -0.0120483 0.256976 0.478909 -0.83941
0.438148 -0.0253355 0.0650582 -0.136437 -0.593055 0.793518
0.0898265 0.516093 0.394891 -0.218448 -0.560773 0.798633
-0.285714 0.189795 0.0927918 -0.307633 -0.476795 0.823424
0.0826889 -0.289545 -0.198846 0.194193 0.569375 -0.798812
0.452357 -0.109264 0.00105895 0.0572601 0.650067 -0.757717
0.197627 0.217585 0.19355 -0.369118 -0.476108 0.798169
-0.410411 0.0119346 -0.060771 -0.208781 -0.568824 0.795518
0.0286927 -0.457836 -0.335472 0.0881576 0.601858 -0.793722
-0.174449 -0.306797 -0.25506 -0.120919 -0.629166 0.767808
0.00966572 -0.469802 -0.342577 0.188459 0.444087 -0.87594
-0.505986 -0.028177 -0.117911 0.036958 0.670657 -0.740846
0.119431 0.204167 0.166482 0.237154 0.544996 -0.8042
-0.306033 0.114945 0.0284558 -0.140461 -0.590902 0.794421
0.214025 0.0488413 0.076671 -0.112345 -0.587063 0.801708
-0.091185 -0.512844 -0.387133 -0.14403 -0.584052 0.798835
0.577611 -0.0463675 0.0762646 0.13335 -0.636896 0.759329
0.179124 0.172512 0.16621 -0.15883 -0.568446 0.807244
0.486637 -0.219455 -0.0712472 0.2309 0.552089 -0.801176
0.247207 0.306485 0.265816 0.183448 0.527828 -0.829304
-0.0904136 -0.418347 -0.314481 -0.0356604 -0.640344 0.76726
0.129917 -0.197123 -0.116684 -0.169721 -0.548709 0.818604
0.63666 -0.0956222 0.0548826 0.793603 0.42298 0.437359
0.436215 -0.268846 -0.112279 -0.138299 -0.587219 0.797525
0.315702 0.0443082 0.0945053 -0.144451 -0.58283 0.799652
0.540867 0.00676869 0.101012 0.152515 0.497801 -0.853776
-0.345475 0.220581 0.096998 -0.118942 -0.6056 0.78683
0.0456243 0.279451 0.21153 -0.087306 -0.621563 0.778484
0.0217876 -0.0580022 -0.0326516 0.0703496 0.654066 -0.753159
0.1786 0.418155 0.329491 0.0807436 0.614584 -0.784708
0.120579 0.182331 0.156645 -0.173419 -0.557124 0.81212
-0.0892457 0.0515067 0.0183603 0.206248 0.429196 -0.879348
-0.0568826 0.254255 0.170899 0.192185 0.52383 -0.82986
-0.0727755 0.257844 0.173398 0.207962 0.520574 -0.828103
-0.216697 -0.0138145 -0.0482639 -0.132047 -0.594607 0.793099
-0.500159 0.0433802 -0.0651973 0.203406 0.500341 -0.841597
0.488512 0.0498103 0.126219 -0.181998 -0.52882 0.828991
-0.325241 -0.0144591 -0.0761625 0.0966908 0.616439 -0.781443
-0.0754718 0.379898 0.261661 0.0558527 0.640722 -0.765738
0.433894 -0.157514 -0.0395521 0.104689 0.607953 -0.787041
-0.0483788 -0.2907 -0.218487 0.00863267 -0.616549 0.787269
-0.280045 0.126003 0.0386996 0.183646 0.569894 -0.800934
0.0160525 -0.393366 -0.286064 0.147491 0.581219 -0.800269
0.0284474 -0.321407 -0.231296 0.201145 0.54667 -0.81283
0.0392478 0.441083 0.325832 0.199032 0.570008 -0.797168
-0.135417 -0.154965 -0.142646 0.26148 0.551704 -0.791992
-0.297718 -0.330304 -0.292636 -0.779468 -0.46663 -0.417955
0.0989071 0.217986 0.18147 -0.16138 -0.567476 0.807421
0.177944 0.300297 0.246764 0.174542 0.578891 -0.796505
-0.161962 0.216635 0.127999 -0.114182 -0.597052 0.794035
-0.0922375 -0.099833 -0.0892286 -0.11378 -0.607781 0.785911
0.353455 -0.00970229 0.0631361 -0.135811 -0.592575 0.793983
-0.0722345 -0.498735 -0.379627 0.11719 0.609328 -0.78421
-0.475889 -0.029972 -0.105254 -0.0854564 -0.589863 0.802969
0.272348 -0.115338 -0.0355725 0.016869 0.673301 -0.739176
0.0528878 0.323019 0.24132 0.200878 0.503682 -0.84021
-0.61248 0.065331 -0.0663537 -0.810063 -0.389616 -0.438175
0.029941 0.126075 0.0977351 -0.169581 -0.576751 0.799125
-0.136416 0.381598 0.259344 -0.0563047 -0.625484 0.778203
-0.161467 -0.239182 -0.206685 0.157006 0.555608 -0.816486
0.278596 0.34781 0.301177 0.141394 0.592708 -0.792909
-0.189473 -0.460639 -0.371001 -0.198397 -0.555008 0.80784
0.156878 0.29034 0.24502 -0.0252086 -0.623915 0.781085
0.175589 -0.348674 -0.214509 -0.243841 -0.556138 0.794513
0.257523 0.220994 0.205154 0.0645543 0.597956 -0.798925
-0.0336446 -0.260338 -0.193741 -0.171548 -0.543257 0.821854
-0.404336 0.271063 0.126979 -0.216904 -0.528311 0.820878
0.268163 -0.039375 0.0254286 -0.325815 -0.429313 0.842339
0.0524297 0.226104 0.177887 -0.163422 -0.574 0.802383
-0.560963 0.148463 0.00305569 0.413163 0.508321 -0.755583
-0.124406 0.0749732 0.0321256 -0.280201 -0.52325 0.804796
-0.191676 -0.460609 -0.366018 -0.144815 -0.595466 0.79022
0.319914 0.0808853 0.121409 -0.146437 -0.582251 0.799712
0.0607825 -0.246588 -0.165344 -0.081079 -0.594183 0.800233
0.0309687 -0.200692 -0.142874 0.194384 0.526544 -0.827627
-0.582162 0.0683627 -0.0507285 -0.0753843 -0.63181 0.771449
-0.177237 -0.154382 -0.151506 0.26952 0.468201 -0.841514
0.166347 0.450304 0.36854 -0.151998 -0.577151 0.802367
0.13767 0.437489 0.340695 0.107698 0.633896 -0.765884
-0.290846 -0.170614 -0.183472 -0.963485 0.265249 -0.0365851
-0.221914 0.215375 0.12163 -0.345105 -0.408146 0.845174
-0.0193856 -0.0467804 -0.0376441 -0.119247 -0.59549 0.794464
0.189168 -0.122698 -0.0542285 0.184591 0.515723 -0.836633
0.0482054 0.339135 0.257949 -0.150775 -0.580372 0.800272
-0.298793 0.11257 0.0309159 -0.189141 -0.516932 0.83487
-0.19411 -0.0775376 -0.0942137 0.270133 0.480983 -0.834077
0.129033 -0.408663 -0.264876 -0.107619 -0.59208 0.798661
0.0745585 0.332244 0.256105 -0.190801 -0.513535 0.836586
-0.153518 -0.198027 -0.169534 -0.267564 -0.545315 0.794381
-0.109704 -0.521407 -0.399175 0.229503 0.518271 -0.823847
0.0816894 -0.036413 -0.00939147 -0.210139 -0.559081 0.802041
-0.0619128 -0.262348 -0.208981 0.0127194 0.587897 -0.808836
0.0746969 -0.364231 -0.249682 -0.196732 -0.50527 0.840237
-0.0884983 -0.434568 -0.336044 0.234214 0.569505 -0.787913
0.167195 -0.0259178 0.0118972 0.0267299 0.713169 -0.700482
-0.177092 0.167053 0.0952205 -0.266547 -0.489346 0.830357
-0.315399 -0.130845 -0.148901 -0.217904 -0.486098 0.846302
0.00254291 0.225356 0.168457 -0.0989274 -0.625741 0.773733
-0.0346961 0.373948 0.273989 -0.05077 -0.613092 0.788379
0.0142444 0.394829 0.298239 -0.16609 -0.564499 0.808551
0.359213 -0.112253 -0.016264 -0.0568272 -0.628514 0.775719
0.223062 0.243229 0.221685 0.106222 0.685581 -0.720206
-0.0311268 -0.503819 -0.365975 -0.0895543 -0.648097 0.756274
0.633064 -0.129037 0.0212555 -0.189247 -0.523241 0.830906
-0.0987543 -0.471878 -0.359985 -0.237133 -0.523332 0.818469
-0.301949 0.00516196 -0.0608458 0.191058 0.532793 -0.824396
-0.139138 -0.264962 -0.220727 -0.133357 -0.591757 0.795009
-0.256211 0.0825803 0.0175658 -0.123614 -0.617863 0.776509
-0.202435 0.027963 -0.0210292 0.199721 0.406344 -0.891625
-0.486412 0.061787 -0.0410748 -0.107328 -0.618694 0.778266
-0.461818 0.152708 0.0226838 0.155779 0.570872 -0.806125
0.279706 -0.00213925 0.0478772 0.232861 0.545319 -0.805235
-0.413893 0.101109 -0.00839275 0.11097 0.592366 -0.79799
0.340684 -0.0773416 0.0126396 -0.201888 -0.554547 0.807291
0.130326 0.519598 0.396946 0.158421 0.574303 -0.803168
-0.0255314 -0.35068 -0.266597 0.194899 0.562189 -0.803715
-0.106785 -0.00655554 -0.0184007 -0.033075 -0.599513 0.799682
0.0874869 0.275384 0.214178 0.00643747 0.676275 -0.736621
-0.573367 0.0484661 -0.0692479 -0.00274068 0.737832 -0.674979
0.172268 0.158222 0.145238 0.115204 0.62685 -0.770576
-0.683093 0.159646 -0.00433953 -0.729343 0.63547 0.253449
0.000288977 -0.0205872 -0.0151121 0.094584 0.673787 -0.732847
-0.350848 -0.0111176 -0.0710853 -0.263499 -0.507033 0.820662
0.223443 -0.0387644 0.00959117 0.146242 0.582377 -0.799656
0.253375 0.0762001 0.100916 0.149653 0.561562 -0.813788
-0.250426 -0.00944588 -0.0548278 0.0669802 0.653208 -0.75421
-0.441531 -0.0614551 -0.125699 -0.0141393 0.669464 -0.74271
0.25678 -0.0176575 0.0347862 -0.116442 -0.597536 0.793343
0.00551998 0.308247 0.218314 0.255936 0.494095 -0.830883
0.134533 -0.232694 -0.147562 0.18736 0.425549 -0.885327
-0.412372 -0.0646704 -0.124801 0.137347 0.592975 -0.793421
-0.116713 -0.0683195 -0.0722041 -0.0978893 -0.607495 0.788269
-0.255724 0.0213923 -0.0258965 -0.193061 -0.543968 0.816594
-0.0738328 0.154523 0.0987058 0.0130615 0.641973 -0.766616
-0.566389 0.189758 0.0306976 -0.00105978 0.616537 -0.787325
0.540168 -0.0830977 0.0411297 -0.17408 -0.566899 0.805185
-0.189593 0.283916 0.179055 -0.971888 0.230677 -0.0471265
-0.10018 0.0724718 0.0334664 0.320895 0.425138 -0.846336
0.186007 0.399207 0.329486 -0.133641 -0.649731 0.748324
0.0337232 0.0325385 0.037358 -0.176188 -0.512872 0.840191
0.546846 -0.0564339 0.0539192 0.185654 0.568637 -0.801364
0.109957 -0.22792 -0.152693 0.156136 0.565691 -0.809701
-0.359164 0.0297608 -0.0431589 -0.100733 -0.616813 0.780637
0.160118 0.00948069 0.0319163 0.108548 0.625525 -0.772616
-0.0469522 -0.494375 -0.366336 -0.209455 -0.527093 0.82359
-0.0582442 -0.0142954 -0.022621 0.0454423 0.601351 -0.797691
0.214209 -0.130116 -0.0568695 -0.14979 -0.576595 0.803182
-0.111101 0.0592737 0.0204892 -0.0799523 0.598681 -0.796987
0.0529167 0.403998 0.307771 -0.152555 -0.574556 0.804122
-0.217088 -0.257078 -0.232889 0.0723067 0.629136 -0.773925
-0.108037 -0.280282 -0.227084 0.209076 0.53305 -0.819845
0.59146 -0.195788 -0.0293702 0.00841545 -0.718154 0.695833
-0.536293 0.178083 0.0291112 0.262261 0.482909 -0.835475
0.256303 -0.257112 -0.142158 0.0780199 0.623688 -0.77777
-0.148616 0.422197 0.276543 -0.655502 0.60323 0.454347
0.463305 -0.0407635 0.0609388 -0.0437361 -0.67777 0.733972
-0.417291 -0.0325167 -0.100164 0.343776 0.447752 -0.825431
-0.372683 0.0467423 -0.0380754 0.159971 0.573328 -0.803558
0.465285 0.0177537 0.0964392 -0.110479 -0.617578 0.778712
-0.0192449 0.357102 0.252776 0.129947 0.601954 -0.787886
-0.37969 0.102435 0.000414622 0.138756 0.588182 -0.796736
0.184149 0.139557 0.137271 -0.0857962 -0.599991 0.795393
-0.0753518 -0.147586 -0.118929 -0.134496 -0.592748 0.794078
-0.278122 -0.266762 -0.250279 0.0607298 0.59683 -0.800066
-0.0054555 -0.42565 -0.311636 0.124044 0.613931 -0.779552
-0.0315526 0.269838 0.18794 0.0502359 0.723516 -0.688477
-0.283808 0.0982008 0.0163927 0.153859 0.576102 -0.802767
0.489058 -0.250311 -0.0897347 -0.18159 -0.576136 0.796927
-0.155948 -0.119949 -0.122294 0.0779559 0.645864 -0.759462
-0.130299 -0.200993 -0.178823 0.0545251 0.633495 -0.771823
-0.176186 -0.245765 -0.213629 0.00833128 0.592292 -0.80568
0.126457 0.485177 0.376178 -0.151715 -0.572218 0.805946
-0.180126 -0.422093 -0.334578 -0.172068 -0.552362 0.815653
-0.226089 0.0912777 0.0204387 0.212213 0.556695 -0.803154
0.558815 0.00226066 0.108447 0.805296 0.39506 0.44207
-0.256326 -0.37979 -0.315642 -0.0169632 -0.620606 0.783939
0.254651 -0.00742877 0.0367095 0.281817 0.550454 -0.785862
-0.153689 0.398893 0.265951 -0.0844789 -0.588045 0.804404
0.294883 0.196033 0.19591 0.977357 -0.211132 0.014046
0.174594 0.381132 0.300338 0.121783 0.617524 -0.777067
-0.180811 -0.316253 -0.265992 0.0650348 0.643322 -0.762828
-0.172566 0.342113 0.217903 -0.0669066 -0.610104 0.789492
-0.0177527 -0.150995 -0.109767 -0.0767545 -0.603587 0.793594
-0.0798271 -0.484225 -0.364797 -0.229231 -0.499537 0.835414
0.201119 0.41479 0.346083 -0.291255 -0.537399 0.791437
0.0564863 0.359434 0.276217 -0.0514501 -0.628312 0.776259
0.0981646 -0.253786 -0.162569 -0.1174 -0.624165 0.772421
-0.0436693 -0.228135 -0.170839 0.230636 0.537035 -0.811419
-0.546588 0.106547 -0.018159 -0.0416681 -0.614118 0.788113
0.133312 0.45074 0.355938 -0.0695039 -0.609408 0.789804
0.272022 0.347437 0.300314 0.273803 0.541038 -0.795179
-0.60728 0.0845707 -0.0441666 -0.0284946 -0.673843 0.738325
-0.309743 0.223102 0.103998 0.232223 0.521782 -0.820863
-0.536178 -0.0226847 -0.116082 0.172081 0.555543 -0.813486
-0.0188934 -0.298185 -0.224601 0.108079 0.626672 -0.771752
-0.391251 0.0560401 -0.0260845 -0.236778 -0.437218 0.867627
-0.260246 -0.0843704 -0.103067 -0.241173 -0.546794 0.80178
-0.136726 -0.165473 -0.1375 -0.166487 -0.558474 0.812643
-0.235624 -0.349455 -0.301011 0.154167 0.581186 -0.799034
-0.269028 -0.300505 -0.273206 0.134021 0.584282 -0.800408
0.0517833 -0.107292 -0.0710777 0.233376 0.514879 -0.824885
0.645644 -0.113739 0.0313208 0.141819 0.588383 -0.796048
-0.598263 0.0594854 -0.0685066 0.152851 0.581183 -0.799289
-0.0550177 0.163187 0.105636 0.104347 0.614428 -0.782042
0.341583 0.0821028 0.125217 -0.0279097 -0.652338 0.757414
0.088018 0.132504 0.111072 -0.146477 -0.582288 0.799678
-0.163744 0.0218078 -0.0114865 -0.145528 -0.583501 0.798967
0.115247 0.550025 0.418013 -0.607344 0.64099 0.469324
-0.491326 -0.0854423 -0.151406 -0.700247 -0.524315 -0.484508
-0.538252 0.163451 0.0158608 0.144531 0.584149 -0.798675
-0.243791 -0.0908529 -0.107414 -0.13386 -0.58651 0.798803
0.160635 0.479145 0.380806 -0.0960583 -0.623446 0.775943
-0.0991732 -0.487326 -0.37906 0.0141671 0.632911 -0.774095
0.00601561 0.244369 0.179599 -0.125751 -0.626991 0.76881
0.179953 -0.263414 -0.150276 -0.100664 -0.623423 0.775378
-0.00864447 0.202515 0.143312 0.150255 0.578986 -0.801373
-0.0657176 -0.107251 -0.0853245 -0.152926 -0.575472 0.803397
-0.477435 -0.0591845 -0.135842 0.105632 0.620834 -0.776792
0.249918 0.305107 0.270018 -0.103375 -0.597526 0.795158
0.533066 -0.0988416 0.0289686 -0.114273 -0.591004 0.798534
0.0817013 0.290634 0.236708 -0.192827 -0.556823 0.807939
-0.164424 -0.40636 -0.320521 -0.12813 -0.602334 0.787893
0.1447 0.045983 0.0557225 0.106661 0.632742 -0.766982
-0.020036 -0.469737 -0.34938 0.241922 0.494043 -0.835102
-0.409486 0.133845 0.0268635 -0.203696 -0.539417 0.81703
-0.290068 0.0417755 -0.024709 0.205837 0.493929 -0.844787
0.00330978 -0.221024 -0.153992 -0.100087 -0.604763 0.790091
0.10314 -0.100674 -0.0539764 -0.299351 -0.522065 0.798647
-0.0343537 -0.190444 -0.142109 -0.0614481 -0.614902 0.786206
0.620602 -0.0685643 0.0593215 0.195451 0.569194 -0.798634
-0.184906 -0.232412 -0.19913 -0.157158 -0.557566 0.815121
-0.150155 -0.0257006 -0.0445438 -0.0974453 -0.624672 0.774783
0.343709 -0.0663578 0.0117418 0.145144 0.583348 -0.799149
0.442834 0.0447228 0.114808 -0.078284 -0.652717 0.753546
-0.512995 0.0598469 -0.0447498 -0.110417 -0.617725 0.778604
0.043747 0.172609 0.13602 -0.112443 -0.606594 0.78702
-0.260271 0.121573 0.0375858 0.0965388 0.60675 -0.789008
-0.155256 0.105454 0.0522035 -0.178778 -0.557071 0.810994
0.156004 0.503467 0.398446 -0.156156 -0.539821 0.827169
0.349619 -0.220478 -0.0921634 -0.182953 -0.550057 0.814841
-0.292135 -0.0926334 -0.124128 0.0832718 0.639614 -0.764172
-0.202579 0.188193 0.0947511 0.121193 0.623119 -0.772681
-0.301324 -0.273528 -0.25606 0.0964598 0.625637 -0.774128
-0.125039 -0.474567 -0.364343 -0.082127 -0.607063 0.790398
-0.493717 -0.0184357 -0.0984393 -0.0670773 -0.616229 0.784706
-0.0202007 -0.00265235 6.42246e-05 -0.0627729 -0.632863 0.771715
0.0301821 0.241747 0.180014 -0.20856 -0.538218 0.816593
0.0898943 -0.270924 -0.18025 -9.82512e-05 -0.68081 0.73246
-0.171197 -0.119505 -0.122737 0.212495 0.50747 -0.835057
-0.167556 -0.3877 -0.313383 -0.0646896 -0.624005 0.778738
0.125865 -0.00338684 0.0249439 -0.130342 -0.630636 0.765055
-0.240742 0.00670759 -0.036109 -0.136493 -0.585387 0.799182
-0.183816 0.270557 0.16565 -0.100017 -0.627985 0.771771
0.106047 0.263635 0.204081 0.167882 0.543777 -0.822267
0.255577 0.0973417 0.117945 -0.134208 -0.586544 0.798721
0.0392331 -0.181653 -0.128255 0.174763 0.575016 -0.799258
0.505612 -0.184932 -0.038248 -0.198695 -0.501663 0.841935
-0.494698 0.021036 -0.0788021 0.0451246 0.64075 -0.766422
0.177351 -0.322425 -0.20377 0.113009 0.675323 -0.728813
0.161516 -0.308007 -0.194988 -0.252448 -0.498595 0.82926
0.139848 -0.32964 -0.215461 0.229723 0.558294 -0.797205
-0.381087 0.0892211 0.00193107 -0.188777 -0.552795 0.811653
-0.205638 -0.327131 -0.273557 -0.0756299 -0.602551 0.794489
-0.239042 -0.293777 -0.262588 0.00592399 0.625765 -0.779989
0.0589469 0.264216 0.201623 0.201509 0.484338 -0.851358
0.142881 0.33487 0.274363 -0.210017 -0.542322 0.813498
0.296006 0.130457 0.145206 0.19325 0.57396 -0.795754
0.353901 -0.141768 -0.0373183 -0.183772 -0.536344 0.823749
0.121987 0.268882 0.223375 -0.104666 -0.620353 0.777308
-0.405865 -0.0575338 -0.118301 0.146972 0.581911 -0.799862
0.14446 0.40306 0.326173 -0.107103 -0.603661 0.790014
0.259824 -0.198666 -0.0947984 -0.149369 -0.580428 0.800495
-0.082128 0.00433675 -0.0164111 0.136936 0.586836 -0.798042
-0.236686 0.00216875 -0.0373774 -0.16035 -0.562581 0.811043
-0.187588 0.224992 0.126699 0.110189 0.594081 -0.796823
0.376353 -0.197013 -0.0687951 -0.160677 -0.57627 0.801309
0.28522 -0.187143 -0.0864939 0.0966056 0.596103 -0.797075
-0.447799 0.146825 0.0316233 0.090931 -0.621533 0.778092
0.249597 0.0961991 0.116607 -0.10417 -0.631941 0.767984
-0.201135 -0.374912 -0.307841 -0.284486 -0.438718 0.852405
0.19521 0.195531 0.182247 -0.218545 -0.568686 0.792991
-0.574711 0.0156784 -0.0887133 -0.301903 -0.467616 0.830777
0.370855 0.0363534 0.0994645 -0.108467 -0.620968 0.776294
-0.163523 -0.443063 -0.351748 0.277031 0.457197 -0.845118
-0.0915373 -0.211975 -0.178975 -0.00976736 0.686893 -0.726693
0.156842 -0.331645 -0.207873 0.0119683 -0.616695 0.787112
-0.0741971 -0.173453 -0.14279 0.150578 0.57519 -0.804041
0.210979 -0.0220211 0.0199634 0.1094 0.680916 -0.724144
0.211541 0.137694 0.140589 -0.193152 -0.520329 0.831835
0.197972 -0.0655617 -0.0149912 0.0436068 0.646517 -0.761652
-0.0665991 -0.216479 -0.168716 -0.176458 -0.46331 0.868451
-0.175695 -0.089593 -0.0916108 -0.171302 -0.562601 0.808787
0.361594 -0.0464868 0.0304455 -0.0663067 -0.608514 0.790768
-0.457198 0.0737625 -0.0242138 -0.120159 -0.615444 0.778968
0.00171622 0.0992247 0.075153 -0.12722 -0.603145 0.787421
0.0703193 -0.281061 -0.190455 -0.155611 -0.575521 0.802846
-0.140852 -0.378507 -0.308481 0.123333 0.590137 -0.797827
-0.213545 -0.152938 -0.148274 0.17233 0.558927 -0.811112
0.0496534 -0.0905765 -0.0499315 -0.123601 -0.603083 0.788044
-0.173736 -0.365471 -0.296775 0.0911088 0.625438 -0.774936
0.615678 -0.11607 0.0326407 -0.150076 -0.574327 0.804752
0.602297 -0.0446255 0.0765402 0.833581 0.373137 0.407324
0.0262325 -0.0964977 -0.0578895 -0.204074 -0.451078 0.86884
0.152718 -0.13748 -0.0772936 0.292053 0.508469 -0.81004
-0.262199 0.264867 0.137623 0.181942 0.512187 -0.839382
-0.395421 -0.00700839 -0.0750344 -0.253868 -0.529619 0.809355
-0.158954 0.29266 0.187991 -0.0859638 -0.626052 0.775028
0.0857975 -0.339296 -0.23611 0.0363038 0.629163 -0.776425
0.14961 0.228177 0.192834 0.166248 0.572171 -0.803108
-0.0893431 -0.105608 -0.0895741 -0.142303 -0.584816 0.798587
0.196241 0.451304 0.363944 0.805696 0.395691 0.440775
-0.363538 -0.0624174 -0.11608 0.0681403 0.653048 -0.754245
0.0469387 -0.00470485 0.00975553 -0.0692565 -0.636919 0.767814
-0.370679 -0.0247876 -0.0877882 0.0710645 0.607382 -0.791225
0.114154 -0.261965 -0.175874 0.142483 0.584702 -0.798638
0.0347963 -0.235866 -0.168205 0.0739818 0.611082 -0.788103
-0.588999 0.0366845 -0.0853786 -0.797533 -0.343065 -0.496234
0.0386953 0.485245 0.360144 -0.232499 -0.567802 0.789648
0.0464236 -0.132374 -0.0857921 -0.19188 -0.543634 0.817095
0.2884 -0.190303 -0.0840325 -0.235085 -0.451228 0.860888
0.417904 0.0516291 0.114346 -0.0400393 -0.670716 0.740633
-0.0477641 -0.439926 -0.324981 -0.127097 -0.590078 0.79728
0.0511812 0.207463 0.164924 -0.0834073 -0.615529 0.783688
-0.0789442 -0.398195 -0.30612 0.198782 0.518953 -0.831368
0.105773 0.482546 0.374691 -0.0611168 -0.630333 0.773915
0.240233 -0.0704012 -0.0107187 0.283262 0.546564 -0.788055
0.239482 -0.0712099 -0.0123728 0.14137 0.592701 -0.792919
-0.542935 0.225943 0.0653823 0.101361 0.64032 -0.761391
-0.232271 0.0294165 -0.0259894 0.14507 0.583809 -0.798825
0.197044 0.197544 0.187982 -0.140056 -0.582962 0.800337
0.0450008 -0.403654 -0.281363 -0.125424 -0.602286 0.788365
0.571498 -0.0655981 0.0551696 0.245296 0.504063 -0.8281
0.218405 0.345825 0.295233 0.0241705 -0.711076 0.7027
0.0900057 0.00211509 0.0213292 -0.221292 -0.507829 0.83255
0.299094 -0.123599 -0.0278185 -0.140464 -0.597699 0.78932
-0.0135433 -0.487127 -0.362348 0.117872 0.613094 -0.781167
0.323822 0.0620339 0.110375 -0.214497 -0.531855 0.81922
0.0279789 -0.296975 -0.209188 -0.249513 -0.443803 0.860687
-0.149945 -0.00310346 -0.0271473 -0.0934756 -0.647035 0.756709
0.508925 -0.187185 -0.0457556 0.0506924 0.63572 -0.770253
-0.152198 -0.415925 -0.339546 0.264709 0.476131 -0.838588
-0.0506163 0.215959 0.142615 0.277817 0.464822 -0.840689
-0.543674 0.135709 0.00285028 -0.166535 -0.574176 0.801616
-0.218283 -0.00507087 -0.0471759 0.0646162 0.623235 -0.779361
0.0758044 0.1819 0.144076 0.173294 0.567309 -0.805065
0.36681 0.113711 0.153128 0.168789 0.806738 0.56629
-0.469551 0.201218 0.0512856 0.058664 0.601748 -0.796529
0.0602398 0.408564 0.312844 -0.169441 -0.553275 0.815584
0.446019 -0.0973313 0.0131469 0.0218387 -0.594777 0.803594
-0.0483332 0.36197 0.250516 0.231371 0.528164 -0.817013
-0.196494 0.144937 0.0622975 0.16249 0.573272 -0.803091
0.579209 -0.0645449 0.0544115 0.0938234 0.603069 -0.792152
0.225578 0.0992403 0.111742 0.003014 0.609071 -0.79311
-0.24974 -0.315861 -0.271355 -0.108572 -0.599702 0.792824
0.0748789 -0.204946 -0.138119 0.253417 0.571058 -0.780815
0.147945 0.277324 0.225839 -0.176014 -0.536494 0.825344
-0.11475 -0.356342 -0.280711 0.132296 0.600207 -0.788828
-0.0193326 0.306593 0.224066 -0.0343769 -0.640877 0.766873
0.0519589 -0.123909 -0.0865711 0.172773 0.569602 -0.803557
0.54548 -0.0197314 0.0909697 -0.216885 -0.449225 0.866694
-0.602318 0.170598 0.0130288 -0.00675421 0.684858 -0.728646
0.0132736 0.474264 0.343433 0.313265 0.533218 -0.785839
-0.399066 -0.0245972 -0.0891224 -0.0745742 -0.661753 0.746004
-0.0376827 -0.484323 -0.353332 -0.103868 -0.603669 0.79044
0.455837 -0.153299 -0.0242641 -0.15912 -0.565276 0.80941
0.29114 0.298603 0.270937 0.0660808 -0.643827 0.762312
-0.0793485 -0.46148 -0.346628 -0.186565 -0.572813 0.798172
-0.236895 -0.366309 -0.306014 -0.151178 -0.578783 0.801346
-0.113297 0.402142 0.274553 -0.11916 -0.596029 0.794072
0.520471 0.0304237 0.113824 0.151647 0.566086 -0.810277
0.1684 0.431866 0.351372 -0.217105 -0.499218 0.838836
-0.626791 0.165757 0.005155 0.181216 0.542782 -0.820091
-0.168761 -0.490484 -0.388605 -0.812722 -0.462147 -0.354829
-0.419045 -0.0391453 -0.105177 -0.137539 -0.589917 0.795664
-0.12763 0.119739 0.0591922 0.00141715 0.598761 -0.800927
0.0451601 0.503202 0.369452 0.129914 0.596275 -0.792198
0.523723 -0.219066 -0.0666041 0.0941771 0.610162 -0.78666
0.0565477 0.139703 0.10812 0.136838 0.586941 -0.797982
-0.560588 0.190999 0.0329575 0.189192 0.546983 -0.815485
-0.275501 -0.0104636 -0.0494234 -0.19537 -0.555911 0.807956
0.397786 -0.0119632 0.0536155 0.0797069 0.636024 -0.767541
-0.170268 -0.156021 -0.142789 0.159677 0.572732 -0.80404
0.0726658 -0.135177 -0.0883593 0.0549418 0.636837 -0.769038
0.126539 -0.042684 -0.00490248 -0.0515819 -0.612162 0.789048
-0.39932 0.270528 0.118699 -0.031419 0.653937 -0.755896
0.516089 -0.125783 -0.000104106 0.28578 0.470146 -0.835041
-0.356309 0.131696 0.0245629 0.119255 0.594761 -0.795008
-0.0969594 0.133175 0.0798574 0.291746 0.451874 -0.843027
0.136704 -0.370581 -0.23463 -0.114857 -0.687159 0.71737
0.277089 -0.0034579 0.0507005 -0.176253 -0.576438 0.797906
0.0163241 0.194835 0.149526 -0.0136948 -0.633926 0.773272
-0.0412702 -0.460571 -0.341373 0.0999815 0.672177 -0.733609
0.327293 -0.111991 -0.0159364 -0.176806 -0.574723 0.79902
0.139611 0.337128 0.279065 -0.114396 -0.604455 0.788383
-0.187427 -0.206923 -0.187865 0.143452 0.586369 -0.797241
0.1415 -0.246049 -0.160204 0.0589002 0.600249 -0.797642
-0.135638 -0.138059 -0.130856 0.156751 0.575828 -0.802404
-0.0564444 0.312799 0.218578 -0.137635 -0.588676 0.796566
-0.520972 0.141639 -0.000322232 0.197126 0.544672 -0.815152
-0.411375 -0.0820164 -0.140916 0.137691 0.583363 -0.800456
0.180397 -0.141841 -0.0757619 0.250595 0.558933 -0.79044
0.549502 -0.166453 -0.0289855 0.144718 0.583768 -0.798919
-0.53368 0.0441534 -0.0669506 0.177656 0.542284 -0.821198
-0.0460608 0.462698 0.32 0.16732 0.538427 -0.825894
0.143542 0.206769 0.169794 0.0881882 0.638554 -0.764508
-0.143167 -0.117145 -0.106956 -0.0812989 -0.654269 0.75188
0.330941 -0.0477087 0.0282116 -0.167665 -0.567427 0.806173
0.183671 0.0726982 0.0843083 0.0866936 0.592573 -0.800838
0.0386425 -0.360979 -0.256695 0.191063 0.55568 -0.809145
0.126794 -0.289377 -0.182112 -0.133464 -0.598425 0.789984
-0.111376 0.0182331 -0.00509548 -0.340188 -0.479148 0.809129
-0.0980591 -0.389627 -0.301561 -0.20062 -0.467705 0.860816
-0.159095 0.134994 0.0681668 -0.325993 -0.491527 0.807546
-0.150198 -0.0619643 -0.0715839 0.0389611 0.656596 -0.753236
-0.0944809 -0.151004 -0.130823 0.277985 0.480599 -0.831714
-0.00324703 0.270458 0.188216 0.0581944 0.617067 -0.784755
0.170364 0.236038 0.205001 -0.149423 -0.580926 0.800123
0.173871 0.340562 0.280257 -0.118876 -0.593341 0.796125
0.0152794 -0.165558 -0.117325 0.0782121 0.59882 -0.797056
-0.41616 0.16479 0.0441739 -0.237368 -0.552638 0.798904
0.379682 -0.194482 -0.0717897 -0.198711 -0.559559 0.804617
-0.427158 0.119698 0.00913739 -0.179646 -0.540203 0.822136
0.117279 -0.374624 -0.257542 0.225583 0.509337 -0.830475
-0.0719504 -0.43784 -0.327948 -0.155938 -0.577762 0.80117
-0.290669 -0.284693 -0.258283 -0.069311 -0.619948 0.781576
-0.04744 0.210869 0.151202 -0.147281 -0.582013 0.799731
-0.159336 0.362927 0.232355 0.160484 0.569609 -0.806096
-0.48808 0.198814 0.0504977 0.205059 0.527889 -0.824187
0.012712 0.442397 0.328566 -0.176298 -0.539861 0.823085
-0.273014 -0.114355 -0.129114 -0.0940457 -0.62324 0.776355
-0.0673951 -0.388893 -0.291621 -0.101119 -0.616621 0.780739
0.0854702 0.157864 0.133217 -0.154132 -0.546853 0.822919
-0.306863 0.0127849 -0.0427638 -0.16534 -0.571334 0.803891
-0.0368063 -0.148853 -0.119356 0.160453 0.577502 -0.800466
0.0953617 -0.1207 -0.0750913 0.0513668 0.645681 -0.761877
0.239093 0.0500566 0.0760458 0.0939821 0.637748 -0.76449
0.236884 0.161685 0.154449 0.244624 0.552446 -0.796846
0.238952 0.180917 0.180098 -0.164455 -0.539024 0.82608
0.226102 -0.00645295 0.0345717 -0.0120557 0.64578 -0.763428
0.418051 -0.212947 -0.0831069 0.306328 0.553459 -0.774497
0.564009 -0.189948 -0.0286295 -0.122176 -0.605463 0.78644
0.0653593 -0.325033 -0.230895 0.0858674 0.610501 -0.787347
-0.507943 0.189829 0.0412722 0.16887 0.573537 -0.801585
-0.122972 -0.478691 -0.367816 -0.148604 -0.579553 0.801271
0.0321262 0.0176716 0.0131373 -0.223831 -0.509214 0.831024
-0.195694 0.251306 0.154485 -0.10331 -0.630343 0.769412
-0.162383 -0.175366 -0.159462 0.202072 0.555938 -0.806288
-0.389405 0.131122 0.0239469 0.178201 0.55622 -0.811704
0.0816885 0.100545 0.0854148 -0.177054 -0.573868 0.799579
-0.413185 0.245846 0.107706 -0.213092 -0.549642 0.807765
0.175081 0.054384 0.0681563 0.140019 0.586569 -0.797704
0.301459 0.0738771 0.1108 -0.158551 -0.570281 0.806003
-0.131281 0.209236 0.123802 0.158309 0.576546 -0.801582
0.0589673 0.071158 0.0618767 0.202544 0.524125 -0.827205
-0.022345 -0.413567 -0.305226 0.110508 0.616678 -0.77942
0.101795 -0.0123218 0.00855091 0.164841 0.555996 -0.814676
0.390729 -0.137951 -0.0315041 0.116662 0.647043 -0.753476
0.177811 0.395335 0.320406 -0.0145557 0.676724 -0.736093
0.106219 0.145315 0.125231 0.140466 0.589435 -0.79551
-0.42187 0.183685 0.0569134 -0.177035 -0.553629 0.813728
0.352367 0.108873 0.144576 -0.134693 -0.585924 0.799094
0.266251 0.315129 0.283251 -0.209543 -0.551808 0.807217
-0.0396175 0.0732413 0.050274 -0.191245 -0.559934 0.806163
-0.110081 0.236782 0.14138 0.207982 0.520498 -0.828146
-0.385669 -0.0708999 -0.126609 0.00416014 0.665957 -0.745978
-0.453307 0.131212 0.0147975 -0.19734 -0.552128 0.810069
-0.216702 -0.360575 -0.299605 -0.111552 -0.625485 0.772221
-0.209702 -0.41469 -0.342876 0.128965 0.584016 -0.801432
0.0304889 0.422774 0.311786 0.110021 0.588994 -0.800613
0.247069 0.341219 0.298549 -0.0376951 -0.649064 0.759799
0.463363 -0.27058 -0.105427 -0.161518 -0.572772 0.803644
-0.337577 0.279224 0.139169 0.108708 0.767346 0.631951
-0.230878 -0.0517771 -0.0781368 -0.180503 -0.53442 0.82572
-0.0825794 -0.530987 -0.407368 0.571211 -0.710541 -0.410914
0.0136884 0.250517 0.185431 -0.209636 -0.496496 0.842345
0.423071 -0.126805 -0.00874712 -0.175459 -0.541967 0.82188
0.198966 -0.173432 -0.0881162 -0.154058 -0.56846 0.808158
-0.538514 0.179734 0.0311158 -0.0312817 -0.639921 0.767804
0.248515 -0.0520714 0.0128194 -0.190053 -0.563445 0.803996
-0.368812 0.111416 0.0135396 0.0376745 0.666095 -0.744915
0.0541804 0.525972 0.391006 -0.528102 0.770672 0.356614
-0.071391 -0.218035 -0.166174 0.015069 -0.642972 0.765741
0.236846 0.0102644 0.0445751 0.202424 0.506685 -0.83803
-0.266544 -0.326493 -0.286832 0.0656352 0.653524 -0.754055
0.261392 0.0116566 0.0560549 0.105284 0.590901 -0.799844
-0.173075 -0.0630708 -0.0864158 0.110903 0.609658 -0.784868
0.0361293 0.154616 0.113655 0.176793 0.559124 -0.810015
-0.049638 -0.0859879 -0.0655356 -0.206734 -0.525816 0.825093
-0.079094 0.0696924 0.0384483 -0.132842 -0.593878 0.793513
-0.119892 -0.189274 -0.164562 0.150543 0.575359 -0.803927
-0.0478295 -0.31852 -0.24723 0.141717 0.587081 -0.797027
-0.00392131 -0.376196 -0.279719 0.0593806 0.59032 -0.804982
-0.0721363 -0.344597 -0.263141 -0.174708 -0.561978 0.808491
-0.340153 0.108587 0.0121779 0.130007 0.589417 -0.797299
0.0316061 0.265115 0.195892 0.189499 0.540639 -0.819634
-0.00561844 -0.240497 -0.174512 -0.22431 -0.516613 0.826315
-0.106824 -0.245845 -0.204079 0.161077 0.574732 -0.802332
-0.477819 -0.048453 -0.120324 -0.130885 -0.623132 0.771088
0.497996 -0.133841 -0.000574763 -0.115326 -0.694675 0.710019
0.283395 0.10045 0.123555 -0.229358 -0.43996 0.868234
-0.20098 -0.144149 -0.137306 -0.124641 -0.592849 0.79561
-0.2509 0.1961 0.0921421 0.0922003 0.622628 -0.777067
-0.327524 0.233359 0.112063 -0.155833 -0.571687 0.805537
-0.374416 -0.0378975 -0.0992415 -0.0197324 0.70392 -0.710005
0.41149 -0.0769862 0.0216301 -0.211256 -0.565839 0.796992
-0.167918 0.301005 0.182761 0.0476774 0.739729 -0.671213
-0.630842 0.149259 -0.00835624 0.152584 0.578903 -0.800992
-0.514214 0.0627458 -0.0508854 -0.1411 -0.599979 0.787474
0.0254496 -0.344712 -0.250813 -0.102097 0.660295 -0.744034
0.145372 0.116384 0.112262 0.0315319 0.65998 -0.750621
0.371519 0.0688099 0.117504 0.199684 0.563496 -0.801622
0.0890951 0.365788 0.277477 0.245564 0.532081 -0.810302
-0.0287188 0.0354405 0.0211642 -0.135767 -0.594876 0.792269
0.122876 0.41492 0.329419 -0.0385712 -0.631566 0.774362
-0.529151 -0.0471613 -0.126591 -0.806945 -0.377951 -0.453864
0.132995 -0.309825 -0.19942 -0.167409 -0.564836 0.808044
-0.263183 -0.209956 -0.203434 0.191444 0.570832 -0.798436
0.55097 -0.169877 -0.0265797 0.19237 0.550441 -0.812409
0.0284603 0.364246 0.273623 -0.143046 -0.587426 0.796535
-0.229131 0.148213 0.0724683 -0.138607 -0.586312 0.79814
-0.367305 0.150784 0.0357283 0.182405 0.564537 -0.805001
-0.0507941 -0.128935 -0.104494 0.0227605 0.61463 -0.788487
0.115023 0.395683 0.313064 -0.207709 -0.544832 0.812413
0.0689543 0.014459 0.0270384 -0.0732939 -0.601686 0.795363
-0.393736 0.0769882 -0.0194525 0.144202 0.58254 -0.799908
0.330528 -0.15688 -0.0544536 -0.184866 -0.541316 0.820245
-0.183732 0.310672 0.198964 -0.98028 0.188915 0.0579811
0.0288607 0.505304 0.375969 -0.551373 0.689618 0.469484
0.111129 0.124215 0.113233 -0.108573 -0.621621 0.775757
0.0274602 0.294234 0.222931 -0.107456 -0.600211 0.792591
-0.0900736 -0.218582 -0.171453 -0.179815 -0.558392 0.809855
0.142958 -0.119277 -0.0540556 -0.195573 -0.55 0.811943
0.0551484 0.138905 0.106682 0.180832 0.567303 -0.803409
0.496626 0.0732113 0.142168 0.244915 0.480739 -0.841966
0.0493764 0.301233 0.224134 0.11492 0.606822 -0.786486
-0.0726547 0.206669 0.131548 0.315623 0.525035 -0.790392
0.0467724 -0.258673 -0.174812 -0.158389 -0.561505 0.812173
0.335598 -0.177464 -0.0739602 0.148694 0.581088 -0.800142
-0.34869 0.239534 0.115575 -0.16954 -0.558109 0.812262
-0.0684418 -0.191397 -0.158911 0.274189 0.556826 -0.784069
0.0691236 0.533233 0.403077 -0.121032 -0.592246 0.796615
0.358539 -0.176367 -0.0674986 0.132121 0.594498 -0.793168
-0.251332 0.191699 0.0919405 -0.082092 0.629561 -0.772602
0.254397 0.0147437 0.0572751 0.0223625 -0.646797 0.762334
0.410439 -0.112342 -0.00635157 -0.210598 -0.559764 0.801444
0.397913 0.0245184 0.0895085 0.281997 0.543869 -0.790369
-0.302862 -0.312669 -0.285525 0.176441 0.561247 -0.808622
0.122261 0.223927 0.185782 -0.230409 -0.57037 0.78841
0.228599 -0.254046 -0.140125 0.00309636 -0.607215 0.794531
0.602442 -0.174515 -0.0108355 -0.394305 -0.514373 0.761541
0.159081 -0.0430538 0.0011567 -0.112787 -0.599235 0.792588
-0.297564 -0.200243 -0.200794 -0.985424 0.16135 0.0538962
-0.376625 0.205679 0.0774996 0.204045 0.508486 -0.836545
-0.0438793 -0.0149409 -0.015166 -0.327026 -0.507931 0.796907
-0.588055 0.100168 -0.0405993 0.264978 0.53786 -0.800308
-0.116874 0.237479 0.152507 -0.169874 -0.559267 0.811396
-0.232731 -0.110449 -0.116034 -0.23842 -0.486739 0.840381
-0.564731 0.0353887 -0.0791026 0.168601 0.527118 -0.832899
0.485057 -0.0422495 0.0548524 0.13842 0.591714 -0.794176
-0.539897 0.225462 0.0694209 -0.27218 -0.555889 0.785433
-0.0820182 0.38611 0.262448 0.144911 0.587892 -0.795854
0.258405 0.181521 0.186233 -0.231342 -0.541033 0.808557
-0.124382 0.119977 0.0657667 0.0371222 -0.645095 0.7632
0.48121 -0.0977742 0.0219933 -0.135205 -0.596299 0.791295
-0.0766618 -0.129799 -0.106467 -0.197946 -0.558614 0.805461
0.161765 0.319031 0.261664 0.224586 0.509282 -0.830778
0.37208 -0.220811 -0.0886333 -0.0687862 -0.741772 0.667116
0.0664176 -0.0717241 -0.0442702 0.17143 0.559011 -0.811245
-0.216016 -0.390142 -0.326087 -0.198633 -0.501909 0.841803
0.112581 -0.233081 -0.150204 -0.0229289 0.699821 -0.71395
-0.121146 -0.128808 -0.11273 -0.104839 -0.629694 0.769736
0.197304 0.376839 0.30104 0.163636 0.570694 -0.804693
-0.171137 -0.011592 -0.0439908 0.132857 0.596665 -0.791416
0.00865585 0.031956 0.0297228 -0.0841123 -0.62483 0.776217
0.30161 0.0727246 0.111826 -0.22129 -0.527765 0.820058
-0.371286 0.247177 0.115604 -0.171715 -0.560467 0.81018
-0.0602368 -0.472274 -0.354991 0.226884 0.547494 -0.805465
0.137647 0.25844 0.207201 0.0844122 0.657369 -0.748826
-0.131861 0.000465868 -0.0203738 -0.327847 -0.471634 0.818583
-0.112959 -0.0871745 -0.0857005 0.174579 0.564166 -0.806994
0.058581 0.4287 0.322357 0.0352522 0.73565 -0.676444
0.0822957 0.0552325 0.0543907 0.0820135 0.603766 -0.792931
-0.080706 0.221641 0.14118 0.130164 0.603298 -0.786822
0.275235 0.084095 0.105509 0.166342 0.538915 -0.825773
-0.336468 0.0201663 -0.0410096 -0.158421 -0.534634 0.830102
-0.011431 0.15376 0.112767 -0.210826 -0.485435 0.848473
0.467461 -0.0139907 0.070163 0.329208 0.472863 -0.817327
-0.00622033 -0.457036 -0.324362 -0.205647 -0.552618 0.807665
-0.237835 -0.210484 -0.197921 -0.111133 -0.656842 0.745793
0.230253 0.329081 0.285433 -0.147365 -0.580263 0.800986
-0.266562 0.212905 0.110212 -0.130695 -0.602169 0.787598
0.108787 -0.162757 -0.0886574 -0.299606 -0.475581 0.827078
0.133759 0.299555 0.246538 -0.285573 -0.447941 0.847229
0.128655 0.136732 0.126172 -0.00186801 -0.686608 0.727025
0.0814073 0.140724 0.111882 0.172571 0.561644 -0.809182
-0.53763 0.0138618 -0.0846051 -0.108951 -0.615241 0.780775
0.285626 -0.168893 -0.072607 0.166341 0.556737 -0.813864
-0.0258729 0.430391 0.307101 0.0916556 0.626211 -0.774247
-0.228519 0.115924 0.043866 -0.125436 -0.611059 0.781583
0.269806 0.367339 0.313783 0.799512 0.395997 0.451626
0.14396 -0.423919 -0.283873 0.130071 0.588711 -0.79781
-0.104291 -0.0449701 -0.0533114 0.208596 0.511279 -0.833715
0.153512 0.0939698 0.102666 -0.180656 -0.569426 0.801946
