ply
format ascii 1.0
comment Created by Open3D
element vertex 831
property double x
property double y
property double z
property double nx
property double ny
property double nz
end_header
-0.409664 -0.131281 0.366245 -0.918837 0.373467 -0.127514
-0.0396649 0.0783131 0.363095 0.000295944 0.635204 0.772344
-0.239319 0.133993 -0.221419 -0.868894 0.436004 -0.234359
-0.394596 -0.127755 0.39903 -0.395847 -0.558497 0.728963
-0.292124 0.0183814 -0.171797 -0.929959 0.367652 -0.00278895
-0.0565471 -0.391464 -0.0101487 -0.217112 -0.698255 -0.682131
0.274177 -0.0976995 0.0318497 0.90107 -0.41579 0.123258
0.183284 0.215492 0.0329104 0.312796 0.608664 -0.729168
-0.203748 -0.0700419 -0.298915 -0.288634 -0.763185 -0.578134
0.00985129 -0.253474 -0.169845 -0.15623 -0.737628 -0.656885
-0.441091 -0.371124 0.185259 -0.351464 -0.567635 0.744489
-0.00965934 0.0554101 0.381662 0.237151 0.702873 0.670618
0.157373 -0.337024 0.203024 0.889469 -0.403268 0.214989
-0.11531 0.276933 0.177328 -0.323506 0.816398 0.478371
-0.099997 -0.204956 0.472212 -0.34535 -0.560419 0.752771
-0.229645 -0.0528988 -0.303042 -0.718644 -0.399929 -0.568864
0.198154 0.152975 0.211087 0.21732 0.706976 0.673021
-0.0186215 -0.215113 0.4991 -0.36626 -0.534948 0.76137
-0.201835 -0.110846 -0.259799 -0.242823 -0.714548 -0.656093
0.281672 -0.142532 -0.199892 0.905622 -0.400262 0.140137
0.159563 -0.336761 0.175315 0.93649 -0.344585 0.0651691
-0.366323 -0.0495869 0.478067 -0.389436 -0.524562 0.757083
-0.334593 -0.101402 0.44754 -0.398764 -0.566028 0.721526
0.271286 -0.180166 -0.217849 0.948685 -0.316029 0.011066
-0.435167 -0.377535 0.131336 -0.827879 -0.40307 -0.390066
0.159773 -0.201585 -0.17848 0.768938 0.316483 0.555494
0.0171221 0.058642 0.367087 0.288267 0.681131 0.673025
0.112509 0.215705 -0.038336 0.267567 0.649344 -0.711871
0.0249134 -0.0316234 0.454314 0.115147 0.805943 0.580687
-0.241016 0.206083 0.0340363 -0.903722 0.380389 -0.196448
-0.336853 -0.376145 0.221124 -0.484976 -0.513918 0.707592
-0.0520171 -0.443519 0.300916 -0.340108 -0.564538 0.752079
-0.0158803 0.270144 0.160226 0.128803 0.727233 0.674198
-0.0797579 -0.112524 -0.29547 -0.223034 -0.681965 -0.696548
-0.160389 -0.0257036 -0.322197 0.477468 0.532569 -0.698852
-0.243968 0.00749623 -0.309137 -0.788312 -0.340033 -0.512779
-0.229084 -0.079892 -0.281359 -0.18866 -0.732199 -0.65444
0.231996 -0.0590448 -0.170526 0.354489 0.56995 -0.741279
0.186362 -0.284098 0.141929 0.940783 -0.338954 -0.00620318
-0.125968 -0.528298 0.195915 -0.299085 -0.631182 0.715652
0.155128 -0.30088 0.381569 0.943337 -0.330422 0.0306109
-0.137805 0.133758 0.337558 0.182533 0.690503 0.69992
-0.0617095 0.102449 0.34454 0.152923 0.705058 0.692465
-0.18728 -0.328257 0.331076 -0.449382 -0.475596 0.756217
0.100715 -0.313527 0.474362 -0.139588 -0.637108 0.75803
0.246615 0.115966 0.213883 0.764113 0.383099 0.519006
0.0754518 -0.235673 -0.213686 -0.210869 -0.704739 -0.677405
0.150367 -0.363861 0.020957 0.510005 -0.852027 -0.118087
-0.269807 0.138353 0.101591 -0.921749 0.374257 -0.101543
-0.423246 -0.222367 0.10767 -0.912591 0.392623 -0.114123
0.152852 -0.216185 0.537021 0.948865 0.13973 0.283073
-0.10035 0.0217734 0.441401 0.290427 0.676927 0.67633
0.161102 -0.342496 0.14099 0.876023 -0.449004 0.176009
0.271239 -0.0548913 -0.155033 0.296844 0.684248 -0.6661
-0.133578 -0.479055 0.106042 -0.257337 -0.659903 -0.705908
-0.393761 -0.104621 0.238158 -0.926783 0.364705 -0.089796
0.191807 -0.250056 0.212794 0.935417 -0.343331 0.0843683
-0.248568 -0.304401 0.319466 -0.268899 -0.638118 0.721456
-0.297413 0.0511088 0.000445013 -0.941247 0.321846 0.102322
0.258364 -0.135606 0.0538295 0.925342 -0.378465 -0.0224985
0.241692 -0.130536 0.233293 0.914492 -0.382863 0.130842
-0.130192 -0.326837 0.359016 -0.416328 -0.443241 0.793857
0.257676 0.0999174 0.106565 0.157341 0.741482 0.652264
-0.213144 -0.272399 0.367011 -0.293419 -0.612664 0.733859
-0.421212 -0.178923 0.210704 -0.837556 0.475806 -0.26853
0.0551042 0.260912 0.00856194 0.179919 0.696954 -0.694179
-0.370281 -0.42759 0.163629 -0.264221 -0.648977 0.713454
0.221694 0.130999 0.221976 0.207699 0.665292 0.717111
-0.0362411 -0.335281 -0.0729063 -0.254277 -0.686071 -0.681653
-0.259536 0.154048 0.0413739 -0.932193 0.352462 -0.0823784
-0.27554 -0.0839346 -0.190238 -0.761848 -0.219327 -0.609494
0.114171 0.257858 -0.264838 0.278917 0.662314 0.695374
-0.0316626 -0.253151 0.459896 -0.378592 -0.562902 0.734717
-0.0553114 0.208332 0.234016 0.28062 0.681526 0.675851
-0.113061 -0.0439998 0.519289 0.164159 0.583183 0.795581
0.236224 -0.143158 0.171395 0.908087 -0.392514 0.145984
0.178006 -0.236444 0.407507 0.909508 -0.401084 0.109213
-0.442838 -0.277859 0.259624 -0.431132 -0.562248 0.705693
0.111185 -0.0799745 -0.241866 0.332197 0.595513 -0.731443
0.152392 -0.370057 0.0525442 0.650725 -0.699942 -0.294343
0.204099 -0.181942 0.337612 0.863745 -0.460204 0.20532
-0.353846 -0.111891 -0.0587816 -0.865792 -0.00628183 -0.500365
-0.0587047 -0.252816 -0.150826 -0.191926 -0.748697 -0.634521
-0.170247 0.341726 -0.0263829 0.284569 0.61862 -0.732346
-0.302056 -0.374681 0.240142 -0.174782 -0.680847 0.711265
-0.0954758 -0.497841 0.117272 -0.210335 -0.693279 -0.689293
-0.147049 -0.404894 0.286626 -0.333412 -0.5954 0.730983
0.266788 0.0910012 0.201005 0.812724 0.280543 0.510662
0.322481 0.0163052 0.0610238 0.893544 -0.413684 0.174485
0.0688573 0.178114 0.230867 0.223006 0.775253 0.590975
-0.300671 0.0474397 0.399802 -0.516585 0.78464 0.342754
-0.340806 -0.011475 0.156676 -0.944482 0.324228 -0.0531933
0.122884 0.306079 0.0794635 0.135773 0.652022 0.745945
-0.0671984 0.0745024 0.37914 0.237407 0.735474 0.6346
-0.169848 0.336417 0.064915 -0.563429 0.691571 0.451971
-0.184685 -0.490623 0.131725 -0.209072 -0.742502 -0.63638
0.314534 -0.034324 -0.0906516 0.924627 -0.370777 0.0871184
0.274022 -0.148492 -0.138782 0.918479 -0.376419 0.121269
-0.365498 -0.252405 0.0152164 -0.83191 -0.337221 -0.44069
0.209687 -0.0758415 0.357221 0.83604 0.115247 0.536428
-0.193177 -0.474514 0.122521 -0.223545 -0.70719 -0.670754
0.22956 -0.236243 -0.0385899 0.865512 -0.448104 0.223814
-0.248982 -0.252804 0.369653 -0.406936 -0.561799 0.720267
-0.252029 0.169331 0.00223303 -0.827979 0.528268 -0.188108
-0.111267 0.1643 0.300817 0.202856 0.690609 0.694197
0.0790555 0.169288 -0.149871 0.0299108 0.789252 0.61334
-0.351954 -0.195777 -0.0293792 -0.848337 -0.282542 -0.447766
0.219317 -0.233517 -0.19102 0.475619 -0.843633 -0.249138
-0.261209 0.0655844 -0.291 0.402905 0.557756 -0.725656
0.120579 0.149006 -0.196705 0.907802 -0.417961 0.0347067
0.168962 -0.334647 0.0491323 0.878682 -0.451026 0.156504
-0.127834 -0.459579 0.243701 -0.29424 -0.63934 0.710399
-0.0166469 -0.173294 -0.250148 -0.169897 -0.777283 -0.605778
0.315463 -0.00974699 -0.0197875 0.950288 -0.309672 0.0325089
-0.392791 -0.149643 0.105159 -0.896084 0.421188 -0.140119
-0.367101 -0.423389 0.126023 -0.257401 -0.655271 -0.710186
-0.255328 -0.0701051 -0.225246 -0.774407 -0.425481 -0.468252
-0.168936 0.251413 -0.0988075 0.342421 0.588475 -0.732424
-0.0866104 0.239825 0.205646 0.205365 0.713408 0.669981
-0.236533 0.17274 -0.112264 -0.937468 0.342655 -0.0611721
0.0968686 0.147107 -0.143268 0.80331 0.334079 0.493036
-0.278015 -0.377946 0.0438799 -0.260986 -0.718708 -0.644472
0.315072 0.211675 0.0869556 0.304617 0.631481 -0.71305
0.259294 -0.130043 0.0307014 0.902106 -0.402509 0.155535
-0.265447 -0.231933 0.374131 -0.173264 -0.689677 0.703082
-0.340028 0.0388778 0.411776 -0.577294 0.783558 0.229714
0.00883901 0.20944 0.212805 0.230996 0.72871 0.644688
0.118241 0.240159 0.0171782 0.453217 0.491659 -0.74355
-0.287978 0.0852814 0.0496426 -0.928955 0.362934 -0.072948
0.110477 0.141257 0.25769 0.220857 0.776415 0.590256
-0.0157425 -0.0263911 -0.257494 0.367236 0.516383 -0.773619
-0.196086 0.268086 -0.0980139 0.194558 0.692605 -0.694583
-0.244477 0.192111 0.0603917 -0.925104 0.377714 0.0389307
-0.312228 -0.0955703 0.465622 -0.450143 -0.555306 0.69929
0.121098 -0.126886 -0.276082 0.32155 0.614689 -0.720252
0.291834 -0.0934646 -0.109522 0.914218 -0.385033 0.126312
-0.0620845 0.199056 -0.0919944 0.244355 0.718085 -0.651648
-0.0596596 -0.130437 -0.282989 -0.291385 -0.540405 -0.78934
-0.080937 -0.435113 0.0486835 -0.223413 -0.666435 -0.711302
-0.333371 -0.0538869 -0.0749127 -0.905352 0.371752 -0.205274
-0.262032 -0.206762 0.397354 -0.163316 -0.677719 0.716955
-0.0951603 0.080797 -0.205662 0.272513 0.632747 -0.724823
-0.135619 0.0204525 -0.276723 0.372552 0.572663 -0.730248
-0.463458 -0.303683 0.156069 -0.91739 0.381257 -0.114187
-0.10857 -0.0583101 -0.326766 0.3092 0.61961 -0.721442
0.102289 -0.465009 0.267524 0.912149 -0.384352 0.142331
-0.413347 -0.131859 0.335078 -0.931363 0.363079 -0.0271418
0.0489874 0.158307 -0.154213 -0.62067 0.722487 0.3046
0.0766871 0.100186 -0.174082 0.311184 -0.752615 -0.580289
0.0601838 -0.380923 0.39816 -0.338478 -0.591933 0.73147
-0.347036 0.0201454 0.448882 -0.476158 0.83998 0.260208
0.340377 0.127101 0.0261243 0.229299 0.660182 -0.71525
0.00281409 -0.189911 -0.238116 -0.236204 -0.64081 -0.730459
-0.340087 -0.419159 0.185138 -0.347114 -0.58125 0.735976
-0.217571 0.231564 -0.0649772 -0.940544 0.338337 -0.030082
-0.152024 0.123054 0.355203 0.281072 0.780836 0.557937
-0.198364 -0.0890323 -0.279997 -0.341122 -0.600301 -0.723377
0.242131 -0.217624 -0.123178 0.933799 -0.348792 0.0797711
-0.400663 -0.185303 0.0480844 -0.893785 0.421062 -0.154455
0.0468155 -0.088005 -0.280939 0.272229 0.655123 -0.704773
-0.22604 -0.420594 0.0746618 -0.14439 -0.608919 -0.77998
0.0965131 -0.512564 0.191218 0.929987 -0.357412 0.0859069
-0.261476 0.171257 0.199789 -0.646006 0.695011 0.315652
-0.218702 -0.190337 0.433597 -0.413147 -0.55455 0.722346
-0.0696922 0.366541 0.0748922 0.168034 0.487397 0.85686
-0.34907 0.0241107 0.356854 -0.962327 0.269954 0.0324327
-0.348733 -0.0901344 -0.035213 -0.914793 0.388055 -0.112099
0.213334 0.0896814 0.273805 0.741927 0.23122 0.62935
-0.354747 0.0189392 0.41152 -0.902958 0.402211 -0.151305
0.0903011 0.208131 -0.285802 -0.791581 -0.306663 -0.528543
-0.293485 0.0414137 -0.090381 -0.965584 0.259984 0.00741559
-0.0383168 0.147392 -0.162588 0.361497 0.558557 -0.746548
0.0693173 -0.257026 -0.186971 -0.0483078 -0.729465 -0.68231
0.00114403 -0.416869 0.34066 -0.411827 -0.509553 0.755483
-0.403369 -0.296632 0.0823817 -0.853077 -0.294441 -0.430773
0.189844 -0.15987 0.412128 0.875848 0.00371663 0.482572
0.27606 0.116922 0.181006 0.796864 0.278117 0.536339
0.0622727 -0.356609 0.419593 -0.324081 -0.600215 0.731241
0.0572028 -0.184989 0.554417 -0.417823 -0.541193 0.729749
-0.229229 -0.211628 -0.140045 -0.253347 -0.660323 -0.706957
-0.0377915 -0.273868 -0.130862 -0.336242 -0.674775 -0.656978
-0.0145318 -0.150577 -0.27192 -0.20527 -0.673577 -0.710041
-0.0332292 0.270015 -0.0254568 0.215377 0.629499 -0.746555
0.0524079 0.283297 0.125165 0.239606 0.700399 0.672332
-0.245159 -0.294417 -0.0471836 -0.181802 -0.738265 -0.649548
-0.125153 -0.422734 0.282761 -0.303778 -0.637349 0.70817
0.203171 0.108363 -0.0480665 0.299777 0.621232 -0.724019
0.126459 -0.420294 0.192085 0.856572 -0.443932 0.263076
0.147865 -0.215365 -0.25973 -0.152455 -0.783773 -0.602044
-0.282889 -0.396511 0.0691944 0.149111 0.702658 -0.695728
0.0474442 -0.53884 0.170692 0.485637 -0.810479 -0.327536
0.0581958 0.018025 0.39903 0.0875971 0.815735 0.571754
0.0539775 -0.380731 -0.0528009 0.520293 -0.831314 -0.19548
0.176218 0.273652 -0.382491 0.337966 0.587813 -0.73502
0.0992852 -0.480915 0.203103 0.922592 -0.373242 0.0975403
-0.30446 0.0232979 -0.0163747 -0.888708 0.419892 -0.184089
-0.182097 0.264014 0.125736 -0.533024 0.743359 0.404107
-0.282507 0.0216723 -0.235238 -0.945967 0.324263 -0.000409074
-0.18678 -0.0442044 -0.337418 -0.15702 -0.784588 -0.599805
0.32849 0.0964637 0.146398 0.839837 0.183201 0.51099
0.163526 -0.356284 0.0965671 0.914983 -0.386456 0.116008
-0.108249 -0.339016 -0.0421692 -0.267182 -0.767897 -0.582192
-0.126619 -0.0368726 -0.314158 0.349588 0.582914 -0.733484
-0.244535 0.204482 0.0815801 -0.919766 0.377468 -0.107459
0.0616348 -0.0166067 -0.222835 0.0114121 -0.745351 -0.666574
0.0680669 0.0423973 0.371389 0.227192 0.739246 0.633956
0.234887 0.229058 0.0640897 0.143297 0.607102 -0.781596
-0.120403 0.100223 0.365672 0.184661 0.690223 0.699637
-0.189223 -0.476928 0.208628 -0.372453 -0.574648 0.728737
0.0808849 -0.142059 -0.307997 0.347051 0.572316 -0.742974
0.303798 -0.0238215 0.0708223 0.909552 -0.397717 0.120565
0.278505 -0.0150499 0.213494 0.850118 0.0177746 0.526292
0.163778 -0.326024 -0.0340501 0.602213 -0.759675 -0.245425
-0.0839419 -0.129336 -0.277451 -0.192028 -0.74124 -0.643187
-0.32263 -0.206065 0.373607 -0.258732 -0.655311 0.709665
0.147322 -0.325797 -0.0567806 0.519574 -0.735558 -0.434738
-0.043269 0.159548 0.277725 0.248483 0.689468 0.68036
-0.28379 -0.276321 0.334501 -0.34805 -0.556616 0.754347
0.196407 -0.229093 0.271085 0.899176 -0.410855 0.150604
-0.110593 -0.359446 -0.0201282 -0.175322 -0.720312 -0.671128
0.0623525 -0.291313 -0.150842 -0.104928 -0.756717 -0.645268
-0.11333 0.272089 0.0800649 -0.908474 -0.0862281 -0.40895
-0.226254 0.104977 0.373736 -0.374874 0.77275 0.512178
-0.176158 0.361359 -0.00120287 -0.919334 0.378573 -0.107276
-0.133627 0.0884784 0.379274 0.226213 0.613233 0.756817
-0.101536 -0.258548 0.426599 -0.465644 -0.455713 0.758618
0.0727 -0.154502 0.57497 0.212263 0.712833 0.668441
0.226653 -0.177029 0.207926 0.915418 -0.380893 0.130115
0.0286981 -0.199986 -0.239103 -0.209952 -0.64879 -0.731431
-0.374174 -0.111868 0.110851 -0.917663 0.377141 -0.125134
0.0192239 0.166594 0.250923 0.161397 0.673367 0.721476
0.225084 -0.176808 -0.268105 0.353845 0.559063 -0.749828
-0.175594 -0.0602409 -0.315209 -0.227047 -0.773027 -0.592351
-0.358394 -0.166168 -0.0354854 -0.853986 -0.230833 -0.466287
0.17935 0.271679 0.0945596 0.289388 0.678645 0.675053
0.144348 0.177261 -0.0266605 0.647371 0.447855 0.616714
-0.379158 -0.208698 0.0156388 -0.844256 -0.140969 -0.517068
0.13886 0.242484 0.0296736 0.294043 0.641281 -0.708729
0.284758 -0.108333 -0.0427559 0.962113 -0.271478 0.0252713
0.0407829 -0.0530736 0.480229 0.157092 0.71302 0.683319
0.188004 -0.255588 -0.139884 0.541719 -0.742933 -0.393181
0.221883 0.102573 0.247636 0.631589 0.420977 0.651056
-0.271434 0.117012 0.303886 -0.541615 0.748246 0.38312
-0.187283 -0.406075 0.0504372 -0.220174 -0.795184 -0.564983
0.219535 -0.197274 0.17288 0.927725 -0.371864 0.032298
-0.200516 -0.28239 -0.0706599 -0.226327 -0.668075 -0.708838
-0.338632 -0.0283921 0.0799792 -0.930233 0.355383 -0.0914825
-0.361444 -0.0689335 0.156863 -0.933193 0.358535 -0.0245758
0.165538 0.254077 0.0523007 0.3264 0.601044 -0.729526
-0.354759 -0.359614 0.232233 -0.313872 -0.60769 0.729518
0.027951 -0.460258 0.0571447 0.362994 -0.835256 -0.413016
-0.294612 0.0860047 0.338142 -0.561556 0.764812 0.315779
0.334902 0.0596213 0.0412191 0.932013 -0.358311 0.0544525
-0.169031 -0.45997 0.100849 -0.0911886 -0.751958 -0.652873
-0.0826403 -0.446682 0.282581 -0.378298 -0.582972 0.719051
0.32381 -0.0029297 -0.053907 0.908919 -0.37409 0.184179
0.242929 -0.16321 -0.252035 0.303663 0.614138 -0.728439
-0.0290224 0.0434755 0.397782 0.127242 0.728632 0.672982
0.142571 0.307216 -0.324823 0.201453 0.624437 0.754649
0.279353 0.0451418 0.203095 0.792401 0.259196 0.552194
-0.150693 -0.302441 -0.075235 -0.205467 -0.743575 -0.636301
-0.00153593 -0.503169 0.269474 -0.418186 -0.533943 0.734864
0.0274411 0.161261 -0.122625 0.187955 0.73603 -0.650333
0.245981 0.0438017 0.256777 0.771216 0.274254 0.574466
-0.0852437 -0.565206 0.182874 -0.224279 -0.734729 -0.640212
-0.00454232 -0.076038 0.516229 0.270972 0.741099 0.614285
0.261038 -0.0886194 0.16602 0.958178 -0.283222 0.0409788
0.0928797 -0.343061 -0.0877947 0.389529 -0.767415 -0.509256
0.0921108 -0.476891 0.292187 0.908295 -0.396264 0.134069
-0.34779 -0.307643 0.0150023 -0.725537 -0.353099 -0.590692
-0.140028 0.207883 -0.122965 0.300433 0.624065 -0.721307
-0.229626 -0.00508687 -0.325018 -0.711368 -0.23267 -0.663189
0.233856 -0.0837126 0.318111 0.844397 0.123604 0.521264
-0.21854 0.228478 0.150943 -0.554274 0.772766 0.309214
0.140159 0.197185 -0.000644277 0.344667 0.580135 -0.738003
-0.431422 -0.182211 0.340687 -0.849099 0.493115 -0.18939
0.318063 0.0041745 0.0184067 0.959311 -0.276468 0.0573351
0.179622 -0.239051 0.371829 0.929509 -0.358643 0.0859542
0.177135 0.0203892 -0.166733 0.767926 -0.626215 -0.134702
0.122862 -0.442483 0.156333 0.951031 -0.299996 0.0744401
-0.0403308 0.176477 0.259726 0.0678466 0.64299 0.762863
-0.275831 -0.176555 -0.14295 -0.738816 -0.339245 -0.582292
-0.326164 0.0182665 0.135653 -0.841698 0.510062 -0.177148
0.246262 -0.210733 -0.190562 0.592164 -0.73545 -0.329326
-0.456183 -0.260304 0.241107 -0.912651 0.38762 -0.129685
0.311675 0.0299326 -0.0600575 0.207316 0.614869 -0.760892
-0.4234 -0.16037 0.361459 -0.941726 0.335788 -0.0199658
0.0615027 0.200755 0.203236 0.191836 0.766425 0.613018
-0.171965 -0.508898 0.152115 -0.0262564 -0.740392 -0.671662
-0.102754 -0.0717594 0.545546 0.258859 0.659736 0.705508
0.140899 -0.0844941 -0.235725 0.448876 0.470546 -0.759669
0.104943 -0.463932 0.228108 0.907762 -0.403801 0.113632
0.174296 0.0585211 -0.139175 0.224779 0.684165 -0.693825
-0.419343 -0.419994 0.155967 -0.319067 -0.609339 0.72588
0.00338784 0.0776789 0.351169 0.217082 0.760892 0.611489
0.0884485 -0.0733227 0.480797 0.184086 0.663035 0.725602
0.0736876 -0.167489 -0.289578 -0.0811739 -0.713553 -0.695883
0.230374 0.190227 0.0329832 0.391204 0.548524 -0.738973
-0.00133966 -0.317084 -0.0986627 -0.253171 -0.684809 -0.683331
-0.293289 -0.134357 -0.145065 -0.761139 -0.278554 -0.585727
-0.207209 -0.385231 0.0316384 -0.235012 -0.70793 -0.666036
-0.32299 -0.227182 -0.0570929 -0.761531 -0.275545 -0.586639
-0.438641 -0.206831 0.308646 -0.922386 0.37263 -0.101738
0.188575 0.132963 0.240408 0.117438 0.722797 0.681008
-0.210531 -0.0243424 -0.345681 -0.189059 -0.540754 -0.819659
0.133134 0.28724 0.0673891 0.355238 0.579889 -0.733167
0.208091 -0.00458876 0.326861 0.715703 0.232088 0.658714
0.0207598 0.289786 0.128047 0.233694 0.715084 0.658819
-0.278565 -0.429429 0.0976098 -0.239606 -0.677696 -0.69521
-0.327994 -0.0452477 -0.0494545 -0.909993 0.398034 -0.11611
-0.222279 -0.350476 -0.00112972 -0.261332 -0.704096 -0.660268
0.0220921 -0.517356 0.104067 0.405274 -0.80423 -0.434703
0.248138 -0.0961222 0.252241 0.811785 -0.510195 0.284089
0.279964 -0.0755397 0.0486949 0.926195 -0.373856 -0.0489435
0.0488884 0.066848 0.348108 0.235619 0.746352 0.622449
0.141214 0.153013 -0.0766755 0.310786 0.602526 -0.735102
-0.216845 0.00570735 -0.280303 0.817938 0.29256 0.495364
0.138636 0.0646637 0.328771 0.143563 0.626405 0.766164
-0.0976634 0.261573 -0.0535401 0.187877 0.601346 -0.776585
0.191243 0.124186 -0.0776402 0.367214 0.582524 -0.725134
0.213521 0.0629917 -0.0827156 0.350698 0.571444 -0.741931
-0.168414 -0.0580341 0.551273 0.278682 0.769914 0.574081
-0.3434 -0.0685345 -0.0606868 -0.94226 0.333544 -0.0299155
0.181235 0.0829731 -0.118183 0.189807 0.642002 -0.742837
-0.339361 0.0233837 0.301016 -0.932384 0.354864 -0.068791
-0.261747 0.0910696 -0.206929 -0.928272 0.371744 -0.0108246
-0.246075 0.0814998 0.399116 -0.420342 0.784918 0.455211
0.318461 0.0249436 0.101918 -0.367512 -0.553748 0.747194
-0.165246 -0.237181 -0.134706 -0.303667 -0.61485 -0.727836
0.0191235 0.246272 0.170034 0.200913 0.738339 0.643809
0.25011 -0.0632698 0.287119 0.813304 0.125484 0.568147
0.038277 -0.115842 0.552431 0.214229 0.664246 0.716159
0.131192 -0.353334 0.413824 0.956997 -0.289662 0.0159063
-0.102224 0.202064 0.24759 0.225003 0.703237 0.674411
-0.312584 -0.0158004 -0.0619738 -0.902165 0.399689 -0.16232
0.169102 0.0199138 0.355734 0.662879 0.442452 0.604009
-0.284934 0.044571 -0.153749 -0.931625 0.361816 -0.0341199
-0.0305247 0.188053 -0.12825 0.305356 0.616108 -0.726064
0.143862 0.271414 -0.384052 -0.271768 -0.585223 -0.763974
0.272511 -0.0652679 0.184908 0.917263 -0.381775 0.113473
-0.191605 0.0350208 0.460435 0.160701 0.723293 0.671582
-0.250304 0.108957 0.346895 -0.445095 0.813899 0.373443
0.144678 0.132666 -0.0941232 0.428225 0.478306 -0.766711
0.00306391 0.0985788 0.332425 0.210373 0.604337 0.768453
-0.28402 0.0303079 -0.200234 -0.917207 0.373216 -0.13943
-0.291722 0.0979845 0.310397 -0.613532 0.722485 0.318739
-0.346328 -0.0417415 0.141677 -0.853188 0.418227 -0.311701
0.332672 0.0471812 0.0606413 0.933609 -0.358175 0.00924522
-0.125435 0.350916 0.00326469 0.298322 0.635338 -0.712285
-0.405683 -0.106001 0.378462 -0.959381 0.282036 -0.00662555
0.130005 -0.265079 -0.181594 0.264868 -0.748007 -0.608548
-0.022284 -0.459857 0.301726 -0.332115 -0.594717 0.732128
0.0373542 0.319248 0.0507159 0.349277 0.585135 -0.731862
-0.400742 -0.244068 0.0629608 -0.858752 -0.160175 -0.486713
-0.184734 0.114749 0.37229 0.211882 0.708754 0.672885
0.277693 0.110295 -0.00972053 0.17456 0.711609 -0.680545
-0.372629 -0.117491 0.0836859 -0.877374 0.435937 -0.200437
-0.0818167 -0.268832 0.425708 -0.2261 -0.623163 0.748697
0.096018 0.168666 0.224333 0.305249 0.675152 0.67156
-0.200097 -0.214794 0.417531 -0.297227 -0.613365 0.731738
0.264396 0.116966 0.0799014 0.626747 0.418926 0.657031
-0.264549 -0.236647 -0.100066 -0.116391 -0.70809 -0.696464
-0.153992 -0.316691 -0.0545746 -0.309814 -0.631867 -0.710465
-0.321086 0.00690623 0.0280047 -0.934004 0.357099 -0.0108457
0.285551 -0.0490368 0.0855842 0.912325 -0.39037 0.123591
0.0125321 -0.281533 -0.147804 -0.238296 -0.725592 -0.645548
-0.0748134 -0.182691 -0.22035 -0.248207 -0.762321 -0.597712
-0.131264 -0.28158 0.391253 -0.32568 -0.601417 0.729541
-0.232503 -0.458675 0.117825 -0.212176 -0.703583 -0.678198
-0.216258 -0.480482 0.194394 -0.318585 -0.605477 0.729316
-0.271052 0.097218 0.333046 -0.518082 0.730637 0.444704
0.201951 -0.248342 -0.169725 -0.358858 -0.559862 0.746844
-0.301834 -0.366071 0.046591 -0.223904 -0.763212 -0.606114
-0.202496 0.221973 0.184618 -0.490638 0.805172 0.333126
0.207367 -0.02796 0.342798 0.78284 0.280288 0.555517
0.174694 0.228657 0.142528 0.208407 0.68652 0.696604
-0.161703 0.0341188 0.450581 0.137321 0.810127 0.569945
-0.0445798 -0.112274 -0.308461 -0.216763 -0.671292 -0.708788
0.172485 -0.32739 0.112427 0.929606 -0.363788 0.0590854
0.179906 -0.194038 0.485118 0.808418 -0.00962318 0.58853
-0.0614924 0.175183 0.270433 0.132893 0.824572 0.549928
0.349372 0.0741004 -0.00663144 0.93291 -0.347839 0.0932053
-0.225385 0.231995 0.0385702 -0.911435 0.393054 -0.121632
-0.392769 -0.174649 0.364185 -0.393264 -0.516873 0.760386
0.0656455 -0.440431 0.0599648 0.456796 -0.765737 -0.452752
-0.186812 0.0595563 0.430566 0.228524 0.732008 0.641827
0.147108 -0.371583 0.15626 0.878184 -0.406173 0.252618
0.185993 -0.15194 -0.270534 0.343722 0.581331 -0.737502
0.217985 -0.2619 -0.0536317 0.956326 -0.290972 0.0278664
0.21556 -0.249065 0.00164797 0.863705 -0.468087 0.186839
-0.409925 -0.108074 0.406924 -0.918421 0.380549 -0.108095
0.18757 -0.24177 0.289248 0.939012 -0.337369 0.0666281
0.157627 0.288272 0.0828774 0.240127 0.61993 0.747011
0.157872 0.272161 -0.294337 0.198822 0.743866 0.63807
-0.177513 0.205981 0.249337 -0.379484 0.861192 0.338142
0.00644763 -0.532547 0.121354 -0.420479 -0.616366 -0.665801
0.103377 0.135044 -0.21029 0.427695 -0.772801 -0.468887
0.0338192 -0.477849 0.0935343 0.435632 -0.800692 -0.411238
-0.233068 -0.163574 0.439453 -0.382096 -0.544193 0.746898
-0.00744793 0.155592 0.273596 0.309677 0.744557 0.591384
-0.0111126 0.357547 0.0599541 0.192001 0.644541 -0.740069
-0.272898 -0.436582 0.202865 -0.376989 -0.56714 0.732279
0.203143 -0.216518 0.231106 0.96 -0.275794 0.0483509
-0.129258 -0.00363052 0.481529 0.232704 0.761398 0.60508
-0.209106 -0.250206 0.384635 -0.402469 -0.540601 0.738762
-0.225696 0.0261468 0.480217 0.20709 0.635579 0.743743
-0.299291 -0.00909146 0.541925 0.212285 0.709951 0.671494
-0.121803 0.278976 -0.0547229 0.312984 0.610355 -0.727672
0.0531231 0.170249 -0.177936 -0.80235 0.58583 0.114178
-0.207929 0.192297 0.241515 -0.492202 0.795282 0.353927
-0.137158 0.368564 0.045793 -0.473714 0.78783 0.393596
0.212503 -0.219249 0.15039 0.960313 -0.277663 0.0264882
0.0887287 -0.0261656 -0.20947 0.345184 0.580962 -0.73711
-0.133005 -0.397034 0.0231853 -0.213873 -0.834093 -0.508475
-0.441767 -0.350281 0.199504 -0.350166 -0.552551 0.756354
-0.284897 0.0626955 -0.0613265 -0.93919 0.342753 -0.0210408
-0.316964 -0.26104 -0.0479992 -0.697531 -0.361728 -0.61855
0.185079 -0.264378 0.262496 0.915998 -0.381185 0.125085
0.152306 -0.307054 0.34509 0.943752 -0.327759 0.0436582
-0.118395 0.000540589 -0.280093 0.268416 0.643088 -0.717211
-0.209215 0.25947 -0.0680582 -0.922264 0.377458 -0.0833975
0.239725 -0.217495 -0.0809711 0.920437 -0.376581 0.104798
0.330897 0.0547172 0.126445 0.949968 -0.312164 0.0106981
0.276393 -0.130247 -0.0798177 0.913214 -0.390204 0.117394
0.0469137 0.283887 0.0240839 0.36619 0.575042 -0.731596
-0.0256031 -0.205806 -0.215573 -0.216302 -0.704288 -0.67616
-0.268281 -0.00274326 0.525673 0.199661 0.701697 0.683927
-0.101299 -0.041789 -0.30197 0.288579 0.65907 -0.694513
-0.211506 0.240173 -0.106441 -0.887633 0.423084 -0.181955
-0.214404 0.0793107 0.4135 0.302768 0.741294 0.599011
0.0947761 -0.143713 0.558132 0.248297 0.756755 0.604706
-0.239195 0.0464351 -0.298974 0.377051 0.556019 -0.740726
-0.181909 -0.172496 0.457621 -0.441064 -0.509468 0.738854
-0.298514 0.094266 0.170226 -0.902712 0.414695 -0.114623
0.127729 -0.426759 0.126273 0.682187 -0.639944 -0.353686
-0.133794 -0.434906 0.0655515 -0.135229 -0.670509 -0.729473
-0.150407 0.244106 0.203684 -0.378513 0.81863 0.431941
-0.128836 0.288753 0.148153 -0.364878 0.811975 0.455587
0.15206 -0.34925 -0.0050794 0.566706 -0.748913 -0.343474
0.212152 -0.262606 -0.0225899 0.926438 -0.363982 0.0960738
-0.219497 -0.438999 0.231182 -0.2501 -0.617282 0.74593
0.220895 0.187634 0.165114 0.174417 0.643505 0.745305
0.294088 -0.0742371 -0.0456561 0.899402 -0.41674 0.131927
0.00102864 -0.580651 0.195446 0.461179 -0.757794 -0.461586
-0.289301 -0.477918 0.150753 -0.184982 -0.716112 -0.673027
-0.28407 -0.00688309 -0.249669 -0.827594 -0.0972021 -0.552847
-0.289677 0.0580011 0.438511 -0.439713 0.774739 0.454347
-0.117334 0.322568 0.0486354 0.00592261 -0.797672 -0.603063
0.168253 -0.0310008 -0.180862 0.28613 0.662755 -0.692015
-0.16538 -0.0202296 0.507917 0.167738 0.601647 0.780951
-0.345707 -0.0370102 0.110609 -0.964912 0.253617 0.0679934
0.00607839 -0.188651 0.532825 -0.337795 -0.592146 0.731613
-0.234242 -0.142916 0.464124 -0.335827 -0.574129 0.746723
-0.290074 -0.205378 0.389153 -0.245918 -0.641992 0.726203
0.135475 -0.386193 0.200565 0.891997 -0.428522 0.143912
-0.197633 0.279956 -0.040505 -0.877354 0.446516 -0.17571
0.0171581 -0.299745 -0.121322 -0.227449 -0.705206 -0.671529
-0.303739 0.0317515 0.0242523 -0.893635 0.428486 -0.133474
0.146938 0.28974 -0.310363 0.289479 0.736638 0.611201
-0.0541545 0.290932 -0.0169371 0.347009 0.575593 -0.740458
-0.206393 -0.329092 -0.0275564 -0.288493 -0.550464 -0.783429
0.168061 0.155425 -0.0234229 0.359372 0.526961 -0.770171
0.0994612 0.0747192 0.325835 0.222673 0.684055 0.694612
-0.275337 -0.280776 -0.0541137 -0.216066 -0.78882 -0.575395
-0.393073 -0.0473447 0.471818 -0.383958 -0.565837 0.729661
-0.399429 -0.35706 0.0688775 -0.757293 -0.364068 -0.542183
0.211342 -0.1751 0.293091 0.855244 -0.385446 0.346393
-0.223445 0.204513 -0.112469 -0.927198 0.374261 -0.0152397
0.150703 -0.337278 0.255821 0.944034 -0.320475 0.0780726
-0.0450529 -0.0315349 -0.2701 0.362267 0.558749 -0.746031
0.112978 0.142647 -0.174349 0.971196 -0.0605408 0.230463
0.272753 0.15734 0.0861403 0.536813 -0.730333 -0.422427
-0.0468268 -0.205035 -0.203551 -0.177001 -0.599166 -0.780814
0.0263677 -0.532948 0.133754 0.433767 -0.793623 -0.426625
-0.420078 -0.188223 0.236744 -0.907843 0.395906 -0.138131
0.133445 -0.0999047 0.475259 0.699008 0.346887 0.625346
0.204668 -0.275381 -0.0744662 0.546543 -0.80137 -0.243099
-0.0832239 -0.320752 0.386372 -0.321381 -0.612849 0.721894
-0.170639 0.0250955 -0.283712 -0.9873 0.0162685 -0.15803
-0.370092 -0.34765 0.0622656 0.309068 0.608532 -0.730867
-0.375638 -0.122177 0.420593 -0.194253 -0.696109 0.691157
0.364841 0.1198 0.0379357 0.88266 -0.45064 0.133547
-0.428509 -0.200428 0.197892 -0.845054 0.461616 -0.269803
-0.308275 0.0631406 0.347092 -0.552781 0.785311 0.278784
0.228564 0.0795575 -0.060423 0.249879 0.614987 -0.747898
-0.183108 0.321689 -0.0117882 -0.935101 0.350793 -0.0502986
0.221875 -0.0417902 -0.161909 0.492749 0.426827 -0.758299
0.0213255 0.140528 0.280669 0.196456 0.644308 0.739103
0.170691 -0.288944 0.31059 0.939059 -0.337813 0.063638
-0.0996823 0.123064 -0.177566 0.408425 0.52671 -0.745497
0.144958 -0.335076 0.346215 0.966131 -0.252875 -0.0514275
-0.308764 -0.41947 0.100987 -0.217102 -0.749743 -0.625101
-0.265513 0.172832 0.144269 -0.932075 0.358131 -0.0545843
-0.202727 -0.035793 -0.222758 -0.927088 0.374844 -0.000740636
-0.0718474 -0.167093 0.515502 -0.176821 -0.665068 0.725547
0.147729 -0.151173 -0.282853 0.444272 0.490111 -0.749943
0.0470188 0.128908 -0.1905 -0.785382 -0.159891 -0.598005
-0.0793762 -0.348229 0.360892 -0.233161 -0.627619 0.742786
0.0592318 -0.535858 0.276649 -0.293119 -0.639299 0.710899
-0.302777 -0.0104913 -0.134163 -0.891125 0.3832 -0.243011
0.0560004 -0.559015 0.249405 -0.293173 -0.626039 0.722582
-0.0177559 -0.539186 0.139767 -0.17328 -0.624146 -0.76185
-0.271329 0.0690803 0.398105 -0.446915 0.786438 0.42636
0.149167 0.223339 0.159092 0.258627 0.70735 0.657851
0.233484 -0.201045 -0.240991 0.516752 -0.769334 -0.375623
0.0699456 0.154852 0.251438 0.189358 0.782282 0.593446
0.183312 -0.307553 0.0935158 0.945905 -0.324437 -0.00190393
-0.314023 0.025583 0.471185 -0.484355 0.765595 0.423397
0.0692673 -0.423024 0.0306622 0.423838 -0.766632 -0.482324
0.149325 -0.358898 0.181871 0.925711 -0.366314 0.0941926
-0.411689 -0.325416 0.0670086 -0.823785 -0.325398 -0.464214
0.200091 -0.273198 0.037464 0.884921 -0.448193 0.126643
0.0305691 -0.400106 -0.026268 -0.215569 -0.731668 -0.646677
-0.215966 0.259788 0.00549225 -0.924646 0.38076 0.00721394
0.215339 -0.227662 -0.145856 0.613387 -0.63005 -0.476228
-0.213356 -0.165332 -0.195853 -0.197372 -0.748322 -0.633292
-0.287603 -0.334907 0.279199 -0.244401 -0.649087 0.720385
-0.343478 -0.0443906 0.493114 -0.32515 -0.60008 0.730877
0.203137 -0.226821 0.195528 0.935231 -0.350467 0.0501645
0.249243 0.156157 0.188042 0.724643 0.330167 0.604882
-0.224868 -0.025666 -0.242526 0.608294 0.44858 0.654793
-0.200106 0.0367054 -0.267269 0.277149 -0.885669 -0.372529
0.299945 0.127163 0.0988658 -0.924997 0.154146 -0.347303
0.305395 0.130107 0.171445 0.805406 0.239525 0.54217
-0.369557 -0.29121 0.0376386 -0.773308 -0.298402 -0.55942
0.202531 0.0589152 -0.128629 0.3354 0.593984 -0.731225
-0.438274 -0.205833 0.276993 -0.94711 0.316053 -0.0556105
-0.268188 -0.167825 -0.167409 -0.659447 -0.490918 -0.569323
0.16422 0.188884 -0.00332133 0.360347 0.563382 -0.743472
-0.286384 -0.227164 0.370746 -0.30893 -0.611638 0.728328
0.132169 -0.245192 0.542365 -0.543779 -0.460702 0.701468
-0.0275374 -0.230888 0.478393 -0.332309 -0.596307 0.730746
-0.126127 0.0252614 0.447283 0.302826 0.688965 0.658501
-0.238616 -0.0751236 0.513461 -0.338838 -0.592219 0.731072
0.186431 -0.000552944 0.352363 0.675451 0.399908 0.619548
-0.269912 0.131193 0.0560832 -0.831803 0.490337 -0.260141
-0.43061 -0.224379 0.178935 -0.901055 0.414022 -0.129176
0.124747 -0.371183 0.39063 0.869165 -0.441678 0.222424
0.227493 -0.208919 0.065475 0.920467 -0.376512 0.104781
0.134159 -0.347526 -0.0309429 0.573112 -0.662742 -0.481992
0.301519 -0.0650162 -0.109182 0.968894 -0.237755 0.0686819
0.0588556 0.221727 -0.0225005 0.304476 0.714116 -0.630343
0.275457 0.13806 0.121379 -0.167373 -0.629767 -0.758538
0.193837 -0.206617 0.322684 0.923182 -0.378288 0.0680697
0.218099 -0.169294 0.260411 0.897012 -0.397069 0.19418
0.0474896 0.176688 -0.100372 0.288724 0.620936 -0.72875
-0.190562 -0.421061 0.253732 -0.275868 -0.682635 0.676688
0.174253 -0.280441 0.283611 0.868527 -0.461264 0.181372
0.045212 0.260718 0.142324 0.209331 0.702097 0.680617
-0.244935 0.162681 -0.0624165 -0.970171 0.241778 0.0176666
-0.328782 -0.00684877 0.0563433 -0.885192 0.415698 -0.208878
-0.257863 -0.45793 0.194362 -0.34209 -0.377702 0.860416
0.314446 0.21022 0.114947 0.715196 0.325111 0.618706
-0.168124 0.128347 -0.192341 0.585035 0.508162 -0.632064
-0.211333 0.178591 0.267695 -0.452359 0.771407 0.447552
-0.282493 -0.350617 0.0239407 -0.237522 -0.691048 -0.682668
-0.149059 -0.176152 0.4728 -0.176127 -0.643638 0.744788
0.206355 0.00336551 -0.140767 0.255684 0.65518 -0.71089
-0.00392259 0.280028 -0.000118857 0.26128 0.677748 -0.687306
-0.228537 -0.457305 0.205941 -0.305517 -0.623972 0.719248
-0.0613938 -0.0449984 0.502808 0.204739 0.716955 0.666376
-0.241918 -0.228462 -0.124091 -0.0319563 -0.604627 -0.795868
0.160214 -0.306065 -0.0937565 0.505454 -0.753218 -0.420926
0.265147 -0.15811 -0.084125 0.91953 -0.378411 0.10616
-0.109481 -0.536411 0.155694 -0.295614 -0.803078 -0.517377
0.0682141 0.224535 0.184422 0.186216 0.747392 0.637753
-0.109567 -0.250061 -0.141732 -0.126586 -0.67297 -0.728757
-0.165143 0.215679 -0.121815 0.356516 0.552738 -0.753244
-0.199894 -0.515809 0.166243 -0.212032 -0.705837 -0.675897
-0.31299 0.0768854 0.234198 -0.849526 0.442935 -0.286554
0.123162 0.192117 -0.0133747 0.333963 0.595462 -0.73068
0.0761945 0.267379 0.135727 0.0789541 0.626188 0.775665
0.0829985 -0.464468 0.130491 0.624329 -0.669316 -0.402777
0.175785 -0.0604172 0.400017 0.770716 0.317764 0.552289
-0.450747 -0.362614 0.139468 -0.874881 -0.187011 -0.446778
0.195064 -0.294362 0.0666309 0.924827 -0.368843 0.0930047
-0.278647 -0.248769 0.355233 -0.336572 -0.585846 0.737227
-0.31528 -0.257314 0.334587 -0.375603 -0.562135 0.736835
-0.0926643 0.371733 0.0772658 0.211673 0.710977 0.670601
0.268865 -0.0866969 0.142683 0.959645 -0.281101 -0.0079395
-0.0311292 0.344205 0.0394066 0.40794 0.553434 -0.726151
0.185683 -0.324435 0.00452877 0.881384 -0.422097 0.212124
-0.265341 -0.14045 -0.178856 -0.707391 -0.338416 -0.620542
0.129381 -0.394514 0.226209 0.881491 -0.44292 0.163693
-0.0959281 0.281512 0.167205 0.260126 0.691416 0.674001
-0.078819 0.282575 -0.0352653 0.479452 0.406587 -0.777697
0.315442 -0.048306 -0.119869 0.848082 -0.514045 0.12851
-0.00722917 0.21832 -0.0918037 0.211316 0.656884 -0.723774
0.209166 -0.220639 -0.244069 0.482083 -0.769551 -0.418792
0.134792 -0.347066 0.377589 0.882274 -0.401419 0.245876
0.140109 0.0222878 0.368273 0.249079 0.772476 0.584158
-0.000112555 -0.454737 0.0386555 -0.235404 -0.752643 -0.614909
-0.335732 -0.142619 -0.0803443 -0.889447 -0.113168 -0.442806
0.209731 -0.158043 0.387108 0.832261 -0.0139635 0.554207
0.052507 -0.421763 0.365702 -0.297529 -0.613765 0.731279
0.18898 0.28449 -0.342652 0.984276 -0.0148384 0.176015
0.327583 0.125409 0.140549 0.726568 0.26443 0.634173
-0.21538 0.0369887 -0.29588 0.210187 0.680779 -0.701684
0.114226 -0.393251 0.375562 0.906363 -0.40615 0.116398
-0.394797 -0.078198 0.357919 -0.838265 0.500752 -0.215776
0.0490603 -0.0854841 0.510743 0.236862 0.647532 0.724292
-0.235169 -0.237331 0.387299 -0.320477 -0.602369 0.731058
-0.0907104 -0.0394684 0.507385 0.193314 0.761098 0.61916
-0.152968 -0.116995 -0.264489 -0.222819 -0.733344 -0.642306
-0.254199 0.196426 0.154526 -0.637753 0.658624 0.399357
0.105047 -0.16034 -0.299564 -0.283892 -0.748334 -0.599501
0.11518 -0.0784075 0.478536 0.633687 0.397629 0.663575
0.108106 -0.00319326 -0.213821 0.35156 0.569396 -0.743097
0.136108 -0.0561977 0.446516 0.714495 0.43843 0.54523
0.165623 -0.282002 -0.118702 0.486676 -0.789175 -0.374633
0.121935 -0.37887 0.00498216 0.455738 -0.85604 -0.243925
-0.296103 -0.200194 -0.105656 -0.712716 -0.324131 -0.622073
0.343283 0.0716871 0.0682415 0.923173 -0.375172 0.0836495
-0.27468 0.0530343 0.465545 -0.461049 0.709012 0.533607
-0.0636233 0.221958 -0.0734305 0.38237 0.469975 -0.795561
0.0767853 0.0824224 0.325736 0.233469 0.732435 0.639556
0.0921053 -0.488719 0.246552 0.872659 -0.449521 0.190779
0.0807303 0.241816 0.161193 0.215838 0.524729 0.823452
0.0901656 0.212121 0.181391 0.222448 0.798618 0.559219
-0.0777339 0.136219 0.311926 0.210561 0.705818 0.676376
0.300804 -0.0703618 -0.0830037 0.888568 -0.437416 0.138256
-0.0203189 -0.367104 0.374601 -0.451273 -0.481781 0.751159
-0.351173 -0.0151026 0.229683 -0.90702 0.395648 -0.144144
-0.127324 0.248233 0.20966 -0.263513 0.731772 0.628547
0.242699 -0.105598 0.285077 0.847734 -0.509013 0.149174
-0.355133 -0.253775 0.313782 -0.287203 -0.639522 0.71311
0.0988417 -0.408502 0.0384672 0.482423 -0.797871 -0.361484
-0.330176 -0.277057 0.308069 -0.28209 -0.627686 0.725559
-0.267442 0.127345 0.0253336 -0.927288 0.372988 0.0318921
-0.291432 -0.442886 0.120562 -0.190123 -0.70033 -0.688035
0.226413 -0.226136 -0.013086 0.943965 -0.328794 0.0287063
0.236219 -0.0184926 -0.141823 0.335956 0.595428 -0.729793
-0.10591 -0.218125 -0.175438 -0.232164 -0.748917 -0.620664
-0.0173674 -0.174675 0.534642 -0.328997 -0.596914 0.731748
-0.380546 -0.232021 0.0264935 -0.707518 -0.184017 -0.682317
-0.321543 0.0718328 0.285133 -0.920867 0.375967 -0.10321
0.235147 0.214971 0.136003 0.193167 0.62335 0.757708
-0.0656813 -0.0905272 0.552328 0.126127 0.698574 0.704334
0.16318 -0.200023 -0.272027 -0.200523 -0.659269 -0.724675
-0.218135 -0.0249756 0.53083 0.252446 0.699006 0.669075
-0.0972356 -0.153805 -0.245578 -0.213056 -0.707593 -0.673736
-0.0923418 -0.492653 0.242609 -0.350781 -0.58445 0.731691
0.00919062 0.108153 -0.173445 0.301125 0.645952 -0.701477
-0.0519943 -0.352035 0.376051 -0.325884 -0.599642 0.73091
-0.233756 0.185718 0.215451 -0.550664 0.780148 0.296882
0.149744 -0.131204 -0.267675 0.372377 0.54573 -0.750676
0.249546 0.175653 0.167641 0.267249 0.601398 0.752927
0.131516 -0.39919 0.0719472 0.631781 -0.700912 -0.331021
-0.339652 -0.366707 0.0606685 -0.289823 -0.694559 -0.658475
-0.270632 0.0794091 -0.123046 -0.9215 0.375648 -0.0986257
-0.0288306 -0.222282 -0.193265 -0.20585 -0.684503 -0.699343
-0.0552532 -0.345485 -0.0532541 -0.279624 -0.655159 -0.701839
0.0139859 0.235802 -0.0612752 -0.298965 0.774833 0.557005
0.0971472 -0.18461 -0.277314 -0.294975 -0.711462 -0.637818
0.135817 -0.0729745 0.453605 0.735096 0.303333 0.606319
-0.43634 -0.224633 0.205532 -0.919956 0.377665 -0.105122
0.257352 -0.0402189 0.267655 0.796969 0.157285 0.583183
0.0748515 -0.0203909 0.438967 0.226798 0.723363 0.652157
0.154574 -0.384945 0.0843816 0.929494 -0.363173 0.0643884
-0.017828 0.24829 -0.0314821 0.324442 0.599097 -0.731998
-0.106039 -0.109427 0.543233 -0.330874 -0.596719 0.73106
-0.20965 -0.0169311 -0.26355 0.186412 0.787125 0.587949
-0.375342 -0.34294 0.232095 -0.366821 -0.574991 0.731319
-0.141815 0.262422 -0.0796246 0.383467 0.530725 -0.755834
-0.301689 0.00902066 -0.0910638 -0.925004 0.37619 0.0533777
0.24443 -0.204688 -0.100454 0.955923 -0.292051 0.0302975
0.0551703 -0.0039027 0.423197 0.221045 0.700738 0.67831
0.156317 0.0919395 -0.121577 0.250063 0.722546 -0.644511
-0.112252 0.26978 0.0549564 -0.55951 0.738596 0.376064
0.231849 0.141827 -0.00673079 0.487829 0.521864 -0.699772
-0.231556 -0.269037 -0.0831576 -0.171574 -0.688633 -0.704519
-0.025986 -0.135092 -0.293299 -0.232604 -0.702774 -0.672312
-0.369234 -0.127797 0.0208778 -0.918872 0.37881 -0.110349
0.0349654 -0.0349791 -0.240639 0.375905 0.519165 -0.76757
0.0966181 -0.0184819 0.422193 0.174327 0.718591 0.673229
-0.0161383 -0.437494 0.0265543 -0.118919 -0.711627 -0.692419
0.328969 0.0514394 0.0922757 0.921037 -0.376844 0.0983814
-0.0891756 -0.371185 0.340581 -0.262516 -0.646789 0.716066
0.147217 0.326503 -0.355538 -0.594605 0.640347 0.48621
-0.383343 -0.0326017 0.424464 -0.97247 0.23175 0.0243712
0.254402 0.0876846 -0.0422767 0.406171 0.53507 -0.74076
-0.215646 0.0136343 -0.251098 0.487875 -0.813223 -0.317247
-0.285295 0.101707 0.074211 -0.927951 0.360892 -0.0930801
0.249139 0.152517 0.00886335 0.0860545 0.732887 -0.674887
0.114293 0.183287 -0.179701 0.649973 0.410152 0.639774
-0.309924 -0.234733 0.355134 -0.218101 -0.706475 0.673294
-0.429399 -0.175753 0.300185 -0.908048 0.391905 -0.147849
0.0965315 -0.357866 -0.0560922 0.395308 -0.748112 -0.532972
-0.206364 0.251463 0.131258 -0.600906 0.704876 0.37691
0.182949 -0.248452 -0.165747 0.484517 -0.741481 -0.464166
-0.319479 -0.0334847 -0.088258 -0.895656 0.40492 -0.183959
0.0785595 -0.0874233 0.502496 0.199661 0.740275 0.641972
-0.184907 0.324975 0.022367 -0.930905 0.357703 -0.0739171
-0.0938923 0.345595 0.0221214 -0.133165 -0.778493 -0.613364
0.164659 0.173102 -0.0493024 0.509022 0.49557 -0.703781
0.0638423 0.162007 -0.226916 -0.796497 -0.267371 -0.542315
-0.0585749 -0.316408 -0.0818027 -0.210299 -0.707459 -0.674742
0.129168 0.185797 -0.20647 0.862022 0.143541 0.486121
-0.390958 -0.390247 0.0950328 -0.199187 -0.752587 -0.627645
-0.314523 -0.159504 0.409559 -0.32829 -0.596982 0.732009
-0.342242 0.00806927 0.213229 -0.939226 0.340589 -0.0430513
0.254752 0.124536 0.108905 0.916893 -0.390757 0.0813393
-0.150258 -0.215959 -0.162274 -0.155555 -0.712825 -0.683874
0.233193 -0.148274 0.212511 0.934628 -0.350898 0.0578096
0.128839 -0.181447 -0.290762 -0.229145 -0.733342 -0.64008
-0.123487 -0.226668 0.448615 -0.383078 -0.562293 0.732856
0.20829 -0.136763 0.38171 0.813591 -0.18448 0.551395
-0.257548 -0.375341 0.260605 -0.322039 -0.606001 0.727361
0.00204061 0.235222 0.190328 0.157124 0.746933 0.646068
0.150635 0.0689685 -0.143793 0.36986 0.542132 -0.754517
-0.263106 0.105381 -0.0934756 -0.915267 0.385704 -0.11627
0.146442 0.202015 -0.242445 0.919031 -0.223698 0.324563
-0.134549 0.306523 0.0314711 0.955654 -0.195417 0.220314
-0.312824 -0.346701 0.0231959 -0.161797 -0.627255 -0.761822
0.0508224 0.15094 -0.20031 -0.954862 0.00157605 -0.297046
-0.195715 -0.347628 -0.0127627 -0.249915 -0.733556 -0.632011
0.1559 -0.316207 0.275976 0.882887 -0.43037 0.187861
-0.229454 0.210754 -0.0504627 -0.890878 0.430361 -0.145346
0.324607 -0.000960844 -0.0834594 0.201226 0.72171 -0.6623
-0.273582 0.10812 0.000243147 -0.948796 0.315222 -0.0205242
-0.257488 0.138321 -0.0264261 -0.924223 0.370302 -0.0932149
-0.212383 -0.203259 -0.156252 -0.216451 -0.709175 -0.670984
0.168373 -0.153631 0.490501 0.825989 0.319754 0.464218
-0.0308403 0.367185 0.0590906 0.466232 0.470899 -0.748921
0.0380365 0.250047 -0.00381791 0.257284 0.628779 -0.733786
0.212822 0.176788 0.18506 0.259827 0.724727 0.63817
0.132106 -0.383237 0.254028 0.900074 -0.417586 0.124456
0.0721525 0.185913 -0.0829341 0.423457 0.492459 -0.760374
0.32919 0.0187415 -0.02568 0.917097 -0.376979 0.129688
0.334284 0.192496 0.0972507 0.771557 0.253697 0.583385
-0.0650581 -0.149042 -0.257484 -0.286781 -0.715734 -0.636775
-0.307258 0.0531132 0.0939003 -0.835159 0.455266 -0.308615
0.136237 0.22576 -0.326892 -0.244892 -0.75666 -0.606212
0.211313 0.231188 0.120873 0.273644 0.699594 0.660066
-0.002997 -0.257461 0.472554 -0.299702 -0.616922 0.727726
0.107595 -0.456837 0.202189 0.902425 -0.406545 0.142657
-0.234521 0.197315 -0.0781781 -0.921753 0.374952 -0.0989065
-0.194365 -0.420281 0.068516 -0.261138 -0.753683 -0.603132
-0.219914 0.120267 -0.229902 0.375398 0.427886 -0.822186
0.146758 -0.317768 0.383845 0.879865 -0.449339 0.154697
-0.15727 0.226015 0.223104 -0.380665 0.789529 0.481392
-0.171715 0.348654 0.0374998 -0.561591 0.731569 0.386551
0.235937 -0.036632 0.302906 0.797619 0.208472 0.565989
-0.290729 0.0126601 0.511646 0.376122 0.579557 0.722943
-0.149729 -0.256142 0.407267 -0.521182 -0.484141 0.702835
-0.316791 0.0808193 0.258203 -0.875633 0.432111 -0.215749
0.026123 0.116031 -0.159075 0.380514 0.576423 -0.72315
0.105505 -0.306952 -0.135473 0.319258 -0.869302 -0.377344
0.202314 0.191731 0.0145475 0.297615 0.605047 -0.738474
-0.361519 -0.22701 -0.00758046 -0.740751 -0.298268 -0.601934
-0.397657 -0.428065 0.141812 -0.167782 -0.732826 -0.659405
0.0719563 -0.2819 -0.169606 -0.219432 -0.709247 -0.669939
-0.165861 0.143462 0.332691 0.303965 0.744566 0.594329
-0.342443 -0.176687 -0.0598085 -0.847196 -0.0538861 -0.528541
-0.0801099 -0.538637 0.20383 -0.482976 -0.533745 0.694155
-0.367557 -0.441876 0.142949 -0.212508 -0.707553 -0.67395
0.203557 -0.108426 0.375695 0.836733 0.152299 0.526006
0.124966 -0.242699 -0.222667 -0.158543 -0.720765 -0.674805
0.190471 -0.287114 -0.0887745 0.548818 -0.682358 -0.482894
-0.0777357 0.181884 -0.115427 -0.859603 0.504028 0.0838939
0.08046 0.136882 0.264183 0.0971237 0.732521 0.67378
-0.130065 0.0519951 0.423488 0.212843 0.703783 0.677781
0.311168 0.152263 0.0518148 -0.869888 0.487237 0.0767756
0.0851166 0.200962 -0.0629364 0.317135 0.605343 -0.730058
0.254724 -0.191026 -0.143907 0.90307 -0.415438 0.108974
-0.126115 0.213837 0.247431 0.210356 0.665475 0.716166
0.259322 -0.19284 -0.161378 0.927181 -0.364195 0.0877309
-0.219585 -0.0201117 -0.202416 -0.293169 -0.684921 -0.667034
-0.312136 -0.387888 0.0689191 -0.0895468 -0.674089 -0.733202
0.000516966 0.131843 -0.15814 0.305397 0.613213 -0.728493
0.210539 -0.242637 -0.122972 0.662079 -0.667938 -0.339869
-0.15296 0.274433 0.139359 -0.474544 0.759562 0.44483
0.0237602 0.267419 0.00372133 0.339014 0.587569 -0.734733
-0.229044 0.226058 0.00373122 -0.929895 0.355955 -0.0926931
-0.194378 0.293139 -0.00967378 -0.953493 0.283932 0.101157
0.262958 0.221791 0.120591 0.222225 0.726993 0.649691
-0.359338 -0.379557 0.210667 -0.236687 -0.616933 0.750582
-0.202465 0.288539 0.0221881 -0.905649 0.402489 -0.133426
-0.0775956 0.366209 0.0369497 0.247445 0.642118 -0.725573
-0.00655486 -0.288538 -0.130222 -0.223913 -0.722398 -0.65422
0.191885 0.197432 0.170508 0.180238 0.68913 0.701864
-0.363058 -0.086587 0.0804268 -0.91509 0.38847 -0.108171
0.246429 -0.173751 -0.000656381 0.904978 -0.409181 0.116559
-0.31652 -0.0681374 -0.13083 -0.820714 -0.119059 -0.558797
-0.0427663 0.23718 -0.0545701 0.171237 0.635774 -0.752641
-0.0933184 0.318732 0.139176 0.235952 0.606238 0.759475
-0.378009 -0.32164 0.0601158 -0.763295 -0.303966 -0.570074
0.0835153 -0.404092 0.388324 -0.358598 -0.541727 0.760223
0.146545 -0.125131 0.478627 0.439579 0.511831 -0.738105
0.225448 -0.0498526 0.324467 0.739152 0.194666 0.644794
-0.174113 0.183226 0.284278 -0.320182 0.779789 0.537971
-0.130934 -0.343594 -0.0343017 -0.19732 -0.716364 -0.669244
-0.121211 -0.159912 0.496024 -0.345176 -0.581241 0.736894
0.188395 0.251102 0.0632836 0.433328 0.498875 -0.750566
-0.0979391 -0.268426 -0.124512 -0.146251 -0.771577 -0.619095
-0.0536428 -0.0627513 -0.301985 0.403872 0.536129 -0.741251
0.123643 0.0375619 -0.176907 0.330949 0.595707 -0.731851
0.259738 -0.178761 -0.103773 0.926153 -0.377048 0.00866407
-0.0788689 -0.0594616 -0.307433 0.510183 0.468567 -0.72122
-0.419044 -0.196478 0.166628 -0.825787 0.501002 -0.258985
0.15446 -0.267388 -0.146197 0.497096 -0.724591 -0.477351
0.153742 -0.259141 -0.201674 -0.343305 -0.584201 0.735425
-0.212632 0.0620845 -0.277774 0.283971 0.661052 -0.694529
-0.379869 -0.0714029 0.247771 -0.906676 0.383517 -0.175653
0.21301 0.0320603 0.302074 0.612998 0.381386 0.691938
0.0506104 0.0950029 -0.168976 -0.310412 -0.61116 -0.728098
0.144224 -0.351145 0.273839 0.911949 -0.387798 0.134024
-0.24248 -0.0290923 0.540554 0.210542 0.71052 0.671441
0.196853 -0.296604 0.018959 0.912532 -0.385839 0.135696
0.220359 -0.20607 0.116104 0.932306 -0.358654 0.0466115
-0.0424135 -0.0103668 0.461002 0.214861 0.710987 0.669576
-0.310893 0.0435916 0.0494247 -0.896584 0.402742 -0.184214
-0.0607705 -0.244833 0.458036 -0.402728 -0.565946 0.719386
-0.121181 0.0464354 -0.243234 0.438385 0.469686 -0.766299
-0.140792 -0.256905 -0.119627 -0.210705 -0.698822 -0.683557
-0.0353882 -0.0789339 -0.31053 0.326857 0.598805 -0.731162
-0.100406 0.336654 0.118056 0.217139 0.720037 0.659088
0.219077 0.0627658 0.285406 0.65105 0.295247 0.699259
-0.254374 -0.410663 0.0760219 -0.230243 -0.699527 -0.676499
-0.173739 -0.254505 -0.113483 -0.165923 -0.678198 -0.715903
-0.0432874 -0.375734 0.357561 -0.144299 -0.733005 0.664742
-0.194635 -0.027028 -0.246181 -0.680971 0.723814 0.111229
-0.311896 -0.197659 -0.0867006 -0.699581 -0.250449 -0.669225
0.161157 -0.262919 -0.167208 0.443295 -0.797085 -0.410055
-0.00123416 0.312607 0.109061 0.216158 0.657317 0.721948
-0.0349746 0.303853 0.000562445 0.501863 0.549583 -0.667901
0.304708 0.0599635 -0.0444018 0.393077 0.466416 -0.792431
0.183643 0.266964 -0.35566 0.804376 -0.547386 -0.23097
-0.100718 0.0227944 -0.253469 0.371498 0.583283 -0.722337
0.071955 0.0645736 0.349337 0.116227 0.703165 0.701463
-0.292268 0.0298754 0.483526 -0.408201 0.783214 0.468986
