ply
format ascii 1.0
comment Created by Open3D
element vertex 827
property double x
property double y
property double z
property double nx
property double ny
property double nz
end_header
-0.381914 0.257368 -0.349335 -0.163962 -0.886715 -0.432264
-0.186183 -0.056055 0.402799 -0.0567993 -0.992649 -0.106875
-0.202996 0.0395716 0.000546823 -0.18252 -0.880841 -0.436814
0.180856 0.125006 -0.0915092 -0.185671 0.870743 0.455337
0.144031 -0.0407764 0.309727 0.144239 -0.958399 -0.246305
-0.0399574 0.276172 -0.39077 0.10941 -0.850596 -0.514312
-0.503456 0.123935 -0.0373575 -0.0708452 0.911966 0.404102
0.223976 0.180514 -0.163921 -0.16466 0.810318 0.56238
0.134598 0.000705756 0.145225 0.230481 -0.941896 -0.244358
-0.341492 0.00476148 0.134651 -0.145732 -0.899244 -0.412458
-0.594656 -0.0320057 0.329568 -0.0906548 0.899047 0.428364
0.104246 0.0103685 0.0356237 0.499145 -0.836397 -0.226482
-0.277112 0.0520618 0.0108201 -0.231066 -0.859475 -0.455973
0.0944882 0.265247 -0.315638 -0.143582 0.794878 0.589536
-0.233115 0.32244 -0.479709 -0.0422779 0.927168 0.372252
0.301115 -0.0110756 0.403995 -0.279741 0.920751 0.27196
0.215612 0.0872146 0.00816929 -0.301906 0.871209 0.387103
-0.230454 0.0495846 -0.00733569 -0.194893 -0.872784 -0.44751
0.37248 0.0319816 0.327781 -0.0401364 0.899257 0.435575
0.167846 -0.082227 0.574247 -0.0778693 0.895495 0.438207
0.0495639 -0.0302805 0.0137534 0.688939 -0.700591 0.185835
-0.113644 -0.00465467 0.052836 -0.331169 -0.921988 -0.200663
-0.265534 -0.00527357 0.221825 0.0420262 0.979262 0.198191
-0.0833287 -0.0666911 0.493008 -0.0709357 0.93399 0.350186
-0.448307 0.00651013 0.211001 0.13677 0.878311 0.458108
-0.438444 -0.0446104 0.389264 -0.0469157 0.926401 0.373605
0.222415 0.251796 -0.264752 -0.154571 0.791822 0.590868
0.223407 0.0118902 0.20284 0.301412 -0.908853 -0.288333
0.537454 0.175453 -0.00994288 0.29236 -0.907763 -0.300818
-0.135977 0.330083 -0.486139 -0.0566304 0.924844 0.376107
-0.183519 0.0645188 -0.0221185 0.178879 0.878956 0.442085
0.116435 -0.0772093 0.557506 -0.0757753 0.913815 0.398999
-0.457747 0.054038 0.0774771 -0.119765 -0.871988 -0.474651
-0.196643 0.32514 -0.492641 0.122975 -0.816677 -0.56384
-0.129816 -0.0177626 0.241704 -0.00887741 0.980557 0.196034
-0.166126 0.326432 -0.486678 0.130635 -0.822492 -0.553571
-0.0383034 -0.011108 0.0974582 0.115676 0.992487 -0.0398621
-0.0140272 -0.0326666 -0.0535823 -0.385402 -0.0378336 -0.921973
0.404922 0.133794 -0.00514997 0.311195 -0.896895 -0.314225
-0.143632 -0.0370481 0.26901 -0.0168956 -0.981437 -0.19104
-0.0100644 -0.043054 0.405594 0.0454046 0.988943 0.141173
0.124064 0.0284715 0.0702805 -0.39788 0.893109 0.209876
0.324887 0.288702 -0.31469 0.154569 -0.824191 -0.54481
0.131561 -0.0784476 0.563454 -0.0197719 0.938711 0.344137
-0.204583 0.0540396 0.0121 0.213827 0.900914 0.377667
-0.311446 0.0187102 0.134079 0.133005 0.903106 0.408302
-0.464441 -0.033289 0.322639 -0.0291278 -0.988758 -0.14666
0.0891172 0.305508 -0.388544 -0.0849091 0.909902 0.406041
-0.329428 0.17701 -0.218895 -0.166886 -0.889168 -0.426064
0.485575 0.116346 0.137234 -0.0657752 0.916622 0.394307
0.53786 0.227101 -0.163573 0.250904 -0.937295 -0.241919
0.140519 -0.0831162 0.571016 -0.0367462 0.938295 0.343877
-0.359078 0.27931 -0.399534 -0.171337 -0.893681 -0.414701
0.344297 0.031791 0.254934 0.28646 -0.920768 -0.264814
-0.0200979 -0.0530599 0.466439 0.0464514 0.988103 0.146608
0.250128 -0.0604084 0.523569 -0.292233 0.905778 0.306864
0.415758 0.159409 -0.021782 -0.312847 0.875722 0.367747
0.167871 -0.0909046 0.589209 -0.0243346 -0.991398 -0.128598
0.201572 -0.0688695 0.460906 -0.0132464 -0.986774 -0.161562
-0.211963 0.0586711 0.00498057 0.140992 0.905371 0.400529
0.176814 -0.080356 0.575582 -0.0946404 0.89492 0.436074
-0.146891 0.325005 -0.480376 0.127983 -0.787169 -0.603312
0.169641 -0.0793241 0.510412 -0.0373567 -0.987168 -0.155253
-0.468537 -0.0296074 0.342019 -0.0495389 0.931243 0.361015
0.112532 0.30986 -0.397138 0.130525 -0.81337 -0.566915
-0.0172509 0.184763 -0.227844 -0.13012 0.795868 0.591323
0.153624 0.306522 -0.381276 -0.0381641 0.946106 0.3216
-0.0692383 -0.0234098 0.282343 -0.00449637 0.989014 0.14775
-0.484977 -0.0335832 0.353576 -0.0149411 0.936541 0.350239
0.0227432 -0.0433125 0.303837 -0.00165893 -0.989744 -0.142843
-0.288489 0.246178 -0.330838 0.155297 0.879291 0.450255
0.380794 0.272791 -0.266483 -0.0986169 0.903007 0.418154
0.28425 0.207727 -0.188211 -0.163457 0.784474 0.598232
-0.0463683 0.25943 -0.365528 0.0957818 -0.822391 -0.560802
-0.458167 0.11042 0.00150439 0.18068 0.862231 0.473195
0.0500441 -0.0607551 0.42391 -0.0258468 -0.989639 -0.14123
0.416179 0.0514186 0.276657 0.286699 -0.930951 -0.226128
-0.110608 -0.0532028 0.462627 -0.0563082 0.926243 0.372697
-0.364406 0.228163 -0.298293 -0.171079 -0.869281 -0.463769
-0.0194019 0.231579 -0.32238 0.0973237 -0.828223 -0.551883
-0.479152 0.144162 -0.0804946 -0.0435694 0.947013 0.318225
0.127635 0.00924017 0.173054 -0.186951 0.959924 0.208794
-0.0971485 -0.0123976 0.0638587 -0.258102 -0.956819 -0.133719
0.146113 -0.073781 0.490425 0.0098708 -0.989352 -0.14521
0.0135282 0.137678 -0.185099 0.0990301 -0.828938 -0.550504
-0.29079 -0.0391037 0.388572 -0.0606518 0.92624 0.372023
-0.41798 0.000187718 0.215604 -0.0298731 0.979346 0.199973
0.399686 0.154472 -0.0228134 -0.269478 0.914048 0.303146
0.105118 0.0766684 -0.082235 0.333624 -0.712706 -0.617045
0.108537 0.0371716 -0.0250566 0.477448 -0.74466 -0.466394
-0.224752 -0.036836 0.385569 0.0368366 0.990195 0.13475
0.051432 -0.00164904 0.108837 -0.312147 0.949954 0.0122821
-0.403608 0.16019 -0.15218 -0.171749 -0.865065 -0.471343
-0.540105 -0.0127873 0.24343 -0.109898 -0.875308 -0.470913
0.506699 0.135477 0.0935583 0.00443318 0.945353 0.326018
0.380389 0.0816076 0.134575 0.305486 -0.921404 -0.240195
0.198303 -0.0021732 0.22387 0.24393 -0.947789 -0.205413
0.247932 0.12469 -0.092601 0.160885 -0.837715 -0.521872
0.0805475 0.241774 -0.314649 0.145596 -0.807006 -0.572313
0.506678 0.136397 0.0958226 -0.104242 0.908516 0.404638
0.250538 0.0885337 -0.0122406 0.265912 -0.906199 -0.328778
-0.0243165 0.24316 -0.336786 0.121473 -0.794892 -0.594467
0.353791 0.26526 -0.279244 0.127552 -0.816425 -0.563188
-0.306575 0.197596 -0.260902 -0.156626 -0.871298 -0.465089
0.00876503 0.317033 -0.423704 -0.0251295 0.955024 0.295463
0.0875553 -0.0844421 0.568436 -0.070696 0.916429 0.393904
0.109707 0.00320463 0.183672 -0.189226 0.963655 0.188578
-0.440401 0.0648751 0.0517016 -0.160512 -0.870249 -0.465729
0.0194941 -0.0595938 -0.0342291 -0.865167 -0.0182219 0.501153
-0.143654 0.259433 -0.387619 0.164116 -0.762695 -0.625589
0.0591219 -0.026516 0.213184 0.120746 -0.956884 -0.264185
0.0132496 -0.0503618 -0.0556213 0.314424 0.0893726 -0.945066
-0.307885 0.150428 -0.140791 0.18701 0.886216 0.423849
0.100688 -0.0772546 0.512022 0.0071284 -0.986148 -0.165717
0.212935 0.168889 -0.180908 0.137001 -0.817081 -0.560008
-0.0290555 -0.0122435 0.0870537 0.175086 0.960034 -0.218355
-0.11285 0.197969 -0.269034 -0.0445897 0.864024 0.501472
0.204062 0.195728 -0.192588 -0.144988 0.772664 0.618036
0.35033 0.0822159 0.103038 0.294367 -0.91731 -0.268124
0.0443133 0.144466 -0.16217 -0.150311 0.750497 0.643554
-0.0432115 -0.00959653 0.146903 0.037593 0.998789 0.0317357
-0.227144 -0.032872 0.270964 -0.034778 -0.985641 -0.165232
0.437319 0.137607 0.014083 0.215306 -0.947711 -0.235559
-0.152944 0.0602173 -0.0269778 0.413618 0.768676 0.487912
0.11777 0.0663419 -0.0590982 0.376057 -0.748812 -0.545767
0.00816978 0.309342 -0.415189 -0.0843211 0.907587 0.41131
-0.472508 0.0411029 0.107021 -0.166956 -0.869325 -0.465188
0.344329 0.198898 -0.155314 -0.158599 0.826821 0.539641
0.45976 0.152669 0.0435309 -0.284683 0.921855 0.262943
-0.39785 0.211647 -0.252654 -0.231321 -0.894766 -0.381948
-0.210013 0.194473 -0.288243 -0.111055 -0.881585 -0.458775
-0.509316 -0.0251857 0.326992 -0.0711508 0.953359 0.293332
-0.253616 0.22542 -0.336764 -0.118197 -0.866119 -0.485662
-0.0384562 -0.00944785 0.150332 0.0420515 0.999108 0.00381567
0.330303 0.181289 -0.165838 0.190089 -0.86395 -0.466322
-0.155216 -0.0574512 0.461652 -0.0845226 0.915473 0.393402
0.441794 0.0837725 0.191451 0.347399 -0.884532 -0.311317
-0.475448 0.14454 -0.0922485 -0.112244 -0.841057 -0.529174
0.17511 0.066396 -0.014546 0.234408 -0.906267 -0.351756
0.154179 0.130246 -0.108713 -0.189798 0.869685 0.455658
0.233668 0.00116289 0.244024 0.283822 -0.915469 -0.285239
-0.0765181 -0.0218448 0.117839 -0.181286 -0.983018 -0.0284706
0.319341 -0.0318065 0.474336 -0.0615608 0.920197 0.386585
0.528007 0.158791 0.0403837 0.287506 -0.894706 -0.341822
-0.14893 -0.017616 0.151798 -0.0715602 -0.969996 -0.232353
0.0735375 0.13381 -0.143015 -0.158778 0.782729 0.601768
-0.402774 0.109052 -0.0155417 0.21089 0.870653 0.444398
-0.0527006 -0.0219797 0.253682 -0.0698651 0.975666 0.207833
0.502967 0.179603 -0.0562695 0.326914 -0.886347 -0.327898
0.23714 0.0197051 0.180768 0.317219 -0.910309 -0.265911
-0.336125 -0.0501039 0.420974 -0.0498577 0.935984 0.348494
0.440669 0.176384 -0.0937352 0.262742 -0.898661 -0.351247
-0.0638918 0.0206084 -0.0544611 -0.343011 -0.657887 -0.670469
0.350994 0.0772866 0.171113 -0.275154 0.930643 0.241233
0.215304 0.0293646 0.127142 0.347037 -0.883847 -0.313655
-0.0187576 0.169831 -0.233472 0.0993738 -0.814751 -0.571231
0.211849 -0.0225621 0.365376 -0.271902 0.917214 0.291183
0.407326 0.144101 0.0154937 -0.288005 0.91502 0.282473
-0.133256 0.318877 -0.470613 0.108934 -0.82446 -0.555336
0.167489 -0.0745938 0.555285 -0.0759507 0.921595 0.38065
-0.262436 -0.0264153 0.229188 -0.0402593 -0.988452 -0.14609
0.430147 0.063831 0.259059 -0.056466 0.913888 0.402021
0.0967642 0.211339 -0.243554 -0.191278 0.783894 0.590697
0.524318 0.207541 -0.0772465 -0.0834914 0.909665 0.406865
-0.133624 0.0401309 -0.0399051 -0.299532 -0.828593 -0.472984
-0.159433 0.328997 -0.485071 -0.040688 0.882613 0.468336
0.0840799 -0.0600925 0.399167 -0.0276525 -0.987498 -0.155187
-0.083636 0.0070626 0.0263043 0.480349 0.857356 0.184949
-0.382069 0.147252 -0.13844 -0.216581 -0.901949 -0.373605
0.522843 0.188457 -0.0334106 -0.0170304 0.929928 0.367346
-0.227445 0.0594874 0.00988149 0.213062 0.880549 0.423365
0.270102 0.222796 -0.240191 0.131078 -0.777661 -0.614867
-0.194778 0.0310663 0.057113 0.141095 0.928747 0.342815
-0.37214 -0.0206736 0.322116 0.0398148 0.989262 0.140626
-0.419955 0.102813 0.000830316 0.171162 0.891977 0.418426
-0.219009 0.168886 -0.235897 -0.124396 -0.909417 -0.396846
-0.198621 0.0646976 -0.0496259 -0.167498 -0.858725 -0.484289
0.141137 0.0188678 0.0742135 0.4174 -0.865528 -0.276837
-0.189538 0.145378 -0.166779 0.0899436 0.882535 0.461565
0.00593325 0.103162 -0.11763 -0.0552159 0.721655 0.690048
-0.542972 -0.0138373 0.248402 -0.134657 -0.878639 -0.458107
0.00575817 -0.0416581 0.0157171 -0.122675 0.745941 -0.654616
-0.112208 0.156679 -0.230991 0.0738111 -0.820322 -0.567119
-0.252876 0.0120626 0.0866449 -0.165385 -0.924589 -0.343196
0.0693089 0.0014104 0.130019 -0.246919 0.967586 0.0529931
-0.248729 -0.0419751 0.308834 -0.0153633 -0.977397 -0.210854
0.483351 0.142157 0.0495717 0.276521 -0.885928 -0.372381
0.425076 0.134621 0.071065 -0.296612 0.907963 0.296014
-0.0984585 -0.0554448 0.39193 -0.0310427 -0.990399 -0.134704
-0.385289 -0.0446726 0.369052 -0.0485653 -0.976307 -0.210869
0.00326397 -0.052146 0.349384 -0.0240993 -0.990301 -0.13683
-0.203774 0.120196 -0.122511 0.144852 0.858414 0.49208
0.0390919 -0.054966 -0.0348091 0.946526 -0.0543484 -0.318017
0.496995 0.149642 0.0596915 -0.0578476 0.922681 0.381201
0.351754 0.00307214 0.393756 -0.0459019 0.931496 0.360845
-0.00650756 0.0314524 -0.0767423 -0.0430914 -0.655813 -0.753693
-0.342308 0.294063 -0.438278 -0.183278 -0.898698 -0.398435
0.465628 0.250091 -0.228654 0.142402 -0.815181 -0.561428
-0.34516 0.137707 -0.0999312 0.174802 0.909419 0.377362
0.222752 0.0512132 0.121626 -0.296095 0.915328 0.272953
0.109944 0.264265 -0.340038 0.12343 -0.743576 -0.657161
-0.000911358 -0.0224398 -0.0417012 0.0229755 0.0782779 0.996667
0.37755 0.0512974 0.231875 0.313686 -0.898933 -0.30581
0.186199 -0.0452366 0.421887 0.018095 0.993562 0.111832
-0.0514589 -0.0410239 0.39398 0.0807818 0.989366 0.120948
-0.310854 -0.0353074 0.304007 0.00717897 -0.982337 -0.186984
0.0236822 -0.0430936 0.384873 0.00352857 0.989454 0.144803
-0.393582 -0.00464923 0.24089 0.0502742 0.98661 0.155157
-0.0886591 0.205237 -0.273319 -0.100467 0.81923 0.564596
0.343794 0.133809 -0.0603199 0.339466 -0.827062 -0.44803
-0.524721 -0.0316707 0.310964 0.0902556 -0.97055 -0.223352
-0.135207 0.0176874 0.0034209 -0.415278 -0.833876 -0.363585
-0.229269 0.305085 -0.472205 0.119645 -0.807931 -0.577003
0.0259376 -0.0231201 0.256642 -0.0272452 0.992314 0.120706
0.330885 0.0217268 0.333075 -0.295 0.908683 0.295415
-0.0899561 0.0350476 -0.0593353 -0.305513 -0.77025 -0.5598
0.172182 0.236565 -0.28591 0.166882 -0.750671 -0.639252
-0.444684 0.0202777 0.143954 -0.118246 -0.898913 -0.421869
0.366817 0.211136 -0.198567 0.157146 -0.819741 -0.550754
-0.234129 -0.0346865 0.285776 -0.0411472 -0.997171 -0.0628974
0.44207 0.071789 0.2399 -0.0905038 0.917098 0.388252
-0.447187 -0.042543 0.360181 -0.0129261 -0.982659 -0.184969
-0.377968 0.188291 -0.216443 -0.170806 -0.896896 -0.407924
0.303069 -0.0509941 0.492035 0.29177 -0.90009 -0.323588
-0.376504 0.0685989 0.0185441 -0.0898763 -0.908092 -0.409012
0.384334 0.255327 -0.225045 -0.183522 0.774031 0.605966
-0.271213 0.25427 -0.351521 0.153833 0.907586 0.39067
0.249501 0.146418 -0.135025 0.155098 -0.822179 -0.547692
0.394894 0.0589607 0.222344 0.299217 -0.914023 -0.27392
-0.16289 0.130141 -0.145723 0.0880935 0.860364 0.50201
0.278021 -0.00608821 0.374324 -0.272704 0.936262 0.221464
-0.368662 0.0939939 -0.00218212 0.152096 0.903408 0.4009
0.40992 0.0716233 0.201684 0.303552 -0.908747 -0.286417
0.0865179 0.0857957 -0.102919 0.294231 -0.686454 -0.664988
0.136364 -0.0615034 0.514581 0.0220032 0.989388 0.143624
0.521025 0.151003 0.0598461 -0.0572111 0.933538 0.353883
-0.0052454 -0.0476316 0.330973 0.00109992 -0.989175 -0.146735
0.000395033 -0.0532557 0.47526 0.0057652 0.985679 0.168534
-0.109412 0.210094 -0.309778 0.0698383 -0.855042 -0.513834
-0.178908 0.252398 -0.358606 -0.0301706 0.788117 0.614785
0.213749 -0.062116 0.503242 0.0118169 0.985758 0.167754
-0.431092 0.0366392 0.102472 -0.19071 -0.885063 -0.42461
0.326317 -0.00329192 0.406187 -0.0345725 0.932576 0.359314
-0.452488 0.126125 -0.0375285 -0.0580399 0.929034 0.365413
-0.0632106 0.316114 -0.449459 0.173317 -0.776653 -0.605617
-0.0923805 0.0388316 -0.0321113 0.323187 0.751305 0.575406
-0.361682 0.0206956 0.146646 0.154802 0.888021 0.432962
-0.119729 -0.0183416 0.149177 -0.0525395 -0.976691 -0.208122
0.0779211 -0.078806 0.50818 -0.0778898 -0.98913 -0.124723
-0.343978 0.206293 -0.264783 -0.175046 -0.872462 -0.456256
0.368666 0.288258 -0.301194 -0.0468796 0.939729 0.338691
-0.31994 0.101971 -0.0395627 0.214999 0.846859 0.486421
-0.162797 -0.0633599 0.457476 -0.023831 -0.989301 -0.143928
0.0362151 0.0576861 -0.0702631 -0.247576 0.623569 0.74153
0.312529 0.0103843 0.298149 0.283624 -0.911483 -0.29792
0.568609 0.259058 -0.197679 -0.058297 0.926792 0.371024
0.0511396 0.113861 -0.145904 0.103685 -0.812248 -0.574023
0.356081 0.242543 -0.221056 -0.170971 0.814846 0.553891
0.241362 0.277359 -0.321926 0.145497 -0.790738 -0.594612
-0.238909 -0.0212862 0.297409 0.0285515 0.988333 0.149607
-0.137522 -0.0241989 0.193307 -0.0311053 -0.978731 -0.202777
0.474779 0.16327 -0.0278168 0.273132 -0.925678 -0.261761
-0.317359 0.129577 -0.129476 -0.215546 -0.883112 -0.416717
0.276321 0.0631035 0.135634 -0.316323 0.902544 0.292155
-0.295631 0.332343 -0.518389 -0.0589375 0.948755 0.310467
-0.396726 0.0928319 -0.0219839 -0.161069 -0.866702 -0.472106
0.00456109 0.244252 -0.304388 -0.121527 0.779059 0.615059
0.210855 -0.077345 0.516226 0.0383046 -0.970156 -0.239436
-0.301482 0.281107 -0.426116 -0.157133 -0.839064 -0.520847
0.299954 0.221001 -0.22771 0.193681 -0.823645 -0.533007
-0.104443 -0.0624154 0.48098 -0.0600171 0.923722 0.378334
-0.24137 -0.00580445 0.212459 0.0286793 0.979908 0.197378
-0.160052 0.0804021 -0.0971459 -0.125672 -0.855054 -0.50308
0.355363 0.0757596 0.181918 -0.364574 0.874709 0.319327
0.186062 0.164038 -0.152624 -0.104481 0.897084 0.429329
-0.193281 -0.0542921 0.404742 -0.0253124 -0.987716 -0.154198
0.0136461 -0.0286495 0.303073 -0.000617394 0.989016 0.147806
-0.368735 0.238022 -0.297585 -0.0474141 0.933671 0.35498
0.141478 0.0909286 -0.0853867 0.214673 -0.871818 -0.440283
0.240357 0.0345331 0.190309 -0.271587 0.932419 0.2384
-0.309841 0.230984 -0.2931 0.143661 0.878427 0.455772
-0.0859568 -0.0518926 0.362615 -0.0199821 -0.984674 -0.173256
-0.426887 -0.0359541 0.330181 0.0102692 -0.978682 -0.205126
-0.11636 0.165992 -0.217073 -0.050079 0.829598 0.556111
0.150449 0.00896846 0.137979 0.25572 -0.931559 -0.258468
0.174245 -0.0749456 0.492215 -0.000179763 -0.982283 -0.187406
0.140883 0.297445 -0.359784 -0.0255043 0.94784 0.317726
-0.174435 0.033079 0.00978219 -0.390174 -0.887872 -0.243817
0.439889 0.160614 -0.0517089 0.321449 -0.930404 -0.176122
-0.0771742 -0.0112076 0.00948409 -0.544836 -0.801525 -0.246395
-0.0227162 0.131791 -0.15657 -0.0954995 0.787774 0.608516
0.298377 0.0403388 0.184853 0.296553 -0.914333 -0.275773
-0.180248 0.00884237 0.124337 0.054896 0.942003 0.331085
0.259754 0.163102 -0.127036 -0.190603 0.85024 0.490675
-0.140196 0.000213283 0.0707074 -0.241287 -0.936128 -0.255822
0.366747 0.17671 -0.109672 -0.238102 0.932534 0.271456
0.440217 0.261574 -0.223437 -0.0514237 0.926382 0.373058
0.451356 0.145481 -0.00364612 0.291545 -0.913444 -0.28394
-0.274697 0.199473 -0.277317 -0.202588 -0.885259 -0.418657
0.149011 -0.0920244 0.592505 -0.0225166 -0.987795 -0.154122
-0.184287 0.115648 -0.15113 -0.114367 -0.840928 -0.528923
0.0738345 0.24989 -0.322651 0.174128 -0.815237 -0.55233
-0.3047 0.1138 -0.104116 -0.0829007 -0.910373 -0.405399
-0.198485 -0.0390896 0.289027 -0.0375382 -0.987761 -0.151394
0.385476 0.278283 -0.277186 -0.136532 0.902642 0.408163
0.18789 0.0812098 -0.0392518 0.239957 -0.874447 -0.42162
-0.0807481 0.214635 -0.279598 -0.0793433 0.828281 0.554667
-0.269273 -0.00637607 0.206175 0.0601487 0.996527 0.0575917
0.0117446 -0.0455038 0.313956 -0.008394 -0.996467 -0.0835687
0.420365 0.0489731 0.294554 -0.0317827 0.899912 0.434912
-0.119956 0.0808798 -0.102586 -0.200304 -0.770273 -0.60544
0.0573429 -0.0348186 0.243863 0.0739035 -0.974404 -0.212308
0.541219 0.245775 -0.174365 -0.136758 0.88379 0.447452
0.620833 0.261534 -0.195928 0.241382 -0.934753 -0.260713
0.0193072 -0.0608842 0.501516 -0.0600464 0.923403 0.379105
0.248839 -0.0698167 0.555001 0.00351981 0.983675 0.179921
-0.373971 0.0693208 0.00917123 -0.179604 -0.914843 -0.361669
-0.21207 -0.0125987 0.238411 -0.0411833 0.98169 0.185979
-0.314093 0.170976 -0.210274 -0.172907 -0.891658 -0.418388
-0.165899 -0.056164 0.400709 -0.0311312 -0.99006 -0.137154
-0.0900969 0.318454 -0.451906 -0.060082 0.924725 0.375865
-0.196002 -0.0370778 0.384636 0.0724501 0.991627 0.106901
-0.0933506 0.0721911 -0.100783 -0.15516 -0.718219 -0.678297
0.291109 -0.0960493 0.627594 -0.0600369 0.918684 0.390403
-0.359184 0.275079 -0.388604 -0.0607997 0.923331 0.37916
-0.23261 0.0374481 0.0186478 -0.205163 -0.856888 -0.472918
-0.133531 -0.027644 0.300858 0.0308698 0.9931 0.113138
-0.0594562 0.074535 -0.0881675 0.110399 0.693997 0.711463
0.183361 0.143311 -0.150516 0.178322 -0.823092 -0.539186
-0.488868 -0.0105881 0.27209 0.0407668 0.983579 0.175815
-0.367709 -0.0191031 0.221939 -0.0845161 -0.978895 -0.186068
-0.0867559 0.117478 -0.169013 0.0206681 -0.844481 -0.535186
-0.187321 0.065903 -0.0578357 -0.179797 -0.855138 -0.486223
-0.03258 0.0654057 -0.103954 -0.0688147 -0.687554 -0.722865
0.17868 -0.0615927 0.424072 0.0310426 -0.980973 -0.191645
0.120666 0.169669 -0.202278 0.150322 -0.810638 -0.565923
-0.128048 -0.034293 0.241224 -0.00431188 -0.983035 -0.183367
0.365003 0.235263 -0.202547 -0.144151 0.838986 0.524713
-0.194184 0.087666 -0.0969324 -0.197363 -0.874718 -0.442624
-0.357385 0.0895617 -0.0384137 -0.181906 -0.879846 -0.439068
0.0815421 0.0613245 -0.0774607 0.317051 -0.722789 -0.614048
-0.0913965 0.12319 -0.148812 0.0270885 0.861897 0.506359
-0.205099 0.130173 -0.136573 0.140451 0.867108 0.47791
0.342436 0.121395 0.0264082 -0.282105 0.897482 0.339031
0.31564 -0.0313676 0.434655 0.274865 -0.929399 -0.246304
-0.144739 0.0462846 -0.0430911 -0.271923 -0.808578 -0.521785
0.569268 0.267693 -0.221212 -0.0609505 0.93456 0.350546
-0.284008 -0.0149275 0.18389 -0.0828766 -0.98232 -0.167868
0.352615 -0.0302109 0.47103 -0.0460039 0.910681 0.410542
0.178701 -0.061103 0.50214 -0.0198374 0.978328 0.206111
0.499811 0.150821 0.0520442 -0.0686182 0.921287 0.382782
-0.43826 0.0432914 0.0910316 -0.0817864 -0.846011 -0.526855
-0.493754 0.0357622 0.160968 0.0581324 0.910722 0.408909
-0.018505 -0.0549798 0.469054 0.0534699 0.993694 0.0985547
-0.0545196 -0.0194905 0.260101 0.0808268 0.987648 0.134232
0.465256 0.107187 0.155726 -0.0591415 0.940247 0.335317
0.0492403 -0.0662585 0.518643 -0.0363997 0.959919 0.277904
0.295557 0.284382 -0.317761 0.144434 -0.798822 -0.583971
0.234037 0.0280526 0.154352 0.300949 -0.909019 -0.288293
0.207991 0.0822111 -0.0289122 0.24134 -0.879501 -0.410163
-0.313616 0.323858 -0.504158 -0.0398076 -0.877993 -0.477014
-0.361832 -0.0415791 0.390191 -0.108978 0.874697 0.47226
0.348538 0.152598 -0.0633278 -0.235475 0.924032 0.301192
0.223214 0.0996118 -0.0180621 -0.24517 0.90754 0.340974
0.424423 0.123231 0.0410375 0.265414 -0.930848 -0.251153
0.178738 0.260269 -0.288103 -0.125892 0.825445 0.550266
0.0707477 0.111319 -0.137537 0.143031 -0.772707 -0.618439
-0.361104 0.0555466 0.0344467 -0.175605 -0.857296 -0.483949
-0.2208 0.306968 -0.474053 0.116532 -0.836019 -0.536183
-0.580724 0.00917578 0.219546 -0.146491 -0.845059 -0.514213
-0.363618 0.144413 -0.10208 0.181406 0.845601 0.502047
-0.00429047 -0.0781612 -0.0645236 -0.27866 0.278332 -0.919174
0.0160975 -0.0803988 0.5444 -0.0602972 0.928762 0.36574
0.418587 0.209443 -0.14772 -0.143623 0.827733 0.542431
-0.189373 0.000658368 0.102978 -0.00701639 -0.939046 -0.343719
-0.42518 0.179223 -0.179717 -0.227112 -0.883143 -0.410462
-0.216072 0.0532351 -0.0238831 -0.218513 -0.890473 -0.399137
0.465235 0.23569 -0.208229 0.14145 -0.810325 -0.568652
-0.509596 0.0747228 0.0789046 -0.0565856 0.928462 0.367093
0.176138 0.202629 -0.234054 0.153727 -0.811112 -0.564327
0.25448 0.239804 -0.238067 -0.147032 0.777706 0.611191
0.21727 0.296978 -0.349402 -0.0591359 0.92504 0.375239
0.400551 0.0913573 0.184281 -0.274713 0.927091 0.255018
0.13815 0.213745 -0.262224 0.145247 -0.82085 -0.552367
-0.482091 0.0588319 0.112908 0.169256 0.90294 0.395033
0.496698 0.207125 -0.138934 0.272353 -0.908211 -0.317769
0.198778 0.287433 -0.345425 0.145272 -0.798654 -0.583992
-0.102305 0.246596 -0.36179 0.102982 -0.84183 -0.529828
-0.0503363 -0.0269881 0.175568 0.00220252 -0.981093 -0.193523
-0.00432318 -0.106771 -0.0736873 -0.38649 0.296185 -0.873441
-0.292213 0.220928 -0.278085 0.186059 0.892404 0.411093
0.458773 0.184746 -0.0546108 -0.294484 0.897646 0.327888
-0.081798 -0.0187445 0.0711468 -0.353334 -0.934261 -0.0480829
-0.16901 0.0532437 -0.00643144 0.296114 0.852259 0.431244
-0.29436 -0.00590009 0.148503 -0.058235 -0.969618 -0.23759
-0.2541 -0.0363522 0.2856 -0.0101477 -0.983105 -0.182763
-0.448221 0.138843 -0.0938822 -0.18091 -0.87171 -0.455405
0.146891 0.306188 -0.378437 -0.0634939 0.900149 0.430929
0.151107 0.0763427 -0.0148728 -0.39991 0.815058 0.419229
-0.00925631 0.214963 -0.271061 -0.141742 0.79916 0.584168
0.39582 0.0945424 0.109749 0.283552 -0.920044 -0.270403
0.389096 0.268199 -0.250631 0.0324133 0.935525 0.351769
-0.26004 0.105638 -0.0694214 0.147653 0.880594 0.450281
0.203344 0.0942896 -0.0213494 -0.275028 0.881268 0.384352
0.176865 0.251338 -0.302111 0.147318 -0.809321 -0.568592
-0.377597 0.0282311 0.137238 0.134834 0.887457 0.440727
0.14855 0.00839218 0.197775 -0.220095 0.959047 0.178291
0.257243 0.0843779 0.0552239 -0.313653 0.89104 0.328132
-0.125325 0.0210734 -0.00867409 -0.315323 -0.86007 -0.401062
-0.160084 -0.0138192 0.141075 -0.100246 -0.976755 -0.189475
0.210246 -0.0143602 0.338823 -0.272873 0.914794 0.297811
-0.0463829 0.314639 -0.43909 -0.0392613 0.934771 0.353074
0.191629 -0.014948 0.31851 -0.24341 0.901687 0.357369
0.244887 0.103988 -0.0144083 -0.252956 0.913587 0.318391
-0.27154 0.232327 -0.303778 0.189542 0.876373 0.442769
-0.0249099 -0.0219031 0.257875 -0.0470315 0.986869 0.154526
0.0139521 0.0996719 -0.137085 0.0692077 -0.745373 -0.663046
-0.376942 0.189743 -0.186119 0.13609 0.853672 0.502717
0.226688 -0.0558244 0.493899 -0.257343 0.943445 0.209014
0.227081 0.0164778 0.19034 0.29533 -0.911054 -0.287682
-0.480614 0.136904 -0.0676943 -0.107123 0.903421 0.415158
-0.280702 0.229019 -0.333857 -0.131767 -0.869959 -0.475193
-0.232275 0.136303 -0.140768 0.0735721 0.82717 0.557114
-0.070098 -0.0574828 0.395342 -0.0547456 -0.988419 -0.141531
-0.165235 -0.0594663 0.472984 -0.0623601 0.929609 0.363233
0.204814 -0.0051688 0.237207 0.255535 -0.938301 -0.23301
0.0431093 0.00974251 -0.0258024 -0.643276 0.50926 0.571709
0.323261 0.0616885 0.143282 0.299449 -0.909798 -0.2874
-0.301756 0.226625 -0.285976 0.156792 0.883257 0.441897
0.378758 0.0151544 0.370418 -0.0816214 0.934397 0.346757
-0.33721 0.119665 -0.0666018 0.16307 0.850268 0.500452
0.243528 -0.0422734 0.46002 -0.292277 0.903776 0.312671
-0.0581502 0.131675 -0.159569 -0.0397904 0.8714 0.488957
-0.53135 -0.0302962 0.331452 -0.0511141 0.930189 0.363504
0.396246 0.0286181 0.339958 -0.0981865 0.888847 0.447561
0.111034 -0.0621984 0.504589 0.0126744 0.985934 0.166656
0.341801 0.133271 -0.0112561 -0.35182 0.862464 0.363839
-0.13062 0.253072 -0.374401 0.0956094 -0.824447 -0.557804
-0.12964 0.237664 -0.326157 -0.118057 0.809809 0.574692
0.35092 0.00293994 0.365445 0.29332 -0.903808 -0.3116
0.258361 -0.00998404 0.366819 -0.234128 0.917966 0.320192
0.17861 0.0977589 -0.0404481 -0.25552 0.840443 0.477876
0.0793974 0.0728856 -0.0652606 -0.325125 0.686025 0.650894
-0.161548 0.0232561 0.0735691 0.0467267 0.94669 0.31874
-0.0164726 -0.034854 0.0200714 0.393372 0.786814 -0.475586
0.443899 0.0946036 0.157098 0.289145 -0.917814 -0.272051
-0.2433 0.0191352 0.110822 0.116373 0.913179 0.390592
0.279092 0.235692 -0.229059 -0.143851 0.810736 0.567463
0.166146 -0.0537891 0.477989 -0.00498272 0.987756 0.155928
0.325028 0.065569 0.130465 0.309473 -0.899795 -0.307563
0.304117 -0.0877298 0.609692 0.278308 -0.92046 -0.274406
-0.236903 -0.0556086 0.407688 0.0353296 -0.986172 -0.161914
-0.445085 0.16357 -0.126996 -0.0740878 0.93998 0.333088
-0.374775 0.212437 -0.230469 -0.0186484 0.937267 0.348113
-0.438096 0.0882585 0.00233223 -0.162861 -0.870651 -0.464159
-0.268169 -0.0269341 0.341831 0.0278615 0.982902 0.182011
0.10139 0.244559 -0.313756 0.137291 -0.799789 -0.58437
0.441487 0.11346 0.141499 -0.0280832 0.951419 0.306615
-0.0192031 0.0987639 -0.113275 0.000653204 0.750081 0.661345
-0.306218 0.19487 -0.219291 0.187222 0.850155 0.492122
-0.34541 -0.0248191 0.337132 0.0269737 0.986372 0.162307
-0.193328 0.223349 -0.314651 0.0235478 0.88431 0.466307
0.109185 0.0370766 0.0174473 -0.496268 0.809928 0.312625
-0.197165 0.0151672 0.0616088 -0.0930464 -0.919142 -0.382779
-0.0277437 -0.0826328 -0.0258218 -0.961759 -0.23335 0.143412
-0.0166575 -0.0471615 0.034089 -0.316003 -0.819302 0.47842
0.0219373 0.263072 -0.330136 -0.135921 0.765927 0.628395
0.21306 -0.0745106 0.481841 -0.00893771 -0.984038 -0.177731
0.191742 0.288769 -0.327402 -0.0402621 0.937127 0.346659
0.0765821 -0.00737419 0.203305 -0.0835215 0.9759 0.201601
0.228492 0.0337539 0.185393 -0.279482 0.912769 0.297895
0.0600877 0.28684 -0.379585 0.117007 -0.775627 -0.620251
-0.0175932 0.185336 -0.257855 0.102984 -0.821116 -0.561394
-0.398322 0.0780692 0.00740562 -0.173269 -0.876486 -0.449166
-0.56354 -0.0164772 0.262161 -0.155776 -0.896688 -0.414348
0.406405 0.193596 -0.162189 0.153868 -0.807016 -0.570131
-0.176289 0.164914 -0.243423 -0.0986622 -0.892517 -0.440091
-0.497613 0.128901 -0.0521846 -0.167223 -0.903455 -0.394722
0.383263 0.0787176 0.147946 0.300774 -0.911013 -0.282117
0.264519 0.138192 -0.0846299 -0.17814 0.85365 0.489437
-0.40353 0.195355 -0.220082 -0.161162 -0.875853 -0.454872
-0.0371076 -0.0127867 -0.0200702 0.705016 0.484565 0.517831
0.0383182 -0.0814857 0.553583 0.0149385 -0.966889 -0.25476
-0.247905 -0.0398924 0.319283 -0.0584039 -0.992989 -0.102773
-0.313424 -0.0395861 0.397716 -0.0672188 0.895767 0.439412
-0.208634 0.117613 -0.11136 0.154897 0.857532 0.490557
0.102552 0.00349833 0.166236 -0.149956 0.963965 0.21974
0.0928611 0.122695 -0.122318 -0.182192 0.80865 0.559367
0.347671 0.222784 -0.188627 -0.142672 0.81242 0.565348
-0.0248185 -0.0224696 0.0489142 0.236892 0.934784 -0.264692
-0.210566 0.176505 -0.22176 0.164948 0.831641 0.53025
-0.0325957 -0.00894528 0.109307 0.081631 0.995347 -0.0511965
0.273017 0.0522779 0.177526 -0.302627 0.909342 0.285507
0.254546 -0.0477345 0.482956 -0.188759 0.962369 0.195488
0.00173827 -0.112677 -0.0660171 0.0539019 -0.949528 -0.309017
-0.230716 0.250373 -0.350709 0.149129 0.91701 0.369936
0.15948 0.190566 -0.196579 -0.16619 0.72952 0.663462
0.309437 0.0802236 0.0660033 0.308544 -0.898074 -0.313469
0.339378 0.0897791 0.121761 -0.297396 0.917824 0.262974
0.172704 -0.0749452 0.497387 -0.0432605 -0.988458 -0.145185
0.0353427 -0.0275726 0.305182 -0.0359333 0.986482 0.159883
0.205258 0.156612 -0.160071 0.223904 -0.755748 -0.615396
0.222577 0.210399 -0.232447 0.15834 -0.754495 -0.636918
0.277498 0.0586088 0.157803 -0.360377 0.871563 0.332425
-0.117458 0.0452092 -0.0228157 0.326154 0.81508 0.478819
-0.25355 0.0179119 0.0741255 -0.12169 -0.920796 -0.370577
0.274685 0.293166 -0.326984 -0.0903177 0.911954 0.400228
0.271433 -0.00254242 0.296814 0.298948 -0.906855 -0.297061
-0.512495 0.0167702 0.211089 0.14741 0.859335 0.489707
-0.123436 0.00188977 0.129859 0.231534 0.967117 0.105243
0.135026 -0.0427404 0.313559 -0.0165093 -0.990659 -0.135362
0.167175 0.00670512 0.216873 -0.237198 0.938967 0.249155
0.109182 -0.0014794 0.199796 -0.203684 0.939149 0.276608
-0.117225 -0.0299322 0.324358 -0.00893041 0.989727 0.14269
-0.0758092 -0.0304825 0.327787 0.0486987 0.989365 0.137062
-0.192089 -0.00127222 0.163198 0.093291 0.962805 0.253581
0.237913 0.0528222 0.070552 0.23268 -0.933243 -0.273711
-0.275768 0.311338 -0.465587 -0.047088 0.92684 0.372491
0.103136 0.0020676 0.0748866 0.413889 -0.900306 -0.134701
-0.331612 -0.014236 0.264422 0.0617026 0.982999 0.172934
0.24325 0.233768 -0.232988 -0.149579 0.79419 0.588973
0.370014 0.0553046 0.209582 0.317962 -0.885038 -0.340012
0.178655 -0.0653979 0.436525 0.0242154 -0.98482 -0.171882
0.0483182 -0.0819511 0.555629 -0.0547069 0.93155 0.359474
0.125021 0.0765869 -0.037429 -0.385589 0.774846 0.500934
-0.00431005 0.175443 -0.213741 -0.119743 0.815163 0.566719
-0.30973 0.0696222 -0.0146082 -0.214596 -0.836145 -0.504787
-0.387855 0.144075 -0.129021 -0.171072 -0.863361 -0.474702
0.281199 0.0890439 0.010452 0.277087 -0.912781 -0.30009
-0.100806 0.29882 -0.405573 -0.139381 0.799384 0.58443
0.356463 0.251537 -0.258494 0.139437 -0.805009 -0.576643
0.236501 -0.041937 0.394276 0.233837 -0.938659 -0.253457
0.280278 0.0301691 0.192479 0.262762 -0.937156 -0.229553
0.201016 0.286587 -0.325334 -0.058708 0.926666 0.371273
0.0897365 0.120336 -0.146363 0.188703 -0.785507 -0.58938
0.171691 0.15845 -0.144856 -0.1498 0.782146 0.60482
0.0808138 -0.0425448 0.287064 0.0354449 -0.987827 -0.151461
0.0571263 0.0704645 -0.0972201 0.217519 -0.752393 -0.621763
-0.296195 0.0312043 0.105573 0.160432 0.883956 0.439185
0.293078 0.230429 -0.24557 0.144099 -0.797235 -0.586218
0.423206 0.136901 0.0564428 -0.29381 0.924897 0.24133
0.275495 0.00509892 0.331404 -0.270451 0.923247 0.272895
0.0964258 -0.00172291 0.082843 0.380462 -0.922773 -0.0611434
-0.439133 0.0115886 0.197835 0.143053 0.880325 0.452287
0.156511 -0.0195791 0.239564 0.236614 -0.942078 -0.237703
0.0341438 -0.0396402 0.279812 0.0444149 -0.981909 -0.184068
0.0683536 -0.0259885 0.294685 -0.0323523 0.975365 0.21821
0.0294407 -0.100297 -0.0187159 0.70331 -0.268941 0.658047
-0.37528 -0.019962 0.304105 0.0459016 0.981287 0.187002
0.151581 0.260183 -0.320476 0.155123 -0.779374 -0.607053
-0.173985 0.0138794 0.104249 0.0799459 0.953345 0.291104
-0.130323 0.161099 -0.241787 0.0770018 -0.866341 -0.493482
0.270828 0.0266393 0.195687 0.297349 -0.911333 -0.284704
0.286362 -0.0333646 0.470926 -0.29666 0.906637 0.300005
0.0300843 -0.048286 0.0215236 0.525018 -0.696867 0.488603
-0.493502 0.00543065 0.192441 -0.15344 -0.87256 -0.463784
0.44523 0.231611 -0.177581 -0.115888 0.845777 0.520798
0.344841 0.0648362 0.203277 -0.291987 0.919704 0.262465
-0.350257 -0.0150082 0.19083 -0.005106 -0.944124 -0.329551
0.0553416 -0.0506967 0.344769 0.0597673 -0.983087 -0.173111
0.138608 0.303493 -0.378972 -0.0886158 0.917751 0.387143
0.158389 0.111307 -0.077548 -0.192075 0.882222 0.429874
0.0543716 -0.0215791 0.0635127 0.38816 -0.91759 0.0857885
0.0223195 -0.0580183 -0.0102981 -0.771694 0.420465 -0.477178
0.101246 0.0083526 0.15858 -0.181767 0.94643 0.26689
0.0490783 0.175172 -0.204446 -0.122251 0.781569 0.611722
0.457774 0.141665 0.0713582 -0.0657721 0.931757 0.357075
0.256532 0.182761 -0.187119 0.156234 -0.807984 -0.568113
-0.316206 0.198501 -0.223643 0.162679 0.872572 0.460602
-0.0805053 -0.071545 0.508369 -0.111933 0.94679 0.301762
0.223587 0.138761 -0.128993 0.179197 -0.806412 -0.56355
-0.137755 0.0326901 0.0216574 0.329801 0.848223 0.414426
0.25395 -0.0872542 0.5565 0.257719 -0.927805 -0.269739
-0.161483 0.0038976 0.0781259 -0.0824016 -0.958001 -0.274669
0.135078 0.0029364 0.203765 -0.211131 0.944783 0.250616
-0.297452 -0.0517428 0.398414 -0.040114 -0.994214 -0.0996417
0.183203 -0.0679747 0.455999 0.129034 -0.974159 -0.185378
-0.279427 0.0205487 0.115902 0.1635 0.935817 0.312273
-0.276163 -0.0215083 0.20918 -0.0271602 -0.975582 -0.217951
0.474841 0.245136 -0.189298 -0.146336 0.822827 0.549128
-0.470041 0.0529932 0.0850483 -0.16047 -0.870828 -0.46466
-0.0375497 0.118457 -0.137896 0.00960811 0.848055 0.529821
0.457485 0.10385 0.163177 -0.0532942 0.953229 0.297513
-0.323491 -0.0382902 0.321116 -0.114667 -0.993347 0.0106568
-0.306199 0.0262131 0.0748948 -0.156946 -0.890327 -0.427418
0.0283308 -0.0413691 0.391306 0.07026 0.989864 0.123421
-0.377736 -0.0193105 0.308512 0.0120145 0.982386 0.186477
0.313702 0.0624056 0.11946 0.302256 -0.905077 -0.299128
-0.490646 0.0841728 0.0625786 -0.0606715 0.922847 0.380359
0.100244 0.267536 -0.316857 -0.14052 0.804323 0.577338
0.334734 0.0427816 0.210501 0.224679 -0.962248 -0.153614
0.113013 -0.0610079 0.405678 0.0693554 -0.964816 -0.253612
0.496568 0.145148 0.0680695 -0.0172713 0.929919 0.367359
0.309017 -0.0846159 0.602834 0.274404 -0.928091 -0.251695
0.207477 -0.0827477 0.540195 -0.0212569 -0.987388 -0.156886
0.21369 0.0139535 0.24449 -0.275997 0.92333 0.266996
-0.103279 0.193061 -0.283665 0.0800265 -0.823761 -0.56126
0.498992 0.130804 0.0977229 0.309462 -0.90757 -0.283812
-0.323316 0.190566 -0.210806 0.183349 0.892258 0.412624
-0.0289862 -0.0362497 0.254243 -0.0614546 -0.995417 -0.0732689
-0.0318821 0.211329 -0.267155 -0.118959 0.805849 0.580049
-0.339198 0.0572263 0.0610469 0.201533 0.889031 0.411105
-0.0267319 0.215141 -0.277422 -0.128089 0.839167 0.528575
0.287906 0.0792261 0.0461274 0.264754 -0.916308 -0.300476
0.379909 0.0921889 0.159314 -0.299288 0.909548 0.288355
-0.28334 0.329811 -0.521762 0.133504 -0.811809 -0.568456
0.0450479 0.136206 -0.176926 0.0773533 -0.819333 -0.568076
0.0819582 -0.0163031 0.243366 -0.0316128 0.98479 0.170849
-0.217943 0.0798713 -0.0396973 0.183082 0.878001 0.442262
-0.519273 -0.03916 0.343012 0.0221367 -0.969213 -0.245227
0.209828 -0.0936333 0.609488 -0.0498374 0.931764 0.359628
0.0777091 0.000553919 0.00190834 0.632729 -0.729452 -0.25991
-0.597923 -0.0197241 0.284519 -0.174357 -0.843489 -0.508061
0.286758 0.104325 0.0188182 -0.267955 0.927989 0.258913
-0.40736 0.195284 -0.223029 -0.203847 -0.829089 -0.520632
0.271396 0.160487 -0.145519 0.149818 -0.823643 -0.546962
-0.0645749 0.261769 -0.347032 -0.155728 0.777923 0.608757
0.248833 0.171148 -0.172386 0.112728 -0.827366 -0.550235
-0.123715 0.0851068 -0.0786951 0.192377 0.781734 0.593197
0.317978 -0.0421073 0.49245 -0.090896 0.89648 0.43366
0.0389739 -0.0554231 0.48362 -0.00920345 0.978552 0.205795
0.133382 -0.0313695 0.266394 0.225483 -0.925315 -0.304877
-0.116007 0.083896 -0.108174 -0.0826069 -0.859591 -0.504262
0.160868 0.255899 -0.283664 -0.121341 0.765755 0.631581
0.0857017 0.260047 -0.335575 0.148886 -0.800569 -0.58045
0.0509773 -0.0535397 0.464489 0.0415647 0.99389 0.102253
-0.504894 0.125003 -0.0423967 -0.183205 -0.867104 -0.463213
0.192462 0.298214 -0.358836 0.14431 -0.798373 -0.584615
0.521834 0.158602 0.0393978 -0.0169837 0.944422 0.328298
-0.403885 -0.0245995 0.339201 -0.0658004 0.931553 0.357602
-0.144683 0.162722 -0.213655 0.0908822 0.880534 0.465188
-0.38244 0.241304 -0.320155 -0.0902566 -0.888903 -0.449117
0.0833869 0.0216591 0.0143666 -0.597921 0.732237 0.326067
0.224577 0.222854 -0.225941 -0.171466 0.837988 0.518049
0.114623 0.224472 -0.2813 0.213348 -0.75151 -0.624272
0.137025 0.262697 -0.299965 -0.0942039 0.841101 0.532612
0.0237326 0.206103 -0.2491 -0.102835 0.827043 0.552652
-0.0670406 -0.0374871 0.368839 0.025858 0.989933 0.139155
0.0970768 -0.085027 0.55932 -0.0148301 -0.983214 -0.181855
-0.244595 0.201408 -0.289488 -0.167123 -0.874133 -0.456028
-0.024092 0.0824099 -0.0983849 0.0125646 0.714008 0.700025
0.539296 0.17681 -0.00193742 -0.0605253 0.924127 0.37726
0.0782725 0.00540942 0.0554185 -0.440658 0.896203 0.0513842
-0.547669 0.0200282 0.18151 -0.156588 -0.892361 -0.423286
0.106036 0.242614 -0.3069 0.189001 -0.768889 -0.61081
0.164387 -0.0580715 0.394705 0.0579604 -0.978235 -0.199243
-0.0388756 -0.0389329 0.253577 -0.0538526 -0.994799 -0.0864587
0.118272 0.12352 -0.109144 -0.193634 0.844946 0.49857
0.0530913 -0.0217547 0.18244 0.0907526 -0.976139 -0.197273
0.259291 0.27484 -0.284102 -0.116872 0.824666 0.553414
-0.117366 0.00379099 0.103449 0.22365 0.965472 0.133581
0.286127 0.0527155 0.185492 -0.319472 0.892993 0.31702
0.0910474 0.191313 -0.216406 -0.144209 0.778229 0.611198
-0.0314436 -0.0263017 0.0256052 0.387536 0.894489 -0.222949
0.320759 0.00944166 0.367007 -0.304384 0.897908 0.31798
0.0125449 0.185634 -0.250997 0.126506 -0.813279 -0.567955
-0.326469 0.193876 -0.248698 -0.173012 -0.879688 -0.442963
-0.0850389 0.312773 -0.428375 -0.12961 0.901372 0.413194
-0.180646 0.218352 -0.333476 0.097283 -0.813446 -0.573448
-0.125588 -0.0314769 0.22948 -0.0738269 -0.990756 -0.113808
0.373293 0.0925471 0.152444 -0.299959 0.911387 0.281777
0.169649 0.00864435 0.153702 0.247178 -0.938169 -0.242369
0.471297 0.154206 0.044138 -0.0163599 0.946626 0.321918
0.374762 0.116123 0.0196476 0.284008 -0.90185 -0.325587
-0.618775 -0.0119859 0.270703 -0.151251 -0.888259 -0.433726
0.0931216 -0.00149592 0.189534 -0.112267 0.974125 0.196156
0.112424 -0.0123863 0.172147 0.142793 -0.965338 -0.218479
0.195407 0.079528 -0.0320451 0.275512 -0.862161 -0.425171
-0.46793 0.13141 -0.0495807 -0.0524297 0.92587 0.374186
-0.340219 0.297449 -0.435945 -0.0534687 0.919991 0.388275
0.109139 -0.0503142 0.443096 -0.0326686 0.978056 0.205767
0.0480082 0.308138 -0.413516 0.137528 -0.804009 -0.578494
-0.19367 0.323468 -0.478479 -0.0582601 0.926361 0.372105
-0.134842 0.299719 -0.444269 0.13975 -0.805301 -0.57616
-0.189805 0.326754 -0.495706 0.108897 -0.818307 -0.564371
-0.181007 0.279869 -0.423755 0.142469 -0.845116 -0.515248
-0.316746 0.0527872 0.0241555 -0.225526 -0.915288 -0.333745
-0.223727 0.232942 -0.357158 -0.0704529 -0.866084 -0.49491
0.29074 -0.0855433 0.582556 0.313126 -0.893681 -0.321382
0.182797 0.246956 -0.268453 -0.130703 0.7867 0.603341
0.447046 0.0948256 0.184719 -0.0923202 0.905712 0.413718
0.223923 0.29243 -0.336008 -0.0588824 0.926128 0.372586
0.51115 0.239129 -0.172061 -0.272427 0.895522 0.351885
0.5234 0.226874 -0.17424 0.259824 -0.922026 -0.286983
-0.0978368 -0.0493898 0.350617 0.0305036 -0.985773 -0.165292
0.290606 0.191602 -0.187681 0.155497 -0.797325 -0.583175
0.0299859 -0.0282702 0.306143 0.0226343 0.994397 0.103262
0.298415 0.15098 -0.127598 0.165969 -0.851972 -0.496586
-0.00603533 0.164409 -0.201575 -0.101892 0.789714 0.604954
0.384438 0.0920531 0.160446 -0.298259 0.914629 0.272939
-0.207684 0.00125021 0.101052 -0.0582739 -0.931703 -0.358516
0.182421 0.0237793 0.104153 0.262695 -0.950554 -0.165643
-0.156323 -0.00154973 0.165192 0.109761 0.986808 0.11901
-0.0249753 -0.062201 0.418902 -0.0412594 -0.993367 -0.107329
-0.0029339 -0.0250692 0.174283 0.0542685 -0.998507 -0.00627882
0.0839448 0.0192403 0.0285047 -0.54871 0.806408 0.220509
-0.23384 0.302621 -0.443709 -0.126137 0.844636 0.520269
-0.252183 0.0793758 -0.0189169 0.150726 0.867611 0.473849
-0.507546 -0.0114122 0.279811 0.102828 0.991192 0.0834523
-0.369769 -0.0337831 0.299498 -0.0291538 -0.985285 -0.168413
-0.240546 0.0110806 0.0882973 -0.182952 -0.91203 -0.367055
-0.267024 -0.0189541 0.196822 -0.0259027 -0.980732 -0.193632
0.461347 0.218176 -0.152662 -0.14368 0.850527 0.505925
-0.189501 0.248724 -0.352893 -0.148225 0.805825 0.573303
-0.565157 0.016728 0.194995 -0.211159 -0.901777 -0.377106
-0.226001 0.208946 -0.277523 0.114579 0.904152 0.411558
-0.448048 0.0194256 0.147978 -0.149091 -0.90098 -0.40744
-0.00590072 -0.0272165 0.133451 0.0507077 -0.998372 0.0260982
-0.0582678 -0.032698 0.212834 0.00942695 -0.987386 -0.158053
0.114535 0.278982 -0.331164 -0.148313 0.82105 0.551253
0.0325544 -0.11537 -0.0283154 0.839038 -0.17736 0.514352
0.158419 0.0387632 0.0888516 -0.294295 0.906651 0.302283
0.33696 0.0578163 0.219917 -0.296247 0.916721 0.26807
-0.0423889 -0.0639812 0.44315 -0.0540454 -0.989278 -0.135679
-0.00247562 -0.0294517 0.29921 -0.0132553 0.991626 0.128463
-0.539021 -0.00875909 0.232898 -0.223868 -0.883055 -0.412427
0.456328 0.281331 -0.270369 -0.0612762 0.922442 0.381243
-0.60769 -0.0106588 0.275254 -0.0207154 0.926548 0.375607
-0.0138501 0.0985548 -0.116054 -0.00540797 0.713971 0.700154
-0.119129 -0.06709 0.494152 -0.0906624 0.909119 0.406551
0.126294 0.0399008 -0.00768002 0.446306 -0.799179 -0.402646
-0.278014 -0.0316165 0.365384 0.0506537 0.99008 0.131055
-0.406854 0.0789998 0.0407718 0.232651 0.898572 0.372079
0.275608 -0.013038 0.405047 -0.267753 0.925123 0.269177
0.199254 0.294136 -0.344088 -0.102589 0.913557 0.393558
-0.282987 0.315302 -0.498937 0.144803 -0.857285 -0.49406
0.278468 -0.00734665 0.32515 0.253937 -0.936354 -0.2424
-0.430098 0.0654085 0.0801392 0.168498 0.886588 0.430778
-0.360126 0.0778819 -0.00737719 -0.209341 -0.908615 -0.36138
-0.362032 0.191212 -0.196221 0.170005 0.86442 0.473156
-0.227098 0.302605 -0.468807 0.142096 -0.754938 -0.640217
-0.420081 0.179215 -0.160401 -0.11081 0.88778 0.446731
-0.201727 0.0263723 0.0325998 -0.166219 -0.942844 -0.28882
-0.356419 0.171044 -0.155368 0.139595 0.869323 0.474121
-0.553766 -0.0322735 0.315486 -0.0143251 -0.985832 -0.167125
-0.333771 -0.0388679 0.318223 -0.0660037 -0.985754 -0.1547
-0.0580293 -0.0224185 0.123655 -0.0978573 -0.995198 0.00197872
0.200282 0.19667 -0.22202 0.180605 -0.79707 -0.576247
0.0809335 0.308932 -0.400261 -0.0517955 0.909053 0.413449
0.359166 0.134297 -0.047528 0.281425 -0.906442 -0.314902
0.520622 0.180661 -0.0415592 0.285523 -0.929189 -0.234701
0.0435975 0.219289 -0.264281 -0.117356 0.829931 0.545382
-0.183493 0.0589217 -0.00852902 0.132102 0.83511 0.533985
-0.340152 0.267689 -0.36622 -0.00538359 0.944878 0.327378
0.100599 -0.0785079 0.553308 -0.0615102 0.92353 0.378562
-0.28466 -0.00106272 0.12866 -0.141887 -0.909864 -0.389892
-0.112714 0.278244 -0.406882 0.140573 -0.798557 -0.585274
0.421471 0.0602906 0.268534 -0.0497379 0.938673 0.341202
0.301433 -0.088262 0.608646 -0.0592618 0.926291 0.372121
-0.102417 -0.008222 0.0529944 -0.285604 -0.941727 -0.177712
0.194512 0.111501 -0.0955646 0.169495 -0.808414 -0.563683
0.0287594 -0.0782252 -0.0562029 0.710906 0.15266 -0.686518
0.357995 0.1886 -0.136176 -0.152477 0.85699 0.49226
0.0826621 -0.0479592 0.318932 0.00959904 -0.992714 -0.120111
-0.328377 0.11852 -0.101157 -0.183782 -0.873787 -0.450245
-0.090072 0.163301 -0.210889 -0.0537228 0.843411 0.534577
-0.212617 0.0139942 0.114393 0.0487129 0.979129 0.197317
-0.187637 0.330841 -0.500431 0.111029 -0.774527 -0.62272
0.399804 0.115777 0.101697 -0.299215 0.881181 0.366048
0.564462 0.236828 -0.173473 0.258044 -0.930445 -0.260166
-0.305038 0.136381 -0.112252 0.114376 0.851098 0.512397
0.106752 -0.035286 0.270735 0.0839897 -0.971752 -0.220553
-0.345154 0.268173 -0.366941 -0.0525547 0.926533 0.372524
-0.0460901 0.313595 -0.4335 -0.0482721 0.916674 0.39671
-0.00962559 -0.0184301 0.0680784 -0.0313761 0.982828 -0.181835
0.0952124 -0.0156952 0.179519 0.141126 -0.961999 -0.233753
-0.205958 0.243048 -0.34712 0.146624 0.900001 0.410487
0.0688247 -0.0245969 0.202479 0.0675963 -0.979759 -0.188424
0.0225882 -0.0334964 0.019063 -0.523128 0.73195 -0.436562
0.371427 0.094882 0.0805633 0.270633 -0.938983 -0.212294
0.172471 0.0924132 -0.0363009 -0.21902 0.873987 0.433794
-0.0379798 0.148479 -0.180799 -0.0491266 0.85072 0.523318
0.459551 0.236039 -0.211568 0.147238 -0.812918 -0.563459
-0.325553 0.215718 -0.289925 -0.131138 -0.901288 -0.412896
0.0433438 0.0325778 -0.0452817 -0.422766 0.518892 0.74298
-0.258332 0.158372 -0.173173 0.162002 0.88002 0.446453
-0.286127 0.0728973 0.00428976 0.206731 0.917331 0.340244
-0.116637 -0.0287013 0.304898 -0.036843 0.984223 0.173055
-0.144278 -0.0145018 0.227265 -0.0126926 0.986931 0.160643
0.284338 -0.073186 0.575446 -0.0674655 0.917062 0.392995
0.368467 0.148124 -0.0314043 -0.25991 0.914355 0.310487
0.268678 0.106055 -0.0464492 0.285536 -0.879082 -0.381685
0.121342 -0.0436119 0.307133 0.0631654 -0.978133 -0.198154
0.317512 -0.0663102 0.553339 0.277668 -0.906604 -0.317758
-0.330315 0.00401113 0.182933 0.080969 0.976827 0.198122
-0.0449925 0.291522 -0.383669 -0.138701 0.794397 0.591351
0.435892 0.169528 -0.0813748 0.264841 -0.927735 -0.262998
0.362747 0.110678 0.026385 0.285655 -0.911841 -0.294866
-0.349875 0.158334 -0.138321 0.14944 0.856404 0.494207
-0.242035 0.0148847 0.11777 0.114352 0.925195 0.361854
0.271731 -0.0859861 0.598778 -0.0639581 0.916747 0.394314
-0.118497 0.236923 -0.320287 -0.123956 0.838464 0.530672
0.316503 0.0615018 0.129209 0.291437 -0.917231 -0.271571
-0.497221 -0.0314199 0.309929 -0.0602061 -0.984911 -0.162249
-0.00523714 -0.0269979 0.298297 -0.0170608 0.991769 0.126899
-0.00228712 0.240781 -0.333009 0.14164 -0.839353 -0.524809
-0.283613 0.282045 -0.398375 0.108502 0.882735 0.457172
0.277948 0.0147914 0.30915 -0.28222 0.924912 0.254734
-0.0656825 -0.0261497 0.293396 0.0635242 0.992072 0.108436
-0.0333661 0.296005 -0.38829 -0.143702 0.808289 0.57098
0.372955 0.0030835 0.387779 0.294086 -0.904606 -0.308549
-0.106362 0.216528 -0.291527 -0.00366583 0.829964 0.557804
-0.0970068 0.164905 -0.242213 0.0732775 -0.82611 -0.558724
0.330999 0.0310745 0.242161 0.208002 -0.946682 -0.246025
0.318746 0.108254 0.036976 -0.238775 0.93283 0.269842
-0.0179907 0.32011 -0.446389 0.103151 -0.78001 -0.617207
0.288254 0.108318 0.00798217 -0.279791 0.900542 0.332777
-0.451834 -0.00651149 0.199075 -0.212971 -0.923693 -0.318487
0.266102 -0.0748659 0.573462 -0.0605398 0.951483 0.301687
-0.477192 0.000766372 0.198175 -0.215901 -0.894104 -0.392383
0.39951 0.269992 -0.252953 -0.0435665 0.935256 0.351281
-0.255202 0.0396522 0.0315082 -0.170948 -0.893024 -0.416275
0.396096 0.128691 0.0613649 -0.282067 0.92592 0.251218
0.127944 -0.0823491 0.57413 -0.020354 0.940864 0.338172
-0.0227347 0.0306931 -0.0580985 0.092891 0.510589 0.854793
0.502343 0.226415 -0.140268 -0.276263 0.923461 0.266267
0.32178 -0.0223272 0.454589 -0.0551722 0.904221 0.423487
0.525412 0.250973 -0.214637 0.11972 -0.839566 -0.529903
0.117599 -0.0854028 0.572772 -0.0443659 0.93241 0.35867
0.158288 -0.0631705 0.521233 -3.79417e-05 0.988188 0.153244
-0.204374 0.327868 -0.484868 -0.0426852 0.933701 0.355499
-0.168558 0.00303975 0.0865747 -0.051078 -0.939945 -0.337481
-0.342184 0.0944983 -0.01406 0.157538 0.889664 0.428578
-0.199929 -0.0342764 0.264826 -0.049773 -0.97843 -0.200492
0.257299 -0.0298527 0.429865 -0.328547 0.874999 0.355575
0.436244 0.129936 0.0420575 0.327858 -0.894406 -0.304216
-0.0403073 -0.0311434 0.0701668 -0.178726 -0.976532 0.12018
