ply
format ascii 1.0
comment Created by Open3D
element vertex 512
property double x
property double y
property double z
property double nx
property double ny
property double nz
end_header
0.166276 -0.456182 0.135617 0.285922 -0.853969 0.434726
0.0374267 -0.0492363 0.354117 -0.927361 -0.279581 0.248667
-0.160358 0.424366 0.00672263 0.33996 -0.850861 0.400578
-0.183089 0.298998 -0.464747 -0.325691 0.853281 -0.407231
-0.0379852 0.445725 0.11446 0.604715 -0.0517575 -0.794758
-0.0419335 -0.22981 -0.142637 -0.918004 -0.295732 0.264217
-0.0434257 0.140309 -0.245933 0.608174 0.681081 -0.407741
-0.0711508 0.371611 0.201229 0.107609 0.453042 0.884971
0.0974398 -0.0811245 0.0286064 0.870948 0.389175 -0.299986
0.0351758 0.0046273 0.185455 -0.298288 0.852584 -0.429098
-0.0991048 0.241842 0.150297 -0.911052 -0.317608 0.262886
-0.167903 0.512563 -0.0123613 -0.34956 0.851297 -0.391282
0.133788 -0.466334 0.140249 0.333491 -0.853706 0.399962
-0.202698 0.322667 -0.208447 -0.962834 -0.182079 0.199491
0.00257677 0.00584583 0.242019 0.40993 -0.833443 0.370581
-0.128207 -0.0257179 -0.246011 -0.922863 -0.27969 0.264761
-0.131771 0.347968 -0.115135 -0.103422 -0.408796 -0.906747
0.169457 -0.22026 0.160777 0.756466 -0.0120429 -0.653923
-0.128921 0.0128381 -0.374993 -0.0872973 -0.505707 -0.858277
0.14652 -0.440547 0.186454 0.3497 -0.851405 0.390922
0.135308 -0.175749 0.0603862 0.995812 0.0138449 -0.0903754
-0.0959166 -0.082764 -0.183804 -0.944268 -0.242368 0.222746
0.0212125 0.135345 0.0575533 0.693813 -0.663467 0.280064
-0.0187935 -0.0960766 0.059394 -0.39375 0.859275 -0.326508
-0.18743 0.328911 -0.393826 -0.340364 0.851306 -0.399287
-0.0534086 -0.203581 -0.155765 -0.935109 -0.251605 0.249532
-0.148459 0.14962 -0.440421 -0.100969 -0.474485 -0.874454
-0.179861 0.0953705 -0.303015 -0.93708 -0.239782 0.253744
-0.113293 -0.112472 -0.285089 -0.940111 -0.245234 0.236751
-0.21819 0.364183 -0.165112 -0.931265 -0.26562 0.249384
0.0819821 -0.223866 -0.192367 0.916257 0.283154 -0.283369
-0.0873786 0.0239479 -0.101623 -0.32182 0.857586 -0.401221
-0.000985155 -0.318967 -0.08367 -0.911004 -0.289285 0.293915
-0.0894326 0.469394 0.154881 0.137478 0.407788 0.902667
-0.117517 0.431118 0.178063 0.0902361 0.440753 0.893081
0.0527096 -0.166397 0.229496 0.396099 -0.849394 0.348761
0.196379 -0.345478 0.347454 0.332925 -0.846391 0.415672
-0.0272751 0.142422 0.124339 0.407483 -0.861263 0.303617
0.14421 -0.172423 0.173505 0.59568 0.529044 0.604382
-0.0592819 -0.222417 -0.202733 -0.924627 -0.289082 0.247986
0.027939 -0.412012 -0.0813748 -0.899692 -0.334033 0.281026
0.0219698 0.0449759 0.286541 -0.357403 0.85302 -0.380289
-0.168221 0.423159 -0.208316 -0.345442 0.849234 -0.399338
-0.133759 0.231834 -0.269533 0.127162 0.438364 0.889757
0.0507117 -0.505308 -0.104662 -0.950114 -0.224303 0.216731
-0.0500477 0.14634 -0.291633 0.959841 0.234268 -0.15435
0.00129885 -0.217435 0.0280354 -0.900773 -0.32707 0.285717
-0.136717 0.473122 0.0952816 -0.0716806 -0.517777 -0.852507
0.0944822 -0.369787 0.216186 -0.9473 -0.234726 0.218006
0.171043 -0.314566 0.438382 0.308474 -0.853801 0.419367
-0.156728 0.459605 0.105954 -0.128653 -0.446628 -0.885422
-0.0699789 -0.00822665 -0.333074 0.219919 0.148399 0.964164
-0.000247669 0.284924 0.0489148 0.79428 0.497955 -0.348081
0.198894 -0.300215 0.239831 0.15558 0.867798 -0.471933
0.132721 -0.331245 0.39941 -0.924146 -0.279376 0.260582
0.00223278 0.0869324 -0.154823 0.909291 0.307611 -0.280296
-0.219438 0.263766 -0.452577 -0.0979675 0.859871 0.501022
0.136976 -0.549276 -0.0802035 -0.274608 0.946181 -0.171263
-0.137828 0.364264 -0.362792 -0.394088 0.857982 -0.329488
-0.175102 0.339101 -0.0930357 -0.909059 -0.294907 0.29435
-0.0174378 0.0140714 -0.161218 0.416533 -0.832806 0.364603
-0.191725 0.39879 -0.0208936 -0.935156 -0.26095 0.239558
-0.0900404 0.208243 -0.107438 -0.34232 0.846711 -0.407306
-0.131609 0.154586 -0.190772 -0.328085 0.838058 -0.435912
0.143321 -0.314904 0.455222 -0.904036 -0.313958 0.290085
0.0421152 -0.0211927 0.12016 -0.30022 0.857937 -0.416907
0.0174933 -0.0249345 -0.215558 0.902469 0.313618 -0.295286
0.210446 -0.356068 0.314166 0.32017 -0.859982 0.397393
-0.0421479 0.293037 0.195509 0.284233 -0.929475 0.235135
-0.02168 0.0693432 0.0754173 0.0711307 0.465865 0.881992
-0.0270787 0.2251 -0.0872923 0.502743 0.755714 -0.419697
-0.133769 0.323026 -0.0395409 0.109393 0.462312 0.879944
-0.130959 0.156033 -0.447522 -0.0697346 -0.479915 -0.874539
0.0867404 -0.148139 0.394523 0.102453 0.461544 0.881182
0.196473 -0.305986 0.437278 0.335855 -0.847635 0.410752
0.171894 -0.414763 -0.0606425 0.907627 0.317586 -0.274503
0.0556003 -0.247413 0.181226 -0.0455268 -0.469402 -0.88181
-0.194882 0.182001 -0.271463 -0.947225 -0.229014 0.224317
0.118716 -0.349542 0.327714 -0.945006 -0.219131 0.242787
0.0386534 0.0893966 0.273193 -0.121214 -0.427621 -0.895794
-0.16705 0.454809 0.0583574 -0.348386 0.850816 -0.393369
0.0485022 0.0850365 0.0376886 0.830945 0.457739 0.316238
0.131617 -0.306088 -0.0363705 0.656629 0.516015 0.550061
0.0127487 0.0946362 -0.110106 0.932264 0.260406 -0.251141
-0.00609045 0.328011 0.111929 0.398986 0.783585 -0.476239
-0.170464 0.344593 -0.159563 0.372069 -0.85681 0.35699
-0.0990829 0.279471 -0.0864729 -0.12898 -0.445756 -0.885814
-0.246313 0.206482 -0.444935 -0.894971 -0.338731 0.290325
-0.143813 0.323926 -0.221593 0.372861 -0.842625 0.388533
0.153762 -0.44385 -0.150662 0.599074 -0.140676 -0.788239
-0.0346406 -0.214286 -0.0953925 -0.925821 -0.276921 0.257234
0.0599196 -0.257258 0.166538 -0.100483 -0.457972 -0.883269
-0.0519723 0.440522 0.163765 0.0324932 0.477489 0.878036
-0.130619 0.031872 -0.381851 -0.105249 -0.355458 -0.928748
0.18618 -0.32838 0.18469 -0.0189078 0.899964 -0.435554
0.00246068 -0.0393472 0.225387 -0.954007 -0.214469 0.20946
-0.0985574 -0.132063 -0.244897 -0.950266 -0.220088 0.220352
-0.0862992 -0.155204 -0.235793 -0.913284 -0.273637 0.301719
0.0963498 -0.449151 -0.164623 -0.0947614 -0.475618 -0.874533
-0.249262 0.214585 -0.436092 -0.946579 -0.210678 0.244137
0.133141 -0.468617 0.139784 0.328416 -0.852414 0.406857
0.102145 -0.45871 0.141623 -0.954473 -0.210582 0.211275
0.0120364 0.326749 0.135561 0.834954 0.437714 -0.333554
-0.00202259 -0.299336 -0.0735652 -0.941224 -0.224036 0.252794
0.0922162 -0.0585084 0.40098 0.0683079 0.468135 0.881013
-0.0315387 0.0255256 -0.12884 0.292618 -0.835119 0.465781
0.060002 0.0211614 0.200129 -0.373053 0.863468 -0.339492
-0.0832841 0.440686 -0.0758338 0.976995 -0.212537 -0.0175703
-0.0920734 0.104441 0.0259517 -0.941046 -0.241374 0.237006
0.0173553 0.0680686 0.346838 0.179381 0.442458 0.878666
-0.160717 0.493622 0.147596 0.117711 0.441337 0.889588
-0.19893 0.319088 -0.187924 0.325308 -0.846153 0.422137
0.0173733 -0.32457 -0.0244903 -0.930365 -0.26781 0.250399
-0.0965935 0.319305 0.132885 -0.361475 0.850151 -0.382856
-0.000611931 0.0817611 -0.166913 0.924237 0.297605 -0.239201
0.0211904 0.207831 0.0411202 0.90825 0.316685 -0.273482
0.106272 -0.282176 -0.156972 0.940547 0.231918 -0.248164
-0.0827288 0.0481989 -0.0294515 0.332201 -0.84627 0.416497
-0.109386 0.399564 0.191455 0.120132 0.544635 0.830024
0.0121463 0.131487 0.0670189 0.482522 -0.820661 0.306084
0.235438 -0.171726 0.437081 0.90956 0.288497 -0.299115
0.00205614 0.0847675 -0.0311848 0.522783 -0.778986 0.346236
0.0293329 -0.407365 -0.0714721 -0.925637 -0.27028 0.264848
0.0104474 0.0125267 0.263438 -0.36124 0.853669 -0.375172
-0.118466 0.508718 -0.0662262 -0.348654 0.850257 -0.39434
-0.0521849 0.324928 0.222751 0.0979831 0.44526 0.890024
-0.118634 0.369934 -0.313511 0.949607 0.216039 -0.227099
0.0725905 -0.277023 -0.235114 0.582682 -0.132907 -0.801759
-0.0559298 -0.104602 -0.106417 0.138149 0.387535 0.911444
0.23477 -0.34975 0.304682 0.353245 -0.851024 0.388556
0.156565 -0.442291 0.176851 0.312334 -0.837692 0.448018
-0.0821449 0.304214 -0.100246 -0.00686873 -0.461609 -0.887057
0.0901 -0.393018 0.172836 -0.926576 -0.276036 0.255464
-0.146674 0.15208 -0.225253 0.110061 0.448701 0.886879
0.120439 -0.266941 0.229238 0.160824 0.435205 0.885851
0.0885024 0.149308 0.296478 0.0621194 0.480432 0.874829
0.123263 -0.245092 0.44908 -0.0922358 -0.364679 -0.926554
0.0649736 -0.535667 -0.0728564 -0.939805 -0.245967 0.237208
0.161926 -0.411057 -0.0921497 0.94299 0.233928 -0.236744
0.0913166 -0.199966 -0.130004 0.94084 0.245602 -0.233452
0.132398 -0.294164 -0.0497554 0.798136 0.503695 0.330559
-0.123578 0.482683 -0.122724 -0.256882 0.875267 -0.409779
0.0864688 -0.0247367 0.38583 0.136278 0.366117 0.920536
-0.0838083 0.516651 -0.0186685 0.942653 0.232124 -0.239843
0.181593 -0.27587 0.293568 -0.34281 0.84599 -0.40839
-0.100782 0.395129 -0.0819869 0.298482 0.526362 0.796148
-0.147882 0.337874 -0.18699 0.308009 -0.859507 0.407894
-0.0291999 -0.132628 -0.0574771 -0.364724 0.84806 -0.384409
-0.224947 0.327417 -0.358364 -0.319509 0.85004 -0.418743
0.200607 -0.39173 0.0899774 0.639742 0.65279 -0.405704
0.161253 -0.535521 -0.0313079 0.367206 -0.852091 0.372961
-0.00660121 -0.0157044 0.180876 -0.324467 0.851504 -0.411901
0.019477 0.0390216 0.306069 -0.915832 -0.300367 0.266518
-0.238258 0.240952 -0.380495 -0.921434 -0.278127 0.271304
-0.141837 0.549305 0.123077 0.0283482 0.407184 0.912906
0.0948736 -0.061866 0.0431889 0.688363 0.609439 -0.39337
-0.0804713 -0.166616 -0.222378 -0.935773 -0.252481 0.246136
-0.123014 0.32446 -0.243 0.513883 -0.795644 0.320743
-0.0214461 0.0708114 0.0142748 -0.0975717 -0.452427 -0.886448
0.0973812 -0.117433 0.300754 0.35415 -0.851697 0.38625
-0.14921 0.306363 -0.476377 -0.317798 0.846496 -0.42714
0.0152799 -0.0530061 -0.255969 0.913876 0.307242 -0.265393
0.233609 -0.408616 0.176831 0.906019 0.317458 -0.279911
-0.220439 0.259247 -0.290509 0.0974811 0.423683 0.90055
-0.113247 0.465546 0.0559452 0.411362 -0.851294 0.325699
-0.0151058 -0.105561 0.0336881 -0.420506 0.832108 -0.361623
-0.146736 0.250341 -0.0460358 -0.104105 -0.425688 -0.898861
-0.0771619 -0.211368 -0.265856 -0.114273 -0.448721 -0.886336
-0.00384688 0.0789329 -0.0332367 0.389623 -0.84192 0.373317
0.0609009 -0.22772 0.199176 0.106178 0.446787 0.888317
0.0741781 -0.196393 -0.189242 0.928982 0.267451 -0.255858
-0.0799702 0.210025 0.190184 -0.913583 -0.318908 0.252318
-0.211495 0.207528 -0.309881 -0.921386 -0.288367 0.260561
-0.182227 0.349697 -0.0570417 -0.114814 -0.522938 -0.844603
0.1163 -0.441238 -0.172266 -0.119192 -0.429361 -0.895233
0.0104578 0.125021 0.0500369 0.479475 -0.806129 0.346784
0.144257 -0.0773754 0.345259 -0.108091 -0.450725 -0.886094
-0.0477225 0.517009 0.113039 0.903373 0.346281 -0.252995
0.0274623 -0.0221625 0.335509 -0.94152 -0.249149 0.226857
-0.0135708 0.153212 0.30452 0.0995966 0.444966 0.889992
0.149471 -0.23267 0.151563 0.279519 -0.331563 -0.901074
-0.0511929 -0.272475 -0.224109 -0.935627 -0.264598 0.233646
0.256449 -0.256726 0.482869 0.134275 0.430034 0.892772
0.134779 -0.246338 0.431541 -0.932367 -0.263283 0.247737
0.0659189 -0.337831 -0.00461273 0.0821172 0.50873 0.857001
-0.130797 0.256083 -0.0225221 -0.890723 -0.350291 0.289669
0.0970467 -0.3532 0.242218 -0.936727 -0.247644 0.247418
0.197427 -0.445158 0.136644 0.342843 -0.842403 0.415711
0.190698 -0.344072 0.155904 0.242359 0.853753 -0.460835
0.0108407 0.0510299 0.293601 -0.0596256 -0.502835 -0.862323
-0.206283 0.168848 -0.332604 -0.955301 -0.209665 0.208426
0.0479679 -0.00776865 0.338228 -0.400344 0.750831 -0.525336
-0.0360444 0.0309023 0.0848657 -0.969825 -0.207971 0.127228
0.184189 -0.412392 -0.0045588 0.894884 0.424888 0.136576
0.058408 0.127843 0.249822 -0.0289282 -0.502775 -0.863933
0.0426416 -0.0714308 -0.177082 0.95178 0.239551 -0.191654
0.042393 -0.377272 0.0107162 -0.110068 -0.470774 -0.875361
-0.223941 0.390983 -0.230684 -0.335096 0.855696 -0.394328
0.0186241 -0.0216377 -0.212049 0.936741 0.249605 -0.245384
-0.0779056 0.110862 -0.408989 0.555129 -0.121457 -0.822849
-0.0775163 0.0716143 0.0288652 0.0446581 0.440823 0.896483
0.164093 -0.406578 -0.08589 0.913886 0.298418 -0.275244
0.0645738 0.00334767 0.0969665 0.434455 0.437291 0.787417
-0.19651 0.220414 -0.273309 0.116478 0.451352 0.884711
-0.109311 0.367304 -0.275036 0.928529 0.275293 -0.249094
0.11246 -0.19953 0.197019 0.108796 0.440664 0.891055
0.1168 -0.14781 0.0217027 0.932324 0.265146 -0.245904
-0.100714 0.0323993 -0.0886211 0.365486 -0.8507 0.377796
-0.0488103 -0.172421 -0.105712 -0.934476 -0.258885 0.244403
-0.205503 0.372721 -0.281293 -0.350935 0.850963 -0.390777
-0.178161 0.390699 -0.265318 -0.351678 0.850487 -0.391145
0.0572905 -0.114298 -0.170507 0.923272 0.283652 -0.259058
-0.0450101 0.357907 0.206798 0.110236 0.371227 0.921975
-0.0822981 0.222435 -0.088665 -0.244758 0.861554 -0.444767
0.172115 -0.357276 0.124303 -0.161578 0.884599 -0.437466
0.233591 -0.276385 0.465814 0.437289 -0.830782 0.344353
-0.246494 0.337611 -0.300843 -0.945154 -0.22781 0.234065
-0.166015 0.120713 -0.229772 -0.940131 -0.242434 0.239539
0.199732 -0.531417 -0.057704 0.307 -0.836728 0.453472
0.110645 -0.00566882 0.158344 0.670565 0.638942 -0.376955
-0.021261 0.190074 -0.132929 0.861025 0.395731 -0.319427
-0.031608 0.380287 0.134686 0.22689 -0.347108 -0.909965
-0.0468996 0.000406483 -0.161503 0.1044 0.428405 0.897536
0.0821211 -0.0952594 -0.0323831 0.549384 0.709017 -0.442121
0.0238989 -0.026067 -0.184938 0.896917 0.43199 0.0944649
0.247637 -0.279769 0.363173 0.9294 0.273225 -0.248119
-0.113761 0.506239 -0.0746576 -0.337778 0.853788 -0.396172
-0.000178524 -0.024665 0.175689 0.387066 -0.848005 0.362033
0.114785 -0.404064 -0.186186 0.581454 -0.141001 -0.801267
0.0681728 -0.247966 0.0416268 0.346985 -0.850676 0.394907
-0.108472 0.472343 -0.151423 -0.342583 0.848968 -0.402356
0.0527791 0.265269 0.228791 0.932187 0.263597 -0.24808
0.0997499 -0.228262 -0.125023 0.920157 0.277493 -0.276242
-0.060009 0.109643 0.081029 0.335122 -0.83855 0.429567
0.118111 -0.148883 0.210653 0.398435 -0.852248 0.339002
-0.114521 0.300506 0.125011 0.373063 -0.850643 0.370446
0.206521 -0.463128 0.00891895 0.925988 0.28273 -0.250219
-0.00992697 0.0851457 -0.205104 0.938733 0.247104 -0.240251
-0.20314 0.409143 -0.202509 -0.322869 0.857034 -0.401558
-0.0665213 0.073577 0.016681 -0.106181 -0.504576 -0.856813
0.0387785 -0.182276 0.207483 0.346269 -0.850827 0.395211
-0.0472605 0.344401 0.142335 -0.342314 0.847184 -0.406326
-0.155858 0.174663 -0.239092 0.139541 0.455529 0.879216
0.152118 -0.172071 0.159916 0.761894 0.502472 0.408705
0.0553757 -0.296661 -0.0229958 0.0538202 0.421185 0.905377
0.0936264 -0.148506 0.446284 -0.93685 -0.255487 0.238828
-0.0914918 0.452764 -0.1128 0.947822 0.245596 -0.203263
0.11187 -0.561059 -0.0397535 0.395903 -0.847467 0.35364
-0.104439 0.297819 0.132079 -0.374654 0.866407 -0.330112
-0.069042 0.119731 -0.384584 0.927461 0.271735 -0.25686
-0.0944949 0.571589 0.103522 0.122822 0.352609 0.927676
-0.0948273 0.442518 -0.140345 0.920191 0.292414 -0.260273
-0.129131 0.577765 0.0956861 -0.349689 0.851319 -0.391118
0.0058666 0.0513645 -0.110764 0.769386 -0.59407 0.234789
0.24865 -0.206899 0.448079 0.918675 0.304222 -0.251963
-0.136354 -0.0202938 -0.2745 -0.96906 -0.16213 0.186109
0.182669 -0.330129 0.393233 0.292336 -0.844152 0.449385
0.135737 -0.00465444 0.323678 0.317467 -0.498282 0.806803
-0.20178 0.437777 -0.024877 -0.952423 -0.247605 0.177713
-0.115849 0.000969464 -0.175077 -0.91157 -0.301939 0.279058
0.0380121 -0.444505 -0.0819669 -0.908593 -0.334767 0.24978
0.118812 -0.25873 -0.0764148 0.884452 0.415969 0.211457
-0.138433 0.0617885 -0.189001 -0.930517 -0.267781 0.249862
-0.163277 0.0129447 -0.369778 -0.163795 -0.366989 -0.915691
0.0728442 0.00161552 0.334429 -0.323648 0.380461 -0.866315
0.0547822 -0.103273 -0.148366 0.861422 0.486653 0.145331
-0.0319009 0.125937 -0.237615 0.927772 0.272384 -0.255042
0.0871445 -0.147068 0.39623 0.0696683 0.47384 0.877851
-0.0513506 -0.213924 -0.161267 -0.921251 -0.279466 0.270545
0.0731753 0.126767 0.308566 0.107953 0.449905 0.886528
-0.117824 0.359885 -0.126225 -0.0940315 -0.459832 -0.883014
0.219323 -0.360506 0.175217 0.910539 0.324418 -0.256265
0.0993431 0.0323082 0.206131 0.217749 0.865479 -0.451144
0.140272 -0.000640584 0.268865 0.954862 0.238291 -0.177361
-0.071728 0.371273 -0.109498 0.841577 0.0357167 -0.538956
0.199626 -0.35345 0.331097 0.358196 -0.861022 0.361022
0.0312334 -0.303716 -0.229813 -0.104566 -0.455769 -0.883935
0.135248 -0.18528 0.0639033 0.990398 -0.120064 -0.0685333
0.0211099 0.146658 0.0847572 0.674251 -0.698855 0.238721
0.0521934 -0.283254 -0.0204384 0.300531 -0.845248 0.441857
-0.181144 0.418061 0.00996911 0.390815 -0.849981 0.353264
-0.147715 0.574796 0.107113 0.144056 0.413151 0.899196
0.171619 -0.295873 0.178995 0.146002 -0.336755 -0.930204
0.231822 -0.411205 0.161837 0.964095 0.156639 -0.21444
-0.127027 0.259537 0.0303328 -0.29451 0.854707 -0.427481
-0.0979246 0.288741 0.20484 -0.933786 -0.256459 0.249546
0.0519004 -0.153772 0.262124 0.370237 -0.851987 0.370192
0.0500655 0.163616 0.294606 0.130699 0.446772 0.885049
0.0748239 -0.0886646 -0.0261216 0.349766 0.834712 -0.425346
-0.134623 0.240497 -0.047287 -0.93132 -0.265278 0.249542
0.0335299 -0.337779 -0.00616631 -0.108016 -0.453242 -0.884819
0.0232394 -0.0831226 -0.131077 0.330341 0.440171 0.834939
-0.00476847 -0.111027 0.127686 -0.910065 -0.329623 0.251257
-0.0146952 0.00900355 0.0410296 -0.108201 -0.448487 -0.887216
0.0471729 -0.394936 -0.18513 -0.0788437 -0.488418 -0.869041
-0.149562 0.302876 -0.0891744 -0.113072 -0.460407 -0.880477
0.133707 -0.331357 -0.105404 0.909654 0.308856 -0.277738
-0.0794985 0.560569 0.0463192 0.922053 0.281728 -0.265418
-0.0263079 -0.195582 -0.048066 -0.936414 -0.25821 0.237605
0.0712387 -0.561159 -0.0667846 0.337945 -0.142116 0.930374
0.14464 -0.274914 0.168843 -0.118327 -0.42686 -0.896543
0.0968068 -0.349214 0.20961 -0.400783 0.836031 -0.374733
0.1094 -0.21858 0.419182 -0.108628 -0.406205 -0.907302
-0.0844229 0.476742 0.148954 0.104898 0.462692 0.880291
-0.0447309 0.290842 0.0309306 -0.189105 0.868843 -0.457549
0.0790178 -0.257924 0.0107941 0.311546 -0.847042 0.430649
0.236744 -0.363659 0.241775 0.943487 0.244136 -0.224121
-0.0718258 0.412402 0.121424 -0.116442 -0.439891 -0.89047
-0.0308511 -0.230786 -0.100899 -0.910037 -0.296821 0.28936
0.0904131 -0.343087 -0.214562 0.550946 -0.0475722 -0.833184
0.178311 -0.362172 0.116252 -0.0258944 0.898166 -0.438894
0.0469733 0.28062 0.215076 0.942819 0.244365 -0.226666
-0.241562 0.357033 -0.263027 -0.925504 -0.270348 0.265244
-0.125245 0.225371 0.000622531 -0.350348 0.850986 -0.391255
0.163073 -0.527982 -0.131771 0.581893 -0.131065 -0.802634
0.115585 -0.400817 0.261159 -0.922518 -0.282953 0.262485
0.0600522 -0.0923092 0.380531 -0.105617 -0.421557 -0.90063
0.091923 -0.193531 -0.124443 0.933731 0.257127 -0.249062
0.0867989 -0.367913 0.181379 -0.419962 0.84521 -0.330532
-0.109888 -0.091026 -0.252166 -0.955866 -0.183711 0.229284
-0.125804 0.354126 -0.341229 0.936963 0.262244 -0.230929
0.182763 -0.490335 -0.100499 0.917931 0.335649 -0.211523
-0.0644275 0.277405 0.0173076 -0.343594 0.842543 -0.414807
-0.153613 0.392454 -0.291513 -0.331452 0.845408 -0.418837
0.0509994 -0.206832 0.190063 0.13698 0.433299 0.890779
0.00637069 -0.093619 0.000408208 -0.372445 0.849912 -0.372739
-0.0939056 -0.168694 -0.267309 -0.942278 -0.2432 0.230144
0.00517872 0.0731848 0.344714 0.0528146 0.491289 0.869394
0.218982 -0.222951 0.391488 0.115977 0.874733 -0.470522
0.0697856 -0.0416413 0.0611261 0.0455142 0.870321 -0.490377
-0.0907831 0.444982 0.106473 -0.119146 -0.451967 -0.884042
-0.10456 0.267892 -0.355415 0.905116 0.320412 -0.279468
0.0347881 -0.0219111 0.367268 -0.912557 -0.331387 0.239631
0.0560947 -0.126288 0.297691 -0.359556 0.858041 -0.366722
-0.0146919 -0.211738 -0.0268804 -0.946963 -0.214154 0.239583
0.00465642 0.0126737 0.228373 -0.352735 0.85118 -0.388678
-0.0530747 -0.245036 -0.207149 -0.952179 -0.244666 0.183014
-0.17785 0.306759 -0.0807073 -0.909722 -0.299452 0.287636
-0.169064 0.279434 -0.46797 0.00873421 0.668646 0.743529
-0.0789215 0.487783 0.0630887 0.722844 -0.66656 0.18219
0.134784 -0.153187 0.0808718 0.918851 0.293776 -0.263456
0.143799 -0.258915 0.223026 0.100576 0.497091 0.86185
0.00608416 -0.404546 -0.176195 -0.10892 -0.484037 -0.868242
0.254088 -0.243359 0.432745 0.948157 0.203916 -0.243756
0.0958879 0.0360912 0.220421 0.273332 0.842759 -0.463732
0.0883881 0.149263 0.296686 0.105279 0.459524 0.881904
0.219863 -0.141685 0.404582 0.898622 0.247609 -0.362172
-0.0955428 0.155774 -0.218572 -0.32444 0.853114 -0.408577
-0.198688 0.112264 -0.36866 -0.946017 -0.226381 0.231955
-0.0840769 0.444586 -0.092078 0.988369 0.048913 -0.143997
0.0644874 0.228357 0.231882 0.894902 0.120249 -0.429757
-0.111025 0.306549 0.124353 -0.346778 0.850658 -0.395126
0.0274144 -0.459149 -0.15233 -0.100834 -0.464512 -0.879808
0.0562988 0.144575 0.241699 0.119468 -0.495285 -0.860477
0.119459 -0.166246 0.000596757 0.921104 0.28256 -0.26782
-0.182308 0.362607 -0.32081 -0.306593 0.859722 -0.408508
-0.135973 -0.0697631 -0.318124 -0.941392 -0.231297 0.245525
0.200435 -0.419074 0.0449566 0.77105 0.539292 -0.338594
-0.12422 0.0833184 -0.411864 -0.0938475 -0.453844 -0.886125
0.0810204 -0.568182 -0.0470036 -0.892844 -0.324825 0.311958
0.0890484 -0.404556 0.154654 -0.918082 -0.292694 0.267313
-0.0352104 -0.236539 -0.128941 -0.903236 -0.312463 0.294163
0.0103507 0.0935025 -0.0264294 0.693198 -0.670947 0.263261
0.0392885 -0.109679 -0.0677894 -0.341443 0.85174 -0.397435
-0.215272 0.358099 -0.158998 -0.946854 -0.233776 0.220946
-0.120556 -0.0034193 -0.194591 -0.915458 -0.309135 0.257627
0.000925283 -0.049636 0.204004 -0.911979 -0.327721 0.246766
-0.0205896 -0.285129 -0.119756 -0.956233 -0.211423 0.202283
0.155891 -0.085243 0.294279 0.862072 -0.49172 0.122649
0.0310827 0.0543019 0.29159 -0.100548 -0.425196 -0.899499
0.125475 -0.241369 0.457895 -0.942875 -0.244715 0.226057
0.0229687 0.269695 0.121657 0.908418 0.302504 -0.288562
0.155368 -0.474809 -0.141987 0.581784 -0.130057 -0.802877
-0.174538 0.559739 0.091362 -0.345665 0.848552 -0.400595
0.0764412 -0.252842 -0.239326 0.563331 -0.0697365 -0.823283
0.0846116 -0.280539 -0.0347892 0.117754 0.434264 0.893056
0.150803 -0.569269 -0.0940195 0.411189 -0.828789 0.379517
-0.055699 0.184626 0.224965 -0.326645 0.849853 -0.413584
-0.208344 0.511227 0.0264343 -0.916073 -0.291833 0.275036
0.0648463 -0.0520373 0.0406656 -0.111676 0.891608 -0.43882
0.117471 -0.301432 0.186489 -0.0605632 -0.452897 -0.889503
-0.215602 0.376799 -0.265929 -0.321315 0.838232 -0.440594
-0.0711979 -0.0594789 -0.127403 0.103951 0.469646 0.876714
-0.010263 0.262787 0.249205 0.0552077 0.431306 0.900515
0.228362 -0.328681 0.357067 0.372697 -0.855774 0.358814
-0.0960672 -0.0772856 -0.183851 -0.917986 -0.291528 0.268913
-0.125903 0.47219 -0.137097 -0.396333 0.873538 -0.282581
0.0156295 -0.05687 0.0684024 -0.355041 0.850903 -0.387182
-0.131061 0.305166 -0.276823 0.47994 -0.814867 0.325036
0.0401061 0.0224527 0.218461 -0.443908 0.831534 -0.333912
-0.171692 0.123536 -0.24425 -0.903071 -0.331215 0.273423
-0.0693337 -0.177707 -0.18775 -0.93627 -0.252321 0.244403
-0.132585 0.403814 0.140436 0.113462 0.435082 0.893213
-0.0953576 -0.0179983 -0.145808 0.082929 0.460832 0.883604
0.123068 -0.242769 0.438356 0.261198 -0.841118 0.473599
0.117446 -0.499861 -0.140733 -0.110851 -0.476595 -0.872106
-0.217639 0.265871 -0.491025 -0.105976 -0.449661 -0.88689
0.00434164 0.0142136 0.2738 -0.34451 0.838551 -0.422072
0.0200334 0.0918662 -0.0678089 0.962759 -0.269457 -0.0220949
-0.136364 0.2214 -0.263313 0.0972868 0.452893 0.886241
-0.1038 0.481849 0.0835129 0.367849 -0.860884 0.35152
0.184666 -0.431832 0.174114 0.401219 -0.846351 0.350304
0.00770444 -0.392164 -0.129867 -0.915061 -0.288771 0.281558
-0.120318 0.464082 0.0580805 0.334349 -0.842068 0.42324
-0.060196 0.111242 0.0874407 0.324359 -0.847784 0.419588
-0.0493832 0.191358 -0.164512 0.204292 0.861909 -0.464088
0.0584657 -0.228937 0.168193 -0.923209 -0.272487 0.270991
-0.0386111 -0.00114894 0.111338 -0.939281 -0.218121 0.264904
0.232038 -0.386331 0.194256 0.930842 0.266762 -0.249742
-0.106456 0.477816 0.152304 0.0949919 0.449788 0.88807
0.0481243 -0.314256 -0.227369 -0.0751762 -0.445106 -0.892317
0.0285545 0.0273872 0.236136 -0.371439 0.851709 -0.369628
-0.117739 0.424242 0.119076 -0.0926278 -0.418532 -0.903466
-0.196529 0.403817 -0.223722 -0.345425 0.851854 -0.393733
-0.0146653 0.100691 0.317093 -0.929925 -0.268715 0.251062
0.00904018 0.194023 0.281632 0.102713 0.434039 0.89502
-0.000749106 -0.327705 -0.0970921 -0.935786 -0.248572 0.250034
0.133922 -0.389416 0.315444 0.375637 -0.849239 0.371065
-0.221373 0.292249 -0.438593 -0.385306 0.84506 -0.370693
0.010882 -0.0274928 0.139865 -0.392162 0.847771 -0.357061
0.217176 -0.380349 0.144849 0.928508 0.271526 -0.253273
0.13792 -0.509552 0.0463395 0.337235 -0.847786 0.409307
0.225298 -0.377104 0.252228 0.370795 -0.854122 0.364674
0.164518 -0.404311 -0.0754107 0.91097 0.306469 -0.276062
-0.19622 0.196827 -0.459107 -0.090563 -0.465568 -0.880366
0.0771899 0.107931 0.317868 0.11715 0.445946 0.88736
0.0154242 -0.0839968 -0.284406 0.945925 0.233596 -0.225077
0.193439 -0.251996 0.487655 0.0843479 0.470407 0.878409
-0.157997 0.51169 -0.0219726 -0.301125 0.835769 -0.459146
0.13214 -0.533714 -0.128194 -0.0866302 -0.464729 -0.881205
0.231709 -0.169548 0.426044 0.90812 0.318068 -0.272306
-0.0842221 0.0895593 0.0182856 0.345993 -0.847144 0.403281
0.152932 -0.55764 -0.0703996 0.246692 -0.855961 0.454394
0.0862 -0.267678 -0.2195 0.92275 0.28359 -0.260976
0.0229674 -0.0598432 0.0539446 -0.317207 0.857247 -0.405596
-0.046048 -0.151601 -0.0918104 -0.121433 -0.422888 -0.898009
-0.064346 0.0697289 0.0287345 0.106471 0.445555 0.888901
-0.145003 0.145117 -0.12959 -0.930081 -0.26784 0.251417
0.0289402 0.143326 0.0485736 0.900548 -0.424663 0.0931375
0.0495942 -0.445039 -0.161178 -0.137439 -0.433991 -0.890372
-0.110812 0.346272 0.158784 -0.108683 -0.454306 -0.884191
0.130378 -0.404211 0.0628419 -0.358099 0.85943 -0.364889
0.178912 -0.548996 -0.0792748 0.331081 -0.845901 0.418136
0.105855 -0.357501 0.00298677 0.120652 0.416077 0.90129
-0.0781368 0.198102 -0.33771 0.934562 0.259286 -0.243647
-0.093074 0.107889 0.0244589 -0.934687 -0.24778 0.254883
-0.0630505 -0.133973 -0.118232 -0.921773 -0.300029 0.245594
0.159025 -0.371246 -0.0599133 0.924769 0.277052 -0.260853
0.162127 -0.373621 -0.0511375 0.94043 0.24296 -0.237828
-0.0356355 0.122948 0.0917215 0.34432 -0.850919 0.396712
0.220259 -0.167198 0.402132 0.756642 0.009677 -0.653757
0.0795216 -0.486824 0.032136 -0.923748 -0.281901 0.259272
-0.213991 0.482342 -0.0186071 -0.943321 -0.24241 0.226676
0.0120627 0.0728279 -0.129521 0.992935 -0.00628218 -0.118495
-0.0228001 0.263153 -0.0555234 0.841729 0.120513 -0.526278
-0.0690261 0.509954 0.0227478 0.951488 0.176503 -0.252028
0.122521 -0.310787 -0.0238283 0.360823 0.501528 0.786305
0.17532 -0.297963 0.247444 -0.420217 0.830666 -0.365257
-0.179751 0.404783 -0.0178311 0.355567 -0.851422 0.385556
-0.131371 0.200094 -0.019368 -0.924352 -0.284191 0.254576
0.221654 -0.150875 0.408451 0.891911 0.196164 -0.407448
0.106217 -0.304373 -0.178492 0.921981 0.287671 -0.259222
0.0980895 -0.247372 0.0152457 0.355782 -0.850973 0.386347
-0.182744 0.465054 0.0707988 -0.919999 -0.290916 0.262622
-0.0327418 -0.169991 -0.0944799 0.112616 0.491247 0.86371
-0.0685149 0.0956879 0.0570381 -0.107002 -0.44984 -0.886676
-0.00653539 0.130624 -0.141734 0.938757 0.256809 -0.229749
-0.033967 -0.15389 -0.056056 -0.352756 0.851115 -0.388801
-0.149494 0.262355 -0.07117 -0.10588 -0.454169 -0.884601
0.0684682 -0.302509 -0.235883 0.577128 -0.118787 -0.807968
0.100743 -0.186209 0.404164 -0.0804461 -0.473883 -0.876906
-0.0455926 0.151383 -0.231383 0.569885 0.702901 -0.425631
0.0140321 0.0174846 0.330217 -0.916344 -0.290645 0.27539
-0.117812 0.071099 -0.107643 -0.941967 -0.244104 0.23046
0.103455 -0.586928 -0.0897922 0.310208 -0.863425 0.397829
-0.0468447 0.183886 0.241289 0.10681 0.444339 0.889469
0.202629 -0.475662 0.0599786 0.303067 -0.848715 0.433398
0.0945113 -0.406812 0.132186 -0.324035 0.8479 -0.419604
-0.0618927 -0.0768453 -0.119193 0.0688363 0.457293 0.886648
-0.0387157 -0.29032 -0.196714 -0.944553 -0.241256 0.222746
-0.245842 0.347129 -0.287739 -0.936013 -0.259224 0.238082
-0.155161 0.0325906 -0.288224 -0.920389 -0.29032 0.261913
0.182552 -0.242339 0.173047 0.782675 0.0252838 -0.621917
0.138453 -0.368616 -0.142698 0.929595 0.272059 -0.248671
-0.0461636 0.12596 -0.291001 0.928103 0.275656 -0.250277
-0.0911574 0.514864 -0.0561116 0.948247 0.255804 -0.188127
-0.0215059 0.146314 0.130764 0.296757 -0.846824 0.44139
0.10697 -0.443831 0.180419 -0.938779 -0.24863 0.238488
-0.0938742 0.131992 0.0433897 -0.956805 -0.228842 0.179317
-0.0716884 0.303867 -0.0977961 0.248025 -0.374559 -0.893414
0.123662 -0.187876 0.128533 0.0446453 -0.407226 -0.912236
-0.133993 0.350248 -0.0553328 0.114737 0.473709 0.873175
0.0469071 0.0911471 0.0248034 0.926252 0.370074 0.0714276
-0.155365 0.436716 0.0312015 0.304289 -0.856699 0.416504
-0.086834 0.230575 -0.324454 0.925026 0.290652 -0.244637
0.00837594 0.145797 -0.0730412 0.899374 0.346438 -0.266659
0.103043 -0.249277 -0.137609 0.959567 0.212919 -0.18411
-0.122728 0.248501 0.065982 -0.916079 -0.294904 0.27172
-0.113541 0.234768 -0.275891 0.136275 0.453385 0.880836
0.112082 -0.197065 0.468287 -0.916006 -0.314499 0.249045
-0.186661 0.491044 -0.0478812 -0.349223 0.851029 -0.392163
0.222299 -0.412913 0.126176 0.964713 0.216475 -0.149892
-0.120922 0.348819 0.165773 0.112555 0.454611 0.88355
0.165904 -0.0521808 0.320287 0.990658 -0.0445861 -0.128877
0.023521 0.285645 0.134914 0.913929 0.274617 -0.298863
-0.0752162 0.475042 -0.0202864 0.994648 -0.0659504 -0.0795357
-0.0253642 0.0350905 -0.314925 0.936007 0.249802 -0.24797
0.0921413 -0.0140474 0.378405 0.0944862 0.458579 0.883616
-0.110185 0.385616 -0.255686 0.922559 0.289155 -0.255487
0.108667 -0.444391 0.190176 -0.934567 -0.252013 0.251144
-0.0303386 0.473674 0.137314 0.918478 0.281012 -0.278265
-0.221827 0.284517 -0.453449 -0.381212 0.84213 -0.381439
