ply
format ascii 1.0
comment Created by Open3D
element vertex 512
property double x
property double y
property double z
property double nx
property double ny
property double nz
end_header
-0.589192 0.193395 0.0293721 0.146612 0.582176 -0.799735
-0.075273 -0.20616 -0.167274 0.146612 0.582176 -0.799735
-0.066249 -0.48218 -0.359755 -0.146612 -0.582176 0.799735
0.113231 0.243174 0.194381 0.146612 0.582176 -0.799735
-0.186194 -0.0438211 -0.069432 0.146612 0.582176 -0.799735
-0.449001 0.194054 0.0555521 0.146612 0.582176 -0.799735
0.426861 -0.0704348 0.0235832 0.146612 0.582176 -0.799735
-0.357335 -0.00372667 -0.0648238 -0.146612 -0.582176 0.799735
-0.145883 0.262092 0.160651 0.146612 0.582176 -0.799735
0.22911 0.301584 0.264941 -0.146612 -0.582176 0.799735
0.567216 -0.0331053 0.0832839 -0.146612 -0.582176 0.799735
-0.175073 0.0184924 -0.0152359 -0.146612 -0.582176 0.799735
0.210142 0.184813 0.176459 -0.146612 -0.582176 0.799735
0.119406 -0.206101 -0.131541 0.146612 0.582176 -0.799735
-0.453357 0.131649 0.0093252 0.146612 0.582176 -0.799735
0.0750852 0.131133 0.105827 0.146612 0.582176 -0.799735
-0.251599 -0.0557149 -0.083285 -0.146612 -0.582176 0.799735
0.0488107 -0.0213116 -0.00316789 -0.146612 -0.582176 0.799735
0.418029 -0.122619 -0.0092283 -0.146612 -0.582176 0.799735
0.180051 -0.00764792 0.0240427 0.146612 0.582176 -0.799735
-0.249083 -0.0600297 -0.0859649 -0.146612 -0.582176 0.799735
-0.463442 0.0401334 -0.0591434 0.146612 0.582176 -0.799735
-0.0706044 -0.242474 -0.192853 0.146612 0.582176 -0.799735
0.020396 -0.424535 -0.301908 -0.146612 -0.582176 0.799735
0.160033 -0.299576 -0.185344 -0.146612 -0.582176 0.799735
-0.139255 0.105858 0.0481334 0.146612 0.582176 -0.799735
0.09268 0.162329 0.131762 0.146612 0.582176 -0.799735
0.0167919 0.236407 0.178572 -0.146612 -0.582176 0.799735
0.475426 -0.062247 0.0384468 0.146612 0.582176 -0.799735
-0.0801912 0.333244 0.22449 0.146612 0.582176 -0.799735
0.133914 -0.283078 -0.184918 0.146612 0.582176 -0.799735
-0.162573 -0.298922 -0.24401 -0.146612 -0.582176 0.799735
0.319745 0.0959434 0.125063 0.146612 0.582176 -0.799735
0.338489 0.0424938 0.0963854 -0.146612 -0.582176 0.799735
0.117726 -0.234248 -0.152339 0.146612 0.582176 -0.799735
0.413869 -0.239997 -0.102233 0.146612 0.582176 -0.799735
-0.202376 -0.2409 -0.215864 0.146612 0.582176 -0.799735
0.181821 0.332433 0.278728 -0.146612 -0.582176 0.799735
-0.0367182 0.10601 0.0670418 0.146612 0.582176 -0.799735
0.173955 -0.0360709 0.00903015 -0.146612 -0.582176 0.799735
-0.13695 -0.202756 -0.176103 0.146612 0.582176 -0.799735
0.0673952 -0.447342 -0.309894 -0.146612 -0.582176 0.799735
-0.305164 0.131226 0.0429807 -0.146612 -0.582176 0.799735
0.0246769 0.165373 0.121511 0.146612 0.582176 -0.799735
0.0451061 -0.298822 -0.21266 0.146612 0.582176 -0.799735
-0.244793 0.0532126 -0.00274244 -0.146612 -0.582176 0.799735
0.335428 -0.0808396 -0.000753292 0.146612 0.582176 -0.799735
0.503563 -0.182919 -0.037444 -0.146612 -0.582176 0.799735
-0.00115532 -0.0411176 -0.0267459 -0.146612 -0.582176 0.799735
0.0585642 0.303083 0.227971 0.146612 0.582176 -0.799735
0.0735409 0.443867 0.333201 0.146612 0.582176 -0.799735
0.374878 -0.117284 -0.0132555 -0.146612 -0.582176 0.799735
0.386809 -0.0124382 0.0652554 -0.146612 -0.582176 0.799735
-0.158491 0.219618 0.12742 0.146612 0.582176 -0.799735
0.119499 -0.0127297 0.0160385 -0.146612 -0.582176 0.799735
0.168561 0.108982 0.113634 -0.146612 -0.582176 0.799735
-0.174861 0.0766344 0.0271282 -0.146612 -0.582176 0.799735
-0.36229 0.130909 0.0322771 -0.146612 -0.582176 0.799735
-0.0654172 -0.271385 -0.206153 -0.146612 -0.582176 0.799735
-0.182604 -0.284336 -0.237064 -0.146612 -0.582176 0.799735
0.532231 -0.00362237 0.091537 0.146612 0.582175 -0.799735
-0.0678286 -0.072798 -0.0688267 0.146612 0.582176 -0.799735
0.105841 0.291659 0.228321 0.146612 0.582176 -0.799735
0.0873579 0.180324 0.150682 -0.146612 -0.582176 0.799735
0.473719 -0.0967302 0.0198271 -0.146612 -0.582176 0.799735
-0.00414321 -0.133723 -0.101502 0.146612 0.582176 -0.799735
0.124586 -0.191321 -0.119832 0.146612 0.582176 -0.799735
-0.0303767 -0.071537 -0.0610428 0.146612 0.582176 -0.799735
-0.0688208 -0.499842 -0.379879 0.146612 0.582176 -0.799735
0.140352 0.194475 0.163902 0.146612 0.582175 -0.799735
0.0497998 -0.34468 -0.245181 0.146612 0.582176 -0.799735
-0.00553376 -0.161635 -0.122077 0.146612 0.582176 -0.799735
0.159012 -0.376876 -0.248597 0.146612 0.582176 -0.799735
0.0623049 -0.0514615 -0.022642 -0.146612 -0.582176 0.799735
0.178121 -0.194851 -0.112588 0.146612 0.582176 -0.799735
0.437219 -0.126461 -0.0153026 0.146612 0.582176 -0.799735
0.367218 0.0383917 0.0918704 0.146612 0.582176 -0.799735
0.00442269 0.451874 0.333155 -0.146612 -0.582176 0.799735
-0.422873 0.240248 0.0939696 0.146612 0.582176 -0.799735
0.348775 -0.166928 -0.05418 -0.146612 -0.582176 0.799735
0.102981 -0.0751146 -0.0391993 0.146612 0.582176 -0.799735
-0.1925 0.088121 0.0254606 0.146612 0.582176 -0.799735
-0.119761 0.0152285 -0.00747167 -0.146612 -0.582176 0.799735
-0.182947 -0.036295 -0.0633582 0.146612 0.582176 -0.799735
0.0016401 0.0892247 0.0618549 0.146612 0.582176 -0.799735
0.245413 0.0136735 0.0515465 0.146612 0.582176 -0.799735
-0.244891 -0.130387 -0.143209 0.146612 0.582176 -0.799735
0.147733 0.283985 0.230415 0.146612 0.582176 -0.799735
0.462377 -0.243667 -0.0960119 0.146612 0.582176 -0.799735
-0.00155479 -0.152934 -0.115012 0.146612 0.582176 -0.799735
-0.364562 -0.0762702 -0.125753 0.146612 0.582176 -0.799735
0.049533 -0.388168 -0.276888 0.146612 0.582176 -0.799735
0.167519 0.162441 0.145563 0.146612 0.582176 -0.799735
0.0575275 -0.0265574 -0.00538859 -0.146612 -0.582176 0.799735
-0.534755 0.0488215 -0.0658923 0.146612 0.582176 -0.799735
0.478661 -0.00945409 0.0842666 -0.146612 -0.582176 0.799735
-0.0233712 -0.127721 -0.100658 0.146612 0.582176 -0.799735
-0.439209 0.251091 0.105663 -0.146612 -0.582176 0.799735
0.116703 0.465869 0.357131 0.146612 0.582176 -0.799735
-0.420366 0.00626743 -0.0758993 0.146612 0.582176 -0.799735
-0.000643123 -0.327982 -0.242273 0.146612 0.582176 -0.799735
0.102344 0.146944 0.129129 -0.146612 -0.582176 0.799735
-0.223081 0.246101 0.141653 -0.146612 -0.582176 0.799735
0.101261 0.233611 0.185225 0.146612 0.582176 -0.799735
0.146871 0.169455 0.146884 0.146612 0.582176 -0.799735
0.120402 0.229915 0.19284 -0.146612 -0.582176 0.799735
0.093683 -0.0723466 -0.0320931 -0.146612 -0.582176 0.799735
0.158825 0.475204 0.378444 -0.146612 -0.582176 0.799735
-0.165295 -0.445423 -0.357951 0.146612 0.582176 -0.799735
0.229693 0.316326 0.268984 0.146612 0.582176 -0.799735
0.150246 -0.356342 -0.235256 0.146612 0.582176 -0.799735
0.391898 0.0928281 0.142818 -0.146612 -0.582176 0.799735
0.253943 0.0529578 0.0817077 0.146612 0.582176 -0.799735
-0.414739 0.140869 0.0231169 0.146612 0.582176 -0.799735
-0.569643 0.133905 -0.00355508 -0.146612 -0.582176 0.799735
0.0206154 0.0320984 0.0305436 -0.146612 -0.582176 0.799735
0.0901724 0.30276 0.240326 -0.146612 -0.582176 0.799735
0.0180678 0.44835 0.333091 -0.146612 -0.582176 0.799735
0.133117 0.376228 0.301681 -0.146612 -0.582176 0.799735
0.432982 0.0426943 0.107059 0.146612 0.582176 -0.799735
0.351238 -0.119586 -0.0192646 -0.146612 -0.582176 0.799735
-0.0749202 -0.0675468 -0.0663041 0.146612 0.582176 -0.799735
-0.217276 -0.329548 -0.283128 0.146612 0.582175 -0.799735
-0.455396 0.192802 0.0602638 -0.146612 -0.582176 0.799735
0.371801 -0.224162 -0.0984181 0.146612 0.582176 -0.799735
-0.00180363 0.422237 0.310439 -0.146612 -0.582176 0.799735
0.0352326 0.407236 0.299513 0.146612 0.582176 -0.799735
0.0551013 0.149366 0.122232 -0.146612 -0.582176 0.799735
-0.473793 0.213251 0.0649815 0.146612 0.582176 -0.799735
0.290802 0.277395 0.251846 0.146612 0.582176 -0.799735
0.0202464 -0.000819784 -0.000282947 0.146612 0.582176 -0.799735
-0.0413353 0.393008 0.281914 -0.146612 -0.582176 0.799735
0.387369 -0.172847 -0.0514135 -0.146612 -0.582176 0.799735
0.054716 -0.189192 -0.131091 0.146612 0.582176 -0.799735
0.0901482 0.520332 0.392534 0.914384 0.228665 0.334087
0.646045 -0.151462 0.0115764 -0.146612 -0.582175 0.799735
0.0404594 -0.427793 -0.300601 -0.146612 -0.582176 0.799735
-0.301441 -0.324179 -0.293192 -0.807493 -0.396546 -0.4367
-0.534359 0.0534855 -0.0624244 0.146612 0.582176 -0.799735
0.618009 -0.137044 0.010137 0.146612 0.582175 -0.799735
0.216239 -0.126021 -0.0554938 0.146612 0.582176 -0.799735
-0.221844 0.182229 0.0953838 -0.146612 -0.582176 0.799735
-0.00711699 -0.153814 -0.109877 -0.146612 -0.582176 0.799735
0.140691 -0.059665 -0.0142436 -0.146612 -0.582176 0.799735
-0.354365 0.276088 0.139415 -0.146612 -0.582176 0.799735
-0.295267 -0.0860359 -0.120159 0.146612 0.582176 -0.799735
0.351658 0.00469621 0.0712845 -0.146612 -0.582176 0.799735
-0.0557982 0.112218 0.0680629 0.146612 0.582176 -0.799735
0.375613 -0.234756 -0.105431 0.146612 0.582176 -0.799735
0.118192 0.0537742 0.0574153 0.146612 0.582176 -0.799735
0.0947913 0.436701 0.338676 -0.146612 -0.582176 0.799735
-0.154627 0.323923 0.210854 -0.146612 -0.582176 0.799735
0.160271 -0.0715975 -0.0193405 -0.146612 -0.582176 0.799735
0.159781 -0.132679 -0.0706909 0.146612 0.582176 -0.799735
-0.0439335 -0.202152 -0.158611 0.146612 0.582176 -0.799735
-0.23543 -0.20084 -0.185966 -0.146612 -0.582176 0.799735
-0.192524 0.100887 0.0347495 0.146612 0.582176 -0.799735
0.164235 0.481766 0.384213 -0.146612 -0.582176 0.799735
0.0137176 -0.474277 -0.339342 -0.146595 -0.582202 0.799719
0.137266 -0.25455 -0.15674 -0.146612 -0.582176 0.799735
-0.102671 0.142517 0.0883225 -0.146612 -0.582176 0.799735
0.479596 -0.124086 -0.0058051 0.146612 0.582176 -0.799735
0.121634 -0.333498 -0.217077 -0.146612 -0.582176 0.799735
0.337629 0.0887637 0.129911 -0.146612 -0.582176 0.799735
-0.321024 0.109104 0.0171738 0.146612 0.582176 -0.799735
0.0861366 0.201434 0.159029 0.146612 0.582175 -0.799735
0.0166849 0.376707 0.280685 -0.146612 -0.582176 0.799735
-0.167285 -0.0456877 -0.0605287 -0.146612 -0.582176 0.799735
0.441075 -0.265527 -0.109035 -0.146612 -0.582176 0.799735
-0.0567113 -0.000458664 -0.0141284 0.146612 0.582176 -0.799735
-0.442338 0.0347799 -0.0591715 0.146612 0.582176 -0.799735
0.0421797 -0.181248 -0.127606 0.146612 0.582176 -0.799735
-0.161868 -0.437639 -0.351657 0.146612 0.582176 -0.799735
0.270484 -0.226906 -0.118989 0.146612 0.582176 -0.799735
-0.150301 -0.103236 -0.0993081 -0.146612 -0.582176 0.799735
0.138555 -0.169965 -0.101725 0.146632 0.582185 -0.799724
-0.246597 0.0150714 -0.0308385 -0.146612 -0.582176 0.799735
-0.0988706 -0.484145 -0.373962 0.146612 0.582175 -0.799735
0.113042 0.505933 0.385625 0.146567 0.582151 -0.799761
-0.0726507 0.193367 0.130843 -0.146612 -0.582176 0.799735
0.0304804 0.460809 0.337641 0.146612 0.582176 -0.799735
0.165357 -0.157262 -0.0875641 0.146612 0.582176 -0.799735
-0.431976 -0.0247509 -0.100608 0.146612 0.582176 -0.799735
0.00725042 -0.199822 -0.140736 -0.146612 -0.582176 0.799735
0.0915414 0.420221 0.326084 -0.146612 -0.582176 0.799735
-0.0880136 0.35403 0.244982 -0.146612 -0.582176 0.799735
0.27308 -0.15448 -0.0589946 -0.146612 -0.582176 0.799735
-0.165904 0.115393 0.0569848 -0.146612 -0.582176 0.799735
-0.079422 0.353877 0.246446 -0.146612 -0.582176 0.799735
0.114649 0.38032 0.294478 0.146612 0.582176 -0.799735
0.13263 -0.157737 -0.0939098 0.146598 0.582168 -0.799743
0.0383546 -0.0345439 -0.0215131 0.146612 0.582176 -0.799735
-0.231699 0.084445 0.0223941 -0.146612 -0.582176 0.799735
-0.289526 -0.0245289 -0.0743316 0.146612 0.582176 -0.799735
0.00393415 0.0998356 0.0767955 -0.146612 -0.582176 0.799735
-0.0684644 -0.368544 -0.284235 0.146612 0.582176 -0.799735
0.105104 -0.21738 -0.135578 -0.146612 -0.582176 0.799735
0.203055 0.263517 0.232453 -0.146612 -0.582176 0.799735
-0.240884 -0.0361201 -0.0738521 0.146612 0.582176 -0.799735
0.388185 -0.0177485 0.0616421 -0.146612 -0.582176 0.799735
-0.352621 0.0409974 -0.0314022 -0.146612 -0.582176 0.799735
0.0559262 0.484562 0.359597 0.146612 0.582176 -0.799735
-0.0864718 0.137181 0.0806122 0.146612 0.582176 -0.799735
-0.135683 -0.278088 -0.223914 -0.146612 -0.582176 0.799735
-0.374958 -0.0377815 -0.0928451 -0.146612 -0.582176 0.799735
-0.046377 -0.133653 -0.102399 -0.146612 -0.582176 0.799735
-0.345773 0.128511 0.0335598 -0.146612 -0.582176 0.799735
0.140554 0.0156132 0.0337351 0.146612 0.582176 -0.799735
-0.188969 -0.398207 -0.32792 0.146612 0.582176 -0.799735
-0.404894 0.0803051 -0.0191665 0.146612 0.582176 -0.799735
0.0208659 -0.216165 -0.150136 -0.146612 -0.582176 0.799735
0.0834679 0.485005 0.364968 0.146612 0.582176 -0.799735
-0.306599 0.207463 0.098215 -0.146612 -0.582176 0.799735
0.166977 0.417275 0.337769 -0.146612 -0.582176 0.799735
-0.270273 0.202112 0.0941835 0.146612 0.582176 -0.799735
0.100957 -0.394033 -0.27173 0.146612 0.582176 -0.799735
-0.514871 0.155763 0.0156023 0.146612 0.582176 -0.799735
0.446059 -0.143238 -0.0258955 0.146612 0.582176 -0.799735
-0.111452 -0.504026 -0.390741 0.146612 0.582175 -0.799735
0.345443 0.0810722 0.125744 -0.146612 -0.582176 0.799735
0.318506 0.124017 0.145272 0.146612 0.582176 -0.799735
0.203159 0.0574884 0.0756957 0.146612 0.582176 -0.799735
-0.15144 0.0593281 0.0188234 -0.146612 -0.582176 0.799735
-0.0351291 -0.501059 -0.367793 -0.146612 -0.582176 0.799735
0.512589 -0.120394 0.00972699 -0.146612 -0.582176 0.799735
0.314605 0.0317075 0.0773592 0.146612 0.582176 -0.799735
0.196017 0.443989 0.355744 0.146613 0.582176 -0.799735
-0.191951 0.162077 0.0793981 0.146612 0.582176 -0.799735
0.109364 0.471807 0.366904 -0.146612 -0.582176 0.799735
-0.283836 0.101631 0.0185511 0.146612 0.582176 -0.799735
0.0893913 0.174147 0.146558 -0.146612 -0.582176 0.799735
-0.346365 0.028033 -0.039693 -0.146612 -0.582176 0.799735
0.0658713 0.104247 0.0913612 -0.146612 -0.582176 0.799735
-0.478039 0.040836 -0.0613078 0.146612 0.582176 -0.799735
-0.233935 -0.00225172 -0.0479235 0.146612 0.582176 -0.799735
0.193919 -0.260648 -0.157589 0.146612 0.582176 -0.799735
-0.286764 -0.194405 -0.190692 -0.146612 -0.582176 0.799735
0.24483 -0.0271526 0.0285155 -0.146612 -0.582176 0.799735
0.260409 0.174571 0.171422 0.146612 0.582175 -0.799735
0.29937 -0.0969721 -0.0123117 -0.146612 -0.582176 0.799735
-0.0160768 0.0938718 0.0687855 -0.146612 -0.582176 0.799735
-0.303099 0.09928 0.0201039 -0.146612 -0.582176 0.799735
0.476754 -0.184941 -0.0506261 0.146612 0.582176 -0.799735
-0.203638 -0.131455 -0.129628 -0.146612 -0.582176 0.799735
-0.477175 -0.0220842 -0.100157 -0.146612 -0.582176 0.799735
-0.112525 -0.439224 -0.343764 0.146612 0.582176 -0.799735
-0.163846 -0.225714 -0.19095 -0.146612 -0.582176 0.799735
0.0537602 0.0480885 0.04826 -0.146612 -0.582176 0.799735
0.491649 -0.170011 -0.0302315 -0.146612 -0.582176 0.799735
-0.455466 -0.0883809 -0.144439 -0.146612 -0.582176 0.799735
0.0700378 0.170423 0.140299 -0.146612 -0.582176 0.799735
-0.666607 0.160192 -0.00899045 0.146612 0.582176 -0.799735
0.290964 -0.154649 -0.0626352 0.146612 0.582176 -0.799735
0.0467981 -0.181365 -0.126845 0.146612 0.582176 -0.799735
-0.185687 -0.348816 -0.291364 0.146612 0.582176 -0.799735
-0.0809884 -0.282455 -0.223861 0.146612 0.582176 -0.799735
-0.0665345 0.357679 0.251577 -0.146612 -0.582176 0.799735
-0.554836 0.119121 -0.0116023 -0.146612 -0.582176 0.799735
0.183749 0.124071 0.127402 -0.146612 -0.582176 0.799735
-0.48787 0.217556 0.0655347 0.146612 0.582176 -0.799735
-0.287862 -0.225331 -0.220202 0.146612 0.582176 -0.799735
0.459893 -0.142014 -0.0224678 0.146612 0.582176 -0.799735
0.243509 0.29508 0.25605 0.146612 0.582176 -0.799735
-0.44282 0.0662908 -0.0363212 0.146612 0.582176 -0.799735
-0.286553 -0.204198 -0.197783 -0.146612 -0.582176 0.799735
0.156108 -0.143016 -0.0788894 0.146612 0.582176 -0.799735
-0.251324 -0.134478 -0.140571 -0.146612 -0.582176 0.799735
-0.0027531 0.0906711 0.0621024 0.146612 0.582176 -0.799735
-0.433216 0.0223137 -0.0597784 -0.146612 -0.582176 0.799735
-0.389916 0.245866 0.110896 -0.146612 -0.582176 0.799735
0.157242 0.17367 0.158649 -0.146612 -0.582176 0.799735
-0.494507 -0.03134 -0.110072 -0.146612 -0.582176 0.799735
0.0847107 -0.0612888 -0.032484 0.146612 0.582176 -0.799735
-0.0147009 0.19274 0.14101 -0.146612 -0.582176 0.799735
-0.459677 -0.0923831 -0.15492 0.146612 0.582176 -0.799735
0.143585 -0.136975 -0.0699917 -0.146612 -0.582176 0.799735
-0.228876 0.109855 0.0346136 0.146612 0.582176 -0.799735
-0.0159789 -0.41123 -0.29889 -0.146612 -0.582176 0.799735
0.0708717 0.287014 0.225325 -0.146612 -0.582176 0.799735
0.01308 0.417396 0.302847 0.146612 0.582176 -0.799735
0.222782 0.370056 0.30683 0.146612 0.582176 -0.799735
0.290999 0.261227 0.240113 0.146612 0.582176 -0.799735
-0.118945 -0.0307751 -0.0408109 -0.146612 -0.582176 0.799735
-0.483396 0.180478 0.039364 0.146612 0.582176 -0.799735
-0.0182798 -0.350945 -0.255428 -0.146612 -0.582176 0.799735
-0.249626 -0.279766 -0.246023 -0.146612 -0.582176 0.799735
-0.162201 0.293064 0.187001 -0.146612 -0.582176 0.799735
-0.0692718 -0.320148 -0.242356 -0.146612 -0.582176 0.799735
-0.41917 0.031757 -0.0503291 -0.146612 -0.582176 0.799735
0.122805 -0.0493853 -0.0168351 0.146612 0.582176 -0.799735
0.298927 -0.208256 -0.0934032 -0.146612 -0.582176 0.799735
0.138646 -0.320479 -0.211276 0.146612 0.582176 -0.799735
-0.287993 -0.329534 -0.289287 -0.146612 -0.582175 0.799735
0.0848635 -0.298673 -0.198467 -0.146612 -0.582176 0.799735
0.0828305 -0.194678 -0.129931 0.146612 0.582176 -0.799735
0.224184 0.0731877 0.0909786 0.146612 0.582176 -0.799735
0.0411472 -0.402137 -0.288594 0.146612 0.582176 -0.799735
0.605782 -0.0956291 0.0448394 -0.146612 -0.582176 0.799735
-0.369029 -0.0658883 -0.119014 0.146612 0.582176 -0.799735
-0.371134 0.244142 0.106289 0.146612 0.582176 -0.799735
-0.163381 0.170366 0.0906701 0.146612 0.582176 -0.799735
0.494399 -0.161569 -0.0235819 -0.146607 -0.58216 0.799747
0.30409 -0.0953357 -0.0170508 0.146612 0.582176 -0.799735
-0.460784 0.183603 0.045784 0.146612 0.582176 -0.799735
0.199094 0.0297145 0.0615279 -0.146612 -0.582176 0.799735
0.100804 0.335943 0.259635 0.146612 0.582176 -0.799735
-0.231091 -0.164401 -0.158645 -0.146612 -0.582176 0.799735
-0.118423 -0.432043 -0.339618 0.146612 0.582176 -0.799735
-0.120633 0.333117 0.223778 -0.146612 -0.582176 0.799735
-0.0992504 -0.253199 -0.205912 0.146612 0.582176 -0.799735
-0.404676 0.0702294 -0.0264612 0.146612 0.582176 -0.799735
-0.463868 0.262051 0.109121 -0.146612 -0.582176 0.799735
-0.270212 0.18319 0.0804205 0.146612 0.582176 -0.799735
-0.135905 -0.449966 -0.35587 0.146612 0.582175 -0.799735
-0.100017 0.168583 0.100988 0.146612 0.582176 -0.799735
0.549836 -0.135517 -0.00124953 0.146612 0.582176 -0.799735
0.458291 -0.156684 -0.0266451 -0.146612 -0.582176 0.799735
-0.141536 -0.107619 -0.107688 0.146612 0.582176 -0.799735
0.371002 -0.130205 -0.0233723 -0.146612 -0.582176 0.799735
-0.0418203 -0.337696 -0.256894 0.146612 0.582176 -0.799735
-0.423179 -0.0863768 -0.143857 0.146612 0.582176 -0.799735
-0.131118 -0.414965 -0.322717 -0.146612 -0.582176 0.799735
0.0757215 -0.304733 -0.21135 0.146612 0.582176 -0.799735
-0.42094 -0.086945 -0.137064 -0.146612 -0.582176 0.799735
-0.212733 -0.130418 -0.137336 0.146612 0.582176 -0.799735
-0.334399 -0.109286 -0.137462 -0.146612 -0.582176 0.799735
0.16788 0.270095 0.223997 0.146612 0.582176 -0.799735
0.271104 -0.13098 -0.0422498 -0.146612 -0.582176 0.799735
0.248454 -0.104005 -0.0335615 0.146612 0.582176 -0.799735
0.382698 -0.13048 -0.0282235 0.146612 0.582176 -0.799735
-0.512225 0.0882556 -0.0330554 0.146612 0.582176 -0.799735
0.0433791 0.182211 0.137197 0.146612 0.582176 -0.799735
0.264604 0.319099 0.277402 0.146612 0.582176 -0.799735
-0.0933053 0.344979 0.237424 -0.146612 -0.582176 0.799735
-0.0287018 0.456883 0.323933 0.146612 0.582176 -0.799735
0.270741 -0.179655 -0.07775 -0.146612 -0.582176 0.799735
-0.0607016 -0.102508 -0.0823523 -0.146612 -0.582176 0.799735
0.11363 0.373102 0.289037 0.146612 0.582176 -0.799735
-0.30956 -0.0727904 -0.106341 -0.146612 -0.582176 0.799735
0.21012 0.115903 0.119495 0.146612 0.582176 -0.799735
0.417695 0.0705257 0.131312 -0.146612 -0.582175 0.799735
0.0609849 0.0975114 0.0787667 0.146612 0.582176 -0.799735
-0.164787 -0.0411616 -0.0567759 -0.146612 -0.582176 0.799735
-0.166449 0.209568 0.125441 -0.146612 -0.582176 0.799735
0.0254683 -0.0483054 -0.0270975 -0.146612 -0.582176 0.799735
0.121353 0.330153 0.259187 0.146612 0.582176 -0.799735
-0.502551 -0.0479651 -0.123649 -0.146612 -0.582176 0.799735
-0.32909 0.0872552 -0.000210219 0.146612 0.582176 -0.799735
-0.028621 0.450117 0.319023 0.146612 0.582176 -0.799735
0.162252 -0.18779 -0.110357 0.146612 0.582176 -0.799735
-0.0877631 0.278746 0.183429 0.146612 0.582176 -0.799735
-0.0255795 0.305471 0.221079 -0.146612 -0.582176 0.799735
0.049053 0.124211 0.102811 -0.146612 -0.582176 0.799735
0.20788 -0.0721699 -0.0110292 -0.146612 -0.582176 0.799735
0.47452 -0.206798 -0.0601509 -0.146594 -0.582227 0.799701
0.129152 -0.192987 -0.120208 0.146612 0.582176 -0.799735
0.18924 0.149956 0.147252 -0.146612 -0.582176 0.799735
-0.0653378 0.163924 0.103954 0.146612 0.582176 -0.799735
-0.189893 0.193782 0.109651 -0.146612 -0.582176 0.799735
0.217666 0.206704 0.193774 -0.146612 -0.582176 0.799735
0.541106 -0.135356 -0.00273274 0.146612 0.582176 -0.799735
-0.284072 -0.114006 -0.138467 0.146612 0.582176 -0.799735
0.246867 0.327465 0.287037 -0.146612 -0.582176 0.799735
0.161634 0.497121 0.388118 0.146616 0.582177 -0.799733
-0.0610236 0.256146 0.178675 -0.146612 -0.582176 0.799735
-0.409155 -0.0819268 -0.13125 -0.146612 -0.582176 0.799735
0.143508 -0.132735 -0.0737146 0.146612 0.582176 -0.799735
-0.51628 0.0332218 -0.0670654 -0.146612 -0.582176 0.799735
0.286397 -0.0666182 0.00740655 -0.146612 -0.582176 0.799735
-0.0267395 0.252052 0.175184 0.146612 0.582176 -0.799735
0.473277 -0.138132 -0.010393 -0.146612 -0.582176 0.799735
-0.558783 0.107242 -0.0277693 0.146612 0.582176 -0.799735
0.253354 0.0623849 0.0884622 0.146612 0.582176 -0.799735
-0.12629 0.257543 0.160931 0.146612 0.582176 -0.799735
-0.518988 0.0578871 -0.0564023 0.146618 0.58218 -0.799731
0.141835 -0.397406 -0.259896 -0.146612 -0.582176 0.799735
0.0573797 0.200301 0.152933 0.146612 0.582175 -0.799735
-0.20326 -0.239096 -0.214713 0.146612 0.582176 -0.799735
0.0528749 -0.075232 -0.0484704 0.146612 0.582176 -0.799735
0.300811 -0.15288 -0.0527463 -0.146612 -0.582176 0.799735
-0.184208 0.137281 0.062767 0.146612 0.582176 -0.799735
-0.416664 -0.0225985 -0.096234 0.146612 0.582176 -0.799735
0.459507 -0.189266 -0.0501405 -0.146612 -0.582176 0.799735
-0.0343058 -0.463589 -0.347162 0.14656 0.582183 -0.79974
-0.0158997 -0.456552 -0.338664 0.146612 0.582176 -0.799735
0.000362364 -0.394197 -0.283495 -0.146612 -0.582176 0.799735
0.0126342 -0.184506 -0.135395 0.146612 0.582176 -0.799735
0.144909 -0.169572 -0.0934781 -0.146612 -0.582176 0.799735
-0.235818 -0.380476 -0.323601 0.146612 0.582176 -0.799735
-0.139619 -0.383318 -0.308034 0.14664 0.582192 -0.799718
-0.117577 0.085515 0.0372988 0.146612 0.582176 -0.799735
0.14599 -0.216675 -0.134365 0.146612 0.582176 -0.799735
0.448792 -0.000928961 0.0782012 0.146612 0.582176 -0.799735
-0.435542 0.261502 0.107119 0.146612 0.582176 -0.799735
0.205522 0.239733 0.215592 -0.146612 -0.582176 0.799735
0.233648 0.190141 0.184647 -0.146612 -0.582176 0.799735
0.175669 0.0934872 0.0968618 0.146612 0.582176 -0.799735
-0.437342 0.160531 0.0332866 0.146612 0.582176 -0.799735
-0.0655028 -0.343439 -0.265416 0.146612 0.582176 -0.799735
0.0560883 0.23263 0.183026 -0.146612 -0.582176 0.799735
-0.0381684 0.0174837 0.00912803 -0.146612 -0.582176 0.799735
-0.274494 0.196725 0.0962837 -0.146612 -0.582176 0.799735
0.163154 0.162729 0.144972 0.146612 0.582176 -0.799735
0.0795235 0.00426378 0.0210805 -0.146612 -0.582176 0.799735
0.239157 0.377682 0.315384 0.146613 0.582176 -0.799735
0.303083 -0.228746 -0.114353 0.146612 0.582176 -0.799735
0.172903 0.253918 0.219938 -0.146612 -0.582176 0.799735
0.022861 -0.345864 -0.244186 -0.146612 -0.582176 0.799735
0.096982 0.0458234 0.0477391 0.146612 0.582176 -0.799735
0.590682 -0.204956 -0.0413236 0.571368 -0.709806 -0.411965
-0.431891 -0.0270652 -0.0954814 -0.146612 -0.582176 0.799735
0.0262942 -0.163457 -0.110772 -0.146612 -0.582176 0.799735
-0.00299201 -0.497381 -0.36087 0.571367 -0.709807 -0.411963
0.0210771 0.493329 0.366386 -0.146612 -0.582176 0.799735
-0.306539 -0.30175 -0.272461 -0.146612 -0.582175 0.799735
0.250966 -0.170892 -0.0817918 0.146612 0.582176 -0.799735
-0.33903 0.103021 0.0162404 -0.146612 -0.582176 0.799735
0.0531651 -0.326187 -0.231103 0.146612 0.582176 -0.799735
0.321918 -0.0544237 0.0159998 0.146612 0.582176 -0.799735
-0.33324 0.0113584 -0.0562209 0.146612 0.582176 -0.799735
-0.193337 0.0559504 0.00188807 0.146612 0.582176 -0.799735
-0.458944 0.000873419 -0.0801027 -0.146612 -0.582176 0.799735
0.286887 0.200698 0.202092 -0.146612 -0.582176 0.799735
0.189855 -0.134643 -0.0666073 0.146612 0.582176 -0.799735
0.348083 0.12325 0.150136 0.146612 0.582176 -0.799735
-0.442392 0.087071 -0.0143198 -0.146612 -0.582176 0.799735
0.114584 -0.0358598 -0.00170041 -0.146612 -0.582176 0.799735
-0.392526 0.145427 0.0373028 -0.146612 -0.582176 0.799735
-0.0987363 0.160893 0.0956251 0.146612 0.582176 -0.799735
-0.0832098 -0.149947 -0.127808 0.146612 0.582176 -0.799735
-0.0747465 -0.21848 -0.176146 0.146612 0.582176 -0.799735
-0.469399 0.237696 0.0903785 -0.146612 -0.582176 0.799735
-0.213765 0.159354 0.0802126 -0.146612 -0.582176 0.799735
-0.0103855 0.155027 0.107551 0.146612 0.582176 -0.799735
-0.630216 0.132756 -0.0222921 0.146613 0.582176 -0.799735
-0.0354235 0.0364788 0.0166632 0.146612 0.582176 -0.799735
-0.171329 -0.130694 -0.123151 -0.146612 -0.582176 0.799735
-0.343184 0.0177592 -0.0465887 -0.146612 -0.582176 0.799735
0.0455657 -0.204631 -0.137212 -0.146612 -0.582176 0.799735
0.33392 -0.063054 0.0187132 -0.146612 -0.582176 0.799735
-0.070852 -0.0883734 -0.0739235 -0.146612 -0.582176 0.799735
0.515006 -0.208626 -0.0608553 0.146612 0.582176 -0.799735
0.116271 0.514619 0.399336 -0.146612 -0.582175 0.799735
0.205321 0.112767 0.116333 0.146612 0.582176 -0.799735
-0.222634 0.130306 0.0506448 0.146612 0.582176 -0.799735
-0.191427 -0.321529 -0.265756 -0.146612 -0.582176 0.799735
0.212473 0.313395 0.270489 -0.146612 -0.582176 0.799735
0.201576 0.194552 0.175182 0.146612 0.582175 -0.799735
-0.0556017 0.167383 0.115053 -0.146612 -0.582176 0.799735
0.158942 0.143765 0.137191 -0.146612 -0.582176 0.799735
-0.25677 -0.0788937 -0.101106 -0.146612 -0.582176 0.799735
0.271239 -0.197617 -0.0907339 -0.146612 -0.582176 0.799735
0.258573 -0.230963 -0.117331 -0.146612 -0.582176 0.799735
0.0957445 0.45192 0.34993 -0.146612 -0.582176 0.799735
0.0588701 0.104812 0.0904894 -0.146612 -0.582176 0.799735
0.264644 -0.243361 -0.132039 0.146612 0.582176 -0.799735
-0.0474196 0.445446 0.318971 -0.146612 -0.582176 0.799735
-0.0488716 0.0811023 0.046682 0.146612 0.582176 -0.799735
-0.0716119 -0.314055 -0.23835 -0.146612 -0.582176 0.799735
-0.338375 -0.116102 -0.143153 -0.146612 -0.582176 0.799735
0.284007 0.283127 0.254773 0.146612 0.582176 -0.799735
0.031492 -0.344094 -0.248111 0.146612 0.582176 -0.799735
0.111253 0.220559 0.177556 0.146612 0.582175 -0.799735
0.0178247 -0.44481 -0.323934 0.146612 0.582176 -0.799735
0.116471 0.242593 0.194552 0.146612 0.582176 -0.799735
-0.131853 0.108295 0.05806 -0.146612 -0.582176 0.799735
-0.0286554 -0.356843 -0.261623 -0.146612 -0.582176 0.799735
0.228175 -0.202017 -0.101832 -0.146612 -0.582176 0.799735
0.391815 -0.202068 -0.0786656 0.146612 0.582176 -0.799735
0.44658 0.0765381 0.140984 -0.146612 -0.582176 0.799735
0.501822 0.0343811 0.113627 0.146612 0.582175 -0.799735
0.410145 -0.285472 -0.129224 -0.146612 -0.582176 0.799735
0.263095 0.00817838 0.0575836 -0.146612 -0.582176 0.799735
0.0828762 -0.398806 -0.278519 0.146612 0.582176 -0.799735
-0.153667 -0.100377 -0.10464 0.146612 0.582176 -0.799735
-0.274286 0.0762879 0.00864859 -0.146612 -0.582176 0.799735
-0.531863 0.0709285 -0.0424733 -0.146612 -0.582176 0.799735
0.152122 -0.117135 -0.0607799 0.146612 0.582176 -0.799735
-0.0978656 0.0886795 0.043216 0.146612 0.582176 -0.799735
-0.236572 -0.278195 -0.242487 -0.146612 -0.582176 0.799735
-0.138792 -0.187041 -0.158205 -0.146612 -0.582176 0.799735
0.082945 -0.0344649 -0.00648524 -0.146612 -0.582176 0.799735
-0.189161 -0.0690315 -0.0883282 0.146612 0.582176 -0.799735
0.0796999 -0.372513 -0.259962 0.146605 0.58218 -0.799733
-0.189903 0.288534 0.178274 -0.975001 0.221509 -0.0174913
-0.473759 0.254336 0.101692 -0.146612 -0.582176 0.799735
0.291352 -0.0647411 0.00968129 -0.146612 -0.582176 0.799735
-0.144969 -0.273971 -0.229414 0.146612 0.582176 -0.799735
0.502598 -0.100596 0.0155116 0.146612 0.582176 -0.799735
-0.173475 -0.0613577 -0.0730705 -0.146612 -0.582176 0.799735
0.231492 0.175705 0.173742 -0.146612 -0.582176 0.799735
-0.0763888 -0.233286 -0.187225 0.146612 0.582176 -0.799735
-0.0267941 -0.326764 -0.239385 -0.146612 -0.582176 0.799735
0.0636916 0.0196384 0.0225745 0.146612 0.582176 -0.799735
0.641796 -0.160237 0.0044095 -0.146612 -0.582175 0.799735
-0.191308 -0.187325 -0.174835 0.146612 0.582176 -0.799735
-0.321674 0.202225 0.0916387 -0.146612 -0.582176 0.799735
0.441551 -0.248914 -0.10365 0.146612 0.582176 -0.799735
-0.1178 -0.28229 -0.223694 -0.146612 -0.582176 0.799735
0.57963 -0.131214 0.00734479 0.146612 0.582176 -0.799735
0.530491 -0.0564227 0.0595772 -0.146612 -0.582175 0.799735
0.437606 -0.209206 -0.068671 -0.146612 -0.582176 0.799735
-0.0853754 -0.204151 -0.160868 -0.146612 -0.582176 0.799735
0.241638 0.346639 0.300036 -0.146612 -0.582176 0.799735
-0.542239 0.0982988 -0.0312468 0.146612 0.582176 -0.799735
0.0761555 -0.433074 -0.304698 0.146612 0.582176 -0.799735
-0.0405578 -0.447389 -0.329719 -0.146612 -0.582176 0.799735
0.0249048 0.204877 0.157106 -0.146612 -0.582176 0.799735
0.2865 0.302143 0.275869 -0.146612 -0.582175 0.799735
0.272571 0.0453573 0.0795899 0.146612 0.582176 -0.799735
0.476032 0.00976747 0.0977772 -0.146612 -0.582175 0.799735
-0.25941 -0.155848 -0.164406 0.146612 0.582176 -0.799735
