ply
format ascii 1.0
comment Created by Open3D
element vertex 512
property double x
property double y
property double z
property double nx
property double ny
property double nz
end_header
0.216053 -0.352162 0.172032 0.415544 -0.767253 0.488513
0.348753 0.0035729 -0.328455 0.483489 -0.210838 -0.84958
-0.266204 0.0585344 -0.416234 -0.848216 0.228486 -0.477832
-0.508741 0.0613618 0.221293 -0.483488 0.210838 0.84958
-0.156726 0.148091 -0.527994 -0.728247 0.493831 -0.475171
0.383039 0.169697 0.152408 0.80872 0.412303 0.419497
0.550509 -0.239186 -0.0839863 0.751765 -0.329655 0.571119
0.412675 -0.391015 -0.194154 0.483488 -0.210839 -0.84958
-0.236306 0.452435 0.113916 -0.224076 0.928424 -0.296341
0.0229571 -0.267067 0.469958 0.415562 -0.767262 0.488485
0.119276 0.347252 0.449256 0.71832 0.619482 0.316636
0.239669 -0.0730518 0.419036 0.781903 -0.253591 0.56949
0.495115 -0.293033 -0.0516603 0.675305 -0.475402 0.563876
0.409469 0.271139 -0.0696074 0.660278 0.703556 0.262757
-0.0530824 0.245535 -0.543696 -0.538844 0.726682 -0.426123
-0.222261 -0.0626749 0.415108 -0.483487 0.210839 0.849581
0.221232 -0.0104517 0.468087 0.811299 -0.158718 0.562674
0.400453 -0.21006 -0.246017 0.483487 -0.21084 -0.84958
-0.460062 -0.0813458 -0.0236727 -0.889022 -0.253126 -0.381533
-0.249284 -0.0600711 -0.481261 -0.892109 0.0211006 -0.451328
0.0618599 -0.504626 -0.165429 -0.178272 -0.963592 0.199272
0.16732 -0.0936223 -0.407586 0.483487 -0.21084 -0.84958
0.284517 0.402864 -0.199266 0.630886 -0.209854 -0.746957
0.19177 0.125941 -0.448161 0.483489 -0.210838 -0.84958
0.302441 -0.227785 0.233748 0.647147 -0.518795 0.558616
-0.115785 -0.419922 0.0748736 -0.257838 -0.954212 0.151655
-0.428097 0.296379 0.208863 -0.483488 0.210839 0.84958
0.170445 -0.237768 0.370435 0.556391 -0.635075 0.535825
-0.0300003 -0.504168 -0.32288 -0.665583 0.284002 -0.690175
-0.0883056 0.429478 -0.0637879 -0.138331 0.957086 -0.254658
-0.561949 0.16776 0.161643 -0.861891 0.18078 -0.473775
-0.294125 0.448875 0.153392 -0.307846 0.890645 -0.334639
-0.163447 0.412851 -0.0621556 -0.266258 0.910654 -0.315937
0.204259 0.181651 0.473469 0.83843 0.275187 0.470433
-0.16481 -0.3691 -0.403475 -0.743274 -0.637372 -0.203226
-0.39205 0.316246 0.0180695 -0.638785 0.619859 -0.455772
0.286143 0.364413 -0.400708 0.165228 0.982249 -0.0888032
0.562432 -0.161244 -0.0662652 0.814216 -0.150994 0.560583
0.161066 -0.295177 0.306089 0.488529 -0.704726 0.514491
0.504179 0.166078 -0.0838414 0.778506 0.498912 0.380809
-0.200569 0.0328529 -0.615849 0.358758 0.92622 -0.115802
0.00799293 0.309549 -0.489273 -0.392461 0.84206 -0.370013
0.330995 0.170182 -0.379908 0.483488 -0.210839 -0.84958
0.266709 -0.374162 0.0943896 0.415544 -0.767253 0.488513
0.357211 -0.184963 0.200187 0.722626 -0.390567 0.570324
-0.276841 0.168208 -0.321104 -0.756835 0.444372 -0.479306
0.313788 0.0905445 -0.369937 0.483488 -0.210838 -0.84958
0.512335 -0.0722796 -0.216538 0.483488 -0.210839 -0.84958
-0.0125768 -0.161113 -0.493215 0.483487 -0.210839 -0.84958
-0.414343 0.193377 0.242252 -0.483488 0.210839 0.84958
-0.330229 -0.246893 -0.160387 -0.81108 -0.518333 -0.271073
-0.029408 0.0355418 0.500484 -0.483488 0.210838 0.84958
0.168911 0.394423 -0.478234 -0.0811256 0.971387 -0.223218
0.172432 0.404049 0.0485333 0.407987 0.910466 0.067816
0.372496 -0.114522 0.218214 0.781657 -0.253486 0.569875
-0.105788 0.479893 0.181765 0.0790588 0.987213 -0.13842
-0.122381 0.354724 -0.341153 -0.39895 0.217545 0.890793
0.582871 0.123157 -0.224898 0.483489 -0.210838 -0.84958
0.0663364 0.197485 -0.537299 0.483486 -0.21084 -0.849581
0.532253 -0.161006 -0.183184 0.483488 -0.210839 -0.84958
-0.203844 -0.314492 -0.409394 -0.808459 -0.523861 -0.26826
-0.210685 0.439329 0.0539738 -0.266261 0.910652 -0.315938
0.0720594 -0.361846 0.261547 0.257253 -0.868583 0.423538
0.0113353 -0.543836 -0.256696 -0.336336 -0.936158 0.102402
0.143578 0.416911 -0.0390853 0.289854 0.957012 -0.0106403
0.102829 -0.0743797 -0.449063 0.483488 -0.210839 -0.84958
0.0844433 0.102012 0.54878 -0.483488 0.210839 0.84958
-0.481983 0.14586 0.00856045 -0.848216 0.228486 -0.477832
0.44555 -0.0609416 0.126844 0.832151 -0.0620658 0.551065
0.373172 0.244572 -0.374367 0.483488 -0.210838 -0.84958
0.185385 0.39883 -0.20582 0.164956 0.982338 -0.0883269
-0.042403 -0.0892571 -0.528021 0.483487 -0.210839 -0.84958
-0.139128 0.467206 0.112037 -0.0514621 0.976346 -0.210001
0.0420095 0.441031 -0.00356241 0.122188 0.985988 -0.113572
0.139639 -0.343249 0.249287 0.37739 -0.795664 0.47381
-0.280202 0.245842 0.30557 -0.483488 0.210839 0.84958
0.272 0.1706 0.358812 0.830647 0.321703 0.454459
-0.304293 0.349291 -0.048198 -0.539122 0.726787 -0.425591
-0.201402 -0.28926 -0.483134 -0.504028 0.841555 0.194269
0.36499 0.325952 -0.399219 0.483489 -0.210838 -0.84958
0.031081 0.0307203 0.536105 -0.483488 0.210838 0.84958
-0.442244 0.0640533 0.258468 -0.483488 0.210838 0.84958
-0.036436 0.443453 -0.0214425 -0.00787599 0.982386 -0.186696
-0.450301 -0.111039 0.297335 -0.483488 0.210839 0.84958
0.188426 -0.492145 -0.0974324 0.0802874 -0.936755 0.340652
0.222801 -0.541266 -0.264922 0.483488 -0.210838 -0.84958
-0.253952 -0.207166 -0.518341 -0.890642 -0.243541 -0.383985
-0.367317 -0.181825 -0.158319 -0.859312 -0.390241 -0.330598
-0.434175 -0.216043 0.332571 -0.483488 0.210839 0.84958
-0.367187 -0.23679 0.375841 -0.483488 0.210839 0.84958
-0.256272 -0.25233 -0.362363 -0.850594 -0.419377 -0.317194
0.0956403 0.428511 -0.30313 -0.0530371 0.976071 -0.210883
0.0769465 0.370042 -0.377005 -0.155737 0.952061 -0.263299
0.335541 0.156302 0.252794 0.830647 0.321703 0.454459
-0.570813 -0.0120687 0.204191 -0.483488 0.210838 0.84958
0.0236139 0.102953 -0.538152 0.483488 -0.210839 -0.84958
-0.195542 -0.372874 0.2353 -0.257839 -0.954212 0.151654
-0.0710609 -0.303791 0.466526 0.215666 -0.888592 0.404836
0.103256 -0.000942728 -0.467044 0.483489 -0.210837 -0.84958
-0.25081 -0.158389 -0.457967 -0.896923 -0.185808 -0.401255
-0.010766 0.452622 0.0415387 0.0790582 0.987213 -0.13842
-0.0993503 0.306301 -0.377136 0.305011 0.583372 0.752758
-0.225424 -0.379182 0.0243167 -0.495883 -0.868374 -0.00511671
0.322773 -0.0837716 0.299617 0.797624 -0.206424 0.566731
-0.052447 -0.409137 -0.454353 0.483488 -0.210839 -0.84958
-0.21976 0.484205 0.214437 -0.0949826 0.967906 -0.232674
-0.101051 -0.488276 -0.340512 -0.564936 -0.823066 -0.0583937
0.373713 0.100083 0.218012 0.844066 0.228017 0.485346
-0.0647657 -0.443763 0.0111027 -0.215546 -0.960276 0.177227
-0.436626 -0.163312 0.00285408 -0.845224 -0.434099 -0.311696
-0.208495 -0.34545 0.360427 -0.12965 -0.965151 0.22732
-0.394397 -0.245293 0.048051 -0.745081 -0.634714 -0.20492
-0.0361962 -0.163274 0.545961 -0.483489 0.210837 0.84958
0.347111 0.32277 -0.073011 0.564123 0.805198 0.182814
0.405265 -0.458983 -0.156685 0.402991 -0.777002 0.483596
0.570855 -0.14074 -0.0065286 0.817787 -0.132934 0.559958
-0.0854018 0.0029856 0.476698 -0.483487 0.21084 0.84958
-0.287628 -0.113853 -0.395138 -0.898132 -0.158243 -0.410265
-0.22398 0.121684 -0.446134 -0.776478 0.406796 -0.481248
-0.475364 0.00627112 -0.0265859 -0.898569 -0.0616775 -0.434477
0.468523 0.274295 -0.237352 0.582058 0.788989 0.196735
-0.292177 -0.100354 0.38467 -0.483488 0.210839 0.84958
0.530798 0.17383 -0.150599 0.760381 0.540451 0.360186
-0.457161 0.230839 0.0225012 -0.773474 0.412741 -0.481023
-0.504324 0.181239 0.0660817 -0.832495 0.275653 -0.48059
0.198738 -0.46781 -0.0392192 0.152101 -0.91367 0.376925
0.0798489 0.429189 -0.0652711 0.164956 0.982338 -0.0883269
-0.0887226 -0.150474 -0.539189 0.483488 -0.210839 -0.84958
0.102511 0.429316 0.119037 0.369604 0.92826 0.0415564
-0.425396 -0.245213 0.172444 -0.692115 -0.704397 -0.157484
0.0356128 -0.521804 -0.352468 -0.390818 -0.918069 0.0664071
0.227805 0.268893 0.346403 0.76038 0.540453 0.360185
0.299219 -0.161037 0.290108 0.722882 -0.39068 0.569922
-0.155382 -0.411528 -0.240377 -0.614686 -0.783378 -0.0920814
-0.302582 -0.335222 0.123718 -0.532019 -0.846158 -0.0311944
-0.238641 -0.227476 0.446685 -0.483487 0.210839 0.849581
-0.253859 -0.359212 0.185498 -0.380833 -0.921711 0.0735938
0.0810879 -0.0586089 0.586732 -0.483488 0.210838 0.84958
-0.131909 0.396295 -0.135781 -0.307844 0.890645 -0.334638
-0.347481 -0.307679 0.161655 -0.566894 -0.821811 -0.0570838
-0.108787 -0.173103 0.507089 -0.483488 0.210838 0.84958
-0.00767495 -0.462818 -0.0257276 -0.172859 -0.963883 0.202607
-0.00791818 -0.265287 -0.464711 0.483489 -0.210838 -0.84958
0.365505 0.325355 -0.145544 0.515339 0.844586 0.145257
0.542982 -0.0823486 -0.0231795 0.837133 -0.0279087 0.546288
-0.121433 0.148422 0.420101 -0.483488 0.210839 0.84958
0.394959 -0.305309 -0.225505 0.483488 -0.210839 -0.84958
-0.321264 -0.0895241 -0.330109 -0.899601 -0.110031 -0.422624
-0.21557 0.351644 -0.151508 -0.466155 0.789323 -0.399586
-0.264879 0.243207 -0.258186 -0.669062 0.581067 -0.463376
0.415606 -0.0236219 0.17518 0.839733 -0.0135472 0.54283
-0.00176846 -0.0279167 0.531962 -0.483488 0.210838 0.84958
0.451787 -0.289647 -0.197052 0.483487 -0.21084 -0.84958
-0.0627261 0.0553493 -0.575473 0.483488 -0.210839 -0.84958
-0.307432 0.0962252 -0.323807 -0.832624 0.275711 -0.480335
0.282482 -0.479593 -0.107736 0.257254 -0.868583 0.423538
-0.232932 0.298905 -0.223473 -0.57373 0.692808 -0.436866
0.278331 -0.0979908 0.354615 0.764177 -0.300096 0.570943
0.511209 -0.00865445 0.0221068 0.848406 0.0964025 0.520493
-0.249672 0.399352 -0.0124819 -0.388806 0.844124 -0.369167
-0.0690669 0.358135 -0.294506 -0.348727 0.868451 -0.352396
0.0356549 -0.39748 -0.407108 0.483489 -0.210838 -0.84958
-0.0704481 -0.466089 -0.262312 -0.491643 -0.870795 -0.00190762
0.239599 -0.299573 -0.315343 0.483488 -0.210839 -0.84958
0.0621141 -0.178925 -0.446289 0.483488 -0.210838 -0.84958
0.543745 0.0942628 -0.0848551 0.820805 0.367188 0.437553
0.500207 -0.000170867 -0.241335 0.483488 -0.210839 -0.84958
0.426393 0.0929831 0.129462 0.838351 0.275219 0.470556
0.0272442 -0.389337 0.221384 0.130805 -0.921853 0.364797
0.25384 0.143681 -0.41724 0.483486 -0.21084 -0.849581
0.139576 0.0530971 -0.459786 0.483487 -0.21084 -0.84958
-0.550166 0.0253684 0.126885 -0.899437 -0.110112 -0.422952
-0.344395 -0.299669 0.0682823 -0.632522 -0.76697 -0.108042
-0.100963 -0.448951 -0.191452 -0.47304 -0.880972 0.0110279
0.0027865 0.343716 0.442327 -0.483488 0.210839 0.84958
0.588451 -0.209064 -0.139276 0.483489 -0.210838 -0.84958
0.174674 0.360864 0.277635 0.641523 0.726459 0.246384
0.184052 -0.0265884 -0.4147 0.483488 -0.210839 -0.84958
0.552356 0.0765428 -0.00597208 0.838203 0.27693 0.469814
-0.407853 0.371878 0.121982 -0.573734 0.69281 -0.436857
0.40271 -0.0964698 -0.272922 0.483487 -0.210839 -0.84958
-0.338394 -0.135 -0.271579 -0.889022 -0.253127 -0.381533
0.15147 -0.455416 0.0100533 0.130587 -0.921738 0.365166
-0.166205 0.297952 0.357513 -0.483488 0.210839 0.84958
-0.229381 0.177553 -0.385994 -0.724524 0.500017 -0.474393
-0.124137 -0.392411 0.209152 -0.12965 -0.965151 0.22732
0.518122 -0.160987 0.0514658 -0.515061 0.2538 0.818717
-0.485403 -0.140217 0.103244 -0.829097 -0.476851 -0.291909
0.388015 -0.267829 0.0975342 0.652117 -0.511251 0.55979
0.452703 0.202209 -0.0280725 0.755071 0.551475 0.354602
-0.157202 -0.412399 0.0195423 -0.380833 -0.921711 0.0735938
0.1389 -0.0827185 0.547141 0.722882 -0.39068 0.569922
-0.22987 -0.227033 -0.459574 -0.875495 -0.32946 -0.353503
-0.292828 -0.276381 -0.213872 -0.790894 -0.558613 -0.249877
0.125285 0.275193 -0.523036 0.483488 -0.210839 -0.84958
-0.537167 0.13815 0.105501 -0.873486 0.132653 -0.468429
0.239012 0.378462 -0.333003 0.165228 0.982249 -0.0888032
0.243687 0.329148 0.191459 0.641524 0.726459 0.246384
-0.344537 -0.00245271 -0.289769 -0.890326 0.0356094 -0.45393
0.187589 -0.339342 -0.335072 0.483488 -0.210839 -0.84958
0.238612 -0.231447 0.303248 0.61847 -0.559005 0.552275
0.228222 0.364386 0.109563 0.549831 0.817454 0.171621
0.0901429 0.421832 0.268101 0.481427 0.86822 0.120094
-0.437503 0.139614 -0.0733842 -0.848216 0.228486 -0.477832
-0.158345 0.436063 0.00367212 -0.224074 0.928425 -0.296341
-0.201228 0.233618 -0.361872 -0.642448 0.615515 -0.45651
-0.330456 -0.309986 0.39315 -0.340583 -0.934905 0.0997739
-0.0349019 -0.0179538 -0.541447 0.483488 -0.210839 -0.84958
0.167252 0.407883 -0.12172 0.251607 0.967202 -0.0348452
0.598829 -0.101417 -0.160084 0.483488 -0.210839 -0.84958
-0.163398 -0.392216 -0.321626 -0.686996 -0.710353 -0.153082
-0.359772 0.425828 0.16498 -0.42798 0.817727 -0.38491
0.240202 -0.36181 -0.299554 0.483488 -0.210839 -0.84958
0.00474368 0.0964737 0.504798 -0.483488 0.210839 0.84958
-0.227008 -0.177636 -0.573858 -0.43488 0.18129 0.882051
0.0535909 0.413591 0.430527 0.581931 0.789032 0.196942
0.343275 -0.342386 0.066741 0.535051 -0.65832 0.529467
-0.0732289 -0.349437 0.357422 0.0877384 -0.935024 0.343557
-0.0324999 0.474019 0.297686 0.330238 0.943773 0.0153043
-0.26347 -0.357752 0.0745369 -0.495883 -0.868374 -0.00511671
0.598304 -0.0170752 -0.119918 0.848516 0.153972 0.506274
-0.230094 -0.117961 -0.516306 -0.899182 -0.0810215 -0.430008
0.389271 0.245738 0.035507 0.716481 0.62208 0.315709
-0.360797 0.0755372 -0.239483 -0.861891 0.18078 -0.473775
-0.205238 0.0793185 -0.508909 -0.812114 0.328658 -0.482136
-0.348665 0.0322678 0.319611 -0.483488 0.210838 0.84958
0.461536 0.135009 0.0351577 0.815077 0.389635 0.428759
0.537376 0.0601174 -0.235144 0.483488 -0.210838 -0.84958
-0.511643 0.0321771 0.0447674 -0.898569 -0.0616775 -0.434477
0.250263 -0.419554 0.0312947 0.338071 -0.821989 0.458304
-0.500152 -0.196956 0.290287 -0.483488 0.210839 0.84958
0.0904948 -0.302726 0.356482 0.37739 -0.795664 0.47381
0.445807 -0.161381 0.0968163 0.781657 -0.253486 0.569875
-0.0551246 -0.380992 0.264489 0.0443898 -0.945844 0.321573
-0.41466 -0.00150667 -0.150381 -0.895529 -0.0130647 -0.444812
0.428598 0.222415 -0.337326 0.483489 -0.210838 -0.84958
-0.157843 -0.362124 0.317194 -0.0862583 -0.96395 0.251716
-0.229541 -0.355112 0.289255 -0.257839 -0.954212 0.151654
0.278903 -0.450461 -0.046798 0.294086 -0.848699 0.439571
0.227019 0.339227 -0.481032 0.483488 -0.210838 -0.84958
0.0952516 -0.183695 0.511393 0.588193 -0.597797 0.544672
0.0565984 0.323126 -0.562169 0.921173 0.28943 -0.260135
-0.116436 0.0527268 -0.605388 0.483488 -0.210839 -0.84958
-0.470553 0.0713369 -0.0360716 -0.882971 0.0842242 -0.461809
-0.389663 -0.153565 0.342397 -0.483488 0.210839 0.84958
-0.0567565 0.352157 0.406347 -0.483488 0.210839 0.84958
-0.357175 0.285052 -0.0724488 -0.669062 0.581067 -0.463376
0.512593 0.228162 -0.214763 0.667135 0.695016 0.268111
-0.334548 0.198725 0.286335 -0.483488 0.210839 0.84958
0.027646 -0.129752 0.573974 -0.483489 0.210838 0.84958
-0.0349728 0.391445 -0.22959 -0.224353 0.928521 -0.29583
0.285956 -0.244235 -0.302695 0.483488 -0.210838 -0.84958
0.310081 -0.0731772 -0.331416 0.483488 -0.210838 -0.84958
-0.162305 0.202991 -0.456904 -0.663961 0.58838 -0.46148
-0.496193 0.248029 0.100013 -0.773474 0.412741 -0.481023
0.301099 0.048523 0.352706 0.844937 0.0351282 0.533711
0.0600114 0.339127 0.476032 -0.483488 0.210839 0.84958
-0.207411 0.275281 -0.294217 -0.606983 0.657137 -0.446925
0.312366 0.237054 -0.407105 0.483488 -0.210839 -0.84958
0.350339 -0.120858 -0.296673 0.483488 -0.210838 -0.84958
0.179414 -0.00656576 0.529479 0.811299 -0.158718 0.562674
-0.469908 0.122767 0.228154 -0.483488 0.210838 0.84958
0.155828 0.11822 0.577516 0.847977 0.0837403 0.523377
-0.0538426 0.372062 -0.381244 -0.350946 0.867675 -0.352105
-0.151858 0.293221 -0.337142 -0.534041 0.731531 -0.423867
-0.106434 -0.289724 -0.514711 0.483486 -0.210839 -0.849581
0.560096 -0.0205136 -0.202204 0.483488 -0.210839 -0.84958
-0.00065178 0.17058 -0.568744 0.483488 -0.210839 -0.84958
-0.149765 -0.0400542 0.450751 -0.483488 0.210838 0.84958
0.178502 -0.099456 0.485438 0.722882 -0.39068 0.569922
-0.0634282 0.465572 0.103817 0.0790588 0.987213 -0.13842
0.025185 -0.214774 0.545246 0.48853 -0.704725 0.514491
-0.171161 -0.352556 -0.499347 0.578748 -0.791685 -0.19567
0.0459537 -0.484148 -0.0829525 -0.129574 -0.965032 0.227867
-0.216365 0.228862 0.346113 -0.483488 0.210839 0.84958
0.249339 0.208552 -0.4359 0.483488 -0.210838 -0.84958
-0.501866 -0.0750015 0.0711575 -0.881238 -0.299641 -0.36556
0.443607 0.317268 -0.147378 0.59969 0.771589 0.212186
-0.104078 -0.442362 -0.0808038 -0.380833 -0.921711 0.0735939
0.114931 0.361922 -0.533622 0.751584 0.396688 0.527029
0.253827 0.0452634 0.427164 0.839734 -0.0135462 0.542829
-0.299361 -0.329048 0.320674 -0.340583 -0.934905 0.0997739
0.432481 -0.271658 0.0413716 0.675305 -0.475402 0.563876
0.541216 -0.245088 -0.0130585 -0.447748 0.37723 0.810691
0.486999 0.106205 -0.275251 0.483488 -0.210838 -0.84958
-0.137175 -0.334917 0.411335 0.0443906 -0.945844 0.321573
0.185684 -0.168973 0.423438 0.674152 -0.477268 0.563679
0.0695374 0.421615 -0.133971 0.0696428 0.987187 -0.143566
-0.187883 -0.394753 0.081782 -0.380833 -0.921711 0.0735938
-0.254386 -0.323896 0.425027 -0.172782 -0.963925 0.20247
0.100986 0.430768 0.0449717 0.289991 0.956968 -0.0108744
0.233343 0.388309 -0.147766 0.321565 0.946836 0.00986712
-0.0620253 -0.334892 -0.478229 0.483488 -0.210838 -0.84958
-0.513084 -0.0867287 0.255573 -0.483488 0.210839 0.84958
-0.270037 0.415839 0.269167 -0.483488 0.210839 0.84958
0.0172521 0.37717 -0.313524 -0.196384 0.93876 -0.28313
-0.396989 0.119613 -0.154865 -0.848216 0.228486 -0.477832
-0.217486 0.146531 0.365907 -0.483488 0.210839 0.84958
0.3398 0.353592 -0.304484 0.330629 0.943647 0.0146433
0.0236774 0.455037 0.24564 0.369604 0.92826 0.0415565
-0.313032 0.353203 0.260243 -0.483487 0.210839 0.84958
-0.409312 0.255061 -0.029686 -0.724744 0.499331 -0.474779
-0.377676 -0.00473535 -0.224748 -0.895599 -0.0130306 -0.444671
-0.486439 0.190733 0.201879 -0.483488 0.210838 0.84958
0.351724 -0.404346 -0.225532 0.483488 -0.210839 -0.84958
0.463725 -0.409246 -0.138538 0.523133 -0.670743 0.525772
-0.204349 -0.111713 -0.591859 0.428415 -0.285211 -0.857389
0.490846 0.251259 -0.309059 0.483487 -0.21084 -0.849581
0.0911607 -0.430544 0.0943994 0.130587 -0.921738 0.365166
0.154167 -0.542895 -0.214482 0.544188 -0.259296 -0.797888
-0.118724 0.426241 0.352697 -0.483488 0.210839 0.84958
0.0709071 -0.460858 0.0099384 0.000870391 -0.954284 0.298901
-0.158245 0.275828 -0.431818 0.309689 -0.312556 -0.897999
-0.0347061 0.413037 -0.154736 -0.13852 0.95715 -0.254315
0.345086 -0.257582 -0.265732 0.483488 -0.210839 -0.84958
-0.327011 -0.208108 -0.232001 -0.845224 -0.434099 -0.311696
0.460351 -0.330495 0.0125549 -0.607718 0.0950015 0.78845
0.050913 0.216479 0.501292 -0.483488 0.210839 0.84958
-0.335185 -0.15674 0.374188 -0.483488 0.210839 0.84958
0.141231 0.295943 0.488011 0.778505 0.498914 0.380808
0.128833 0.244665 0.53864 -0.483488 0.210838 0.849581
0.396052 -0.207586 0.135481 0.722626 -0.390567 0.570324
-0.246907 -0.315621 -0.268534 -0.768912 -0.59742 -0.227737
-0.160972 -0.414932 -0.130797 -0.532198 -0.846057 -0.0308591
0.323339 -0.395357 0.0128216 0.440342 -0.747264 0.49769
-0.169459 -0.279954 -0.553002 0.483487 -0.210839 -0.849581
-0.378746 -0.290695 0.22763 -0.566894 -0.821811 -0.0570837
0.292092 -0.524625 -0.21546 0.130817 -0.921858 0.36478
-0.492553 -0.00542032 0.247078 -0.483488 0.210839 0.84958
-0.402958 -0.27884 0.306231 -0.532019 -0.846158 -0.0311945
0.27676 0.294955 -0.441738 0.483488 -0.210838 -0.84958
-0.170479 0.110399 0.401625 -0.483488 0.210838 0.849581
-0.291976 0.478965 0.239126 -0.224076 0.928424 -0.296341
0.282045 0.350006 0.00577957 0.555424 0.812432 0.177367
0.0263896 -0.0613738 -0.495791 0.483488 -0.210839 -0.84958
-0.288889 0.158822 0.322222 -0.483488 0.210839 0.84958
0.224868 -0.522887 -0.173641 0.581921 -0.233756 -0.778926
0.207192 0.0538605 -0.421496 0.483486 -0.21084 -0.849581
0.246351 -0.0723759 -0.367883 0.483488 -0.210839 -0.84958
0.0153542 -0.334819 0.351416 0.257253 -0.868583 0.423538
0.198739 0.0947399 0.511714 0.844937 0.0351282 0.533711
-0.130339 0.200226 -0.573636 -0.753752 -0.369979 0.543114
-0.225203 0.0254532 0.391563 -0.483488 0.210839 0.84958
0.445593 -0.0339899 -0.264022 0.483488 -0.210839 -0.84958
-0.0603128 -0.257997 0.550429 0.338214 -0.822062 0.458067
-0.317303 -0.326875 0.246101 -0.458579 -0.888404 0.0210836
0.225951 0.383697 -0.00632816 0.445291 0.890436 0.0940163
0.294224 0.311957 0.110556 0.641524 0.726459 0.246384
-0.185362 -0.401549 -0.0623617 -0.495883 -0.868374 -0.00511659
0.0926463 -0.249964 0.432988 0.48853 -0.704725 0.514491
-0.171583 -0.230099 0.485498 -0.483486 0.210839 0.849581
-0.228595 -0.368403 -0.121822 -0.62955 -0.769743 -0.105656
0.386352 0.027675 0.218508 0.847977 0.0837401 0.523377
0.0292565 0.44569 0.338137 0.445291 0.890436 0.0940163
0.089232 0.0805683 -0.495254 0.483488 -0.210839 -0.84958
-0.498329 -0.15934 0.174917 -0.790894 -0.558613 -0.249877
0.447191 0.155588 -0.31016 0.483488 -0.210839 -0.84958
-0.190743 -0.311884 0.486323 0.000869874 -0.954284 0.298901
-0.143492 -0.203147 -0.557286 0.483489 -0.210839 -0.84958
-0.025841 0.436614 0.402981 -0.483487 0.210838 0.84958
0.492503 -0.086732 0.0529416 0.830211 -0.0742357 0.552485
-0.241877 0.365679 -0.0930963 -0.466155 0.789323 -0.399586
-0.245469 -0.362195 -0.0602077 -0.600423 -0.795393 -0.0827209
-0.150728 0.123806 -0.638864 -0.755354 0.445442 -0.480648
0.465992 0.00190829 0.0937483 0.847691 0.0838519 0.523822
0.311246 -0.0167089 0.334675 0.822894 -0.11059 0.557329
-0.379537 0.106482 0.283624 -0.483488 0.210839 0.84958
0.432633 0.314909 -0.33375 0.445292 0.890436 0.0940164
-0.156569 0.222045 0.381834 -0.483487 0.210838 0.84958
0.362663 0.245015 0.0957356 0.740225 0.580702 0.338899
0.357233 -0.475508 -0.204737 0.483488 -0.210838 -0.84958
0.411025 0.0126005 -0.295257 0.483487 -0.210839 -0.84958
-0.182855 0.43895 0.313046 -0.483488 0.210839 0.84958
0.546536 0.18599 -0.261169 0.483485 -0.21084 -0.849581
0.236811 -0.161055 0.368176 0.699417 -0.434529 0.567451
-0.214755 -0.367789 -0.201798 -0.663163 -0.736585 -0.132886
-0.0655036 0.136045 -0.59708 0.483487 -0.210841 -0.84958
-0.286844 -0.317916 -0.111307 -0.692193 -0.704354 -0.157336
-0.0802255 0.224436 -0.621512 -0.765192 -0.424648 0.483895
-0.17484 -0.116417 0.455432 -0.48349 0.210838 0.849579
-0.274915 0.420149 0.0620283 -0.348727 0.86845 -0.352396
-0.419307 0.392658 0.189972 -0.483488 0.210838 0.84958
-0.294582 0.314643 -0.117548 -0.573734 0.69281 -0.436857
0.164637 0.388281 0.199455 0.549831 0.817455 0.17162
-0.300148 -0.326292 -0.001765 -0.632522 -0.76697 -0.108042
0.0735207 0.342601 -0.464402 -0.247258 0.918974 -0.307164
0.0122748 -0.420695 0.138337 0.000869874 -0.954284 0.298901
-0.418662 -0.00903549 0.290026 -0.483488 0.210839 0.84958
0.0904724 -0.531244 -0.2747 -0.248792 -0.955717 0.157189
0.28633 0.362875 -0.095095 0.445292 0.890436 0.0940164
0.4621 -0.216538 -0.209326 0.483488 -0.210838 -0.84958
-0.11331 -0.389236 -0.493929 0.483489 -0.210838 -0.849579
-0.361862 0.288572 0.248494 -0.483488 0.210838 0.84958
-0.302159 0.020674 -0.366026 -0.873533 0.132676 -0.468334
0.217448 -0.312411 0.228947 0.488529 -0.704726 0.514491
-0.210945 -0.339671 -0.326747 -0.755491 -0.61897 -0.214732
0.522995 -0.333258 -0.119681 0.647587 -0.518998 0.557918
-0.354142 -0.263481 -0.0419791 -0.745081 -0.634714 -0.20492
0.245833 0.127702 0.42626 0.847541 0.180306 0.499164
0.476133 0.0626167 0.0574949 0.844064 0.228029 0.485344
0.220569 -0.241588 -0.340563 0.483488 -0.210839 -0.84958
0.289148 -0.462015 -0.246832 0.483488 -0.210839 -0.84958
0.113888 0.387876 0.353494 0.612519 0.758676 0.221883
-0.144332 -0.440357 -0.426826 -0.688255 -0.711323 -0.142565
-0.0819513 -0.413178 0.145042 -0.12965 -0.965151 0.22732
0.199233 -0.160722 -0.372773 0.483488 -0.210839 -0.84958
-0.0226351 -0.439806 0.065829 -0.129712 -0.965117 0.227429
-0.401163 -0.103562 -0.146178 -0.889022 -0.253127 -0.381532
-0.168337 -0.392778 0.156316 -0.257838 -0.954212 0.151655
-0.220185 0.349874 0.313908 -0.483488 0.210839 0.84958
0.575868 0.0981317 -0.148848 0.809242 0.412116 0.418675
0.379356 -0.429477 -0.0208497 -0.448667 0.297765 0.842635
-0.0467644 0.313508 -0.421882 -0.422626 0.82136 -0.383086
0.151904 -0.545675 -0.136702 -0.0241121 -0.957804 0.286408
0.203757 0.246393 0.422498 0.794632 0.456161 0.400596
-0.521913 -0.155383 0.240718 -0.790894 -0.558613 -0.249877
0.160647 0.372052 -0.404257 -0.0388447 0.978345 -0.203301
0.150481 -0.221069 -0.385541 0.483488 -0.210838 -0.84958
0.0055871 -0.472571 -0.405584 0.483489 -0.210838 -0.84958
-0.147013 0.0416457 0.432042 -0.483488 0.210838 0.84958
-0.0836696 0.248085 0.416858 -0.483488 0.210839 0.84958
-0.296621 -0.175034 -0.34182 -0.881599 -0.298491 -0.365631
0.130928 -0.427419 -0.345459 0.483487 -0.210839 -0.84958
-0.087993 -0.0782165 0.495375 -0.483489 0.210837 0.84958
0.460939 -0.118157 -0.234402 0.483488 -0.210839 -0.84958
0.170458 0.394443 -0.301096 -0.280966 0.149835 0.947949
-0.446205 0.289493 0.0633868 -0.697739 0.540858 -0.469717
0.0206321 0.456475 0.164369 0.289992 0.956967 -0.0108742
0.136793 -0.188891 0.460345 0.61847 -0.559005 0.552275
0.170685 0.208381 -0.480619 0.483488 -0.210839 -0.84958
0.275511 -0.172263 -0.3265 0.483487 -0.21084 -0.84958
-0.362144 0.218662 -0.139219 -0.75001 0.45659 -0.478551
0.586375 -0.0150318 -0.030263 0.52486 -0.127104 -0.841645
0.334885 0.350618 -0.21102 0.413001 0.907935 0.0713062
0.496462 0.245616 -0.122198 0.578514 -0.263423 -0.771965
-0.47588 0.337149 0.164275 -0.669062 0.581067 -0.463376
0.457523 -0.377794 -0.0478961 0.561903 -0.18337 -0.806623
0.0460223 0.447094 0.0892268 0.24896 0.96781 -0.0369155
0.347779 0.020917 0.280623 0.844937 0.0351267 0.533711
0.0320602 0.0180933 -0.512286 0.483487 -0.210841 -0.84958
-0.0879288 0.486653 0.260477 0.164956 0.982338 -0.0883269
0.303282 0.234467 0.237265 0.778506 0.498912 0.380809
0.35388 -0.488092 -0.086742 0.338813 -0.821151 0.459257
-0.440124 0.0386707 -0.0990604 -0.890326 0.0356093 -0.45393
0.121638 -0.303797 -0.381425 0.483487 -0.210839 -0.84958
-0.289972 -0.00865423 0.363168 -0.483488 0.210839 0.84958
-0.00984924 0.298265 -0.59045 -0.457971 0.795069 -0.397652
-0.450927 -0.235582 0.243668 -0.663112 -0.736613 -0.132984
0.113855 0.0172812 0.586546 -0.483488 0.210839 0.84958
-0.345544 0.39797 0.0916271 -0.466155 0.789323 -0.399586
-0.0902784 0.265316 -0.462928 -0.538844 0.726682 -0.426123
-0.124926 0.357947 0.366116 -0.483487 0.210838 0.849581
-0.399236 -0.181487 -0.0732226 -0.845224 -0.434099 -0.311696
0.0932829 0.429215 0.186848 0.407987 0.910466 0.067816
0.0996503 -0.479693 -0.050278 0.000870391 -0.954284 0.298901
-0.289145 -0.241289 -0.288653 -0.840304 -0.447863 -0.305464
0.413308 0.181954 0.08023 0.794573 0.456182 0.400689
-0.0713951 -0.458599 -0.397791 -0.605882 -0.790787 -0.0869605
0.0465854 -0.313237 -0.421794 0.483487 -0.210839 -0.84958
0.270897 0.00108065 -0.372144 0.483488 -0.210839 -0.84958
0.179838 0.326975 0.351446 0.694489 0.656777 0.293819
0.395576 -0.355288 -0.00240949 0.546635 -0.645862 0.532966
-0.242818 -0.15177 0.42552 -0.483488 0.210839 0.84958
0.514619 0.135854 -0.0241314 -0.296956 0.905788 -0.302268
-0.218961 -0.0237163 -0.533762 -0.873099 0.134423 -0.468646
0.347018 -0.256371 0.155607 0.646991 -0.518724 0.558863
-0.303086 -0.220906 0.408379 -0.483488 0.210839 0.84958
0.0190712 0.281742 0.466974 -0.483488 0.210838 0.84958
-0.317626 0.21592 -0.210808 -0.724744 0.49933 -0.474779
-0.0757559 0.103899 0.457144 -0.483488 0.210839 0.84958
0.528231 -0.246816 -0.164178 0.483488 -0.210839 -0.84958
-0.371822 -0.101117 -0.214555 -0.894659 -0.205955 -0.396445
0.403971 0.319012 -0.245982 0.490831 0.861983 0.126767
0.192717 -0.416051 0.0770961 0.257253 -0.868583 0.423538
-0.0252203 -0.319825 0.406809 0.257253 -0.868583 0.423538
0.40489 -0.414684 -0.0891434 0.452641 -0.736923 0.502057
0.169037 0.184554 0.534278 0.844066 0.228019 0.485346
-0.385318 -0.0764875 0.325742 -0.483488 0.210839 0.84958
0.237464 -0.449566 -0.279334 0.483488 -0.210838 -0.84958
-0.120377 0.45472 0.0512113 -0.0949817 0.967906 -0.232673
-0.273683 -0.0250955 -0.430072 -0.882972 0.0842208 -0.461809
0.257567 0.279261 0.266676 0.740302 0.580675 0.338777
-0.435142 -0.0655882 -0.0901176 -0.894658 -0.205955 -0.396446
-0.132155 0.499628 0.322187 0.164954 0.982338 -0.088328
-0.012878 -0.49012 -0.210164 -0.351944 -0.931331 0.0935878
-0.541842 -0.079795 0.17488 -0.859312 -0.390241 -0.330598
0.599722 0.0500267 -0.19716 0.483491 -0.210837 -0.849579
0.146744 -0.383179 0.171432 0.297985 -0.846312 0.441543
-0.0202866 0.206892 0.463152 -0.483488 0.210839 0.84958
-0.495049 0.259864 0.179823 -0.483487 0.21084 0.84958
0.466681 -0.20916 0.0436129 0.746054 -0.341883 0.571418
-0.569961 0.102485 0.176248 -0.483488 0.210838 0.84958
-0.0352517 -0.473746 -0.133857 -0.317295 -0.94137 0.114658
0.318665 0.262474 0.161938 0.740302 0.580675 0.338777
-0.116113 -0.0737239 -0.573823 0.483486 -0.210839 -0.849581
0.244069 0.402596 -0.266464 -0.779764 0.204873 0.591604
0.328864 0.100954 0.294941 0.847541 0.180306 0.499164
-0.152385 0.493289 0.251031 0.0356664 0.986012 -0.162816
0.341107 0.299852 0.0243531 0.641244 0.726552 0.246837
0.368733 -0.043755 0.24443 0.822894 -0.110591 0.557329
0.322723 -0.331752 -0.260052 0.483488 -0.210838 -0.84958
0.279882 -0.321696 0.156085 0.523143 -0.670747 0.525757
-0.184742 -0.0386386 -0.601735 -0.873486 0.132653 -0.46843
-0.435908 -0.213326 0.101245 -0.768912 -0.597419 -0.227737
0.0878921 0.143173 -0.511553 0.483488 -0.210838 -0.84958
0.278565 0.215873 0.308433 0.80872 0.412302 0.419498
0.0713936 -0.251047 -0.423109 0.483488 -0.210838 -0.84958
0.118606 0.411363 -0.178757 0.108808 0.986631 -0.121329
0.382835 0.0803765 -0.32812 0.483489 -0.210838 -0.84958
-0.338134 0.371179 0.0323741 -0.503233 0.758984 -0.413158
0.0584386 0.40551 -0.223219 -0.051463 0.976346 -0.210002
-0.152982 0.349733 -0.226692 -0.428301 0.817844 -0.384305
