ply
format ascii 1.0
comment Created by Open3D
element vertex 512
property double x
property double y
property double z
property double nx
property double ny
property double nz
end_header
0.0251006 -0.522772 0.122373 0.447287 -0.769255 -0.456269
-0.305492 0.0405447 0.0894639 -0.939616 -0.0625569 0.336464
0.0016205 -0.366721 0.394704 -0.201952 -0.700558 0.684422
-0.116293 -0.155494 -0.253869 -0.02094 -0.335493 -0.94181
-0.0957395 0.208289 -0.106982 0.157302 0.728306 -0.666953
0.204398 -0.0162604 0.344868 0.774132 0.2933 0.560976
-0.405424 -0.131387 0.385967 -0.92356 0.37896 -0.0585325
0.328323 0.0735322 0.0611218 0.544147 -0.443764 0.712024
-0.154478 -0.432315 0.250203 -0.62072 -0.382625 0.684328
0.23963 0.0539662 0.259366 0.5013 -0.0710616 0.862351
-0.37066 -0.0657863 0.459667 -0.351643 -0.581293 0.733788
0.0795656 0.167372 -0.23857 -0.748537 0.0457683 -0.661512
-0.348917 -0.0899632 -0.0525155 -0.988101 0.148857 -0.0387139
-0.0488263 0.1344 -0.17438 0.379282 0.334428 -0.86273
-0.229293 -0.0656672 0.518294 -0.15685 -0.753317 0.63868
0.139813 -0.301973 -0.11151 0.261224 -0.898318 0.353252
-0.37804 -0.168516 0.370555 -0.54075 -0.420641 0.728457
0.0492867 -0.383844 0.393807 -0.271694 -0.744986 0.609244
0.188431 0.0907617 0.279349 0.390623 0.609891 0.689526
0.070044 -0.305848 0.455859 -0.190352 -0.712129 0.67575
-0.266362 -0.11958 -0.200101 -0.771591 -0.317743 -0.551078
0.318286 0.0118196 0.144404 0.767107 -0.491726 0.41201
-0.0691914 -0.246174 0.456398 -0.140406 -0.63935 0.755988
-0.119357 -0.470221 0.252687 -0.391167 -0.511737 0.764927
0.209541 -0.077061 0.356026 0.857492 0.221781 0.464242
0.291708 -0.106309 -0.131958 0.882452 -0.450797 0.134391
-0.10688 -0.42131 0.288926 -0.21613 -0.686925 0.693846
0.0338812 -0.147516 0.57039 0.238601 0.703451 0.669497
0.0613519 0.155786 -0.144158 -0.702223 0.706969 0.0841303
-0.455081 -0.320159 0.232263 -0.521015 -0.483671 0.703282
0.0927397 -0.383632 0.00398589 0.40331 -0.872239 -0.27666
0.255897 -0.192051 -0.00421635 0.975487 -0.219916 -0.00786909
-0.0194084 -0.159805 0.526858 -0.569658 0.138843 0.81007
-0.00266741 0.258337 0.161937 0.58095 0.458919 0.672228
-0.0385035 -0.53463 0.230035 -0.0617088 -0.851473 0.520756
0.0515335 0.214372 -0.0877585 0.0789277 0.771748 -0.631011
0.060258 -0.517737 0.167075 0.190798 -0.979993 -0.0566476
-0.216576 0.265646 0.000700826 -0.975749 0.188093 0.111963
-0.194637 0.226058 0.189378 -0.497309 0.826925 0.262448
0.233435 -0.0383261 0.331875 0.389711 0.448813 0.804172
-0.00599884 0.226319 -0.086717 -0.53654 0.66461 0.520017
0.0402859 0.268963 0.147081 -0.0946746 0.46612 0.879641
-0.0906686 -0.189869 -0.205545 -0.147109 -0.641646 -0.752761
-0.0774946 0.0439269 -0.216537 -0.0749453 0.666385 -0.741832
0.251198 -0.0625212 0.273782 0.971021 0.0459866 0.234528
-0.0983301 0.300948 -0.0344446 0.0412637 0.759639 -0.649034
0.0205966 -0.0794985 0.50887 -0.0281753 0.491413 0.870471
-0.0286116 -0.0610472 0.477281 -0.142701 0.67909 0.720051
0.0763438 0.0524734 -0.184456 0.368021 0.557238 -0.744343
0.136465 -0.195705 0.577742 0.644118 0.583072 0.495116
-0.0553728 -0.481581 0.264265 -0.125314 -0.665639 0.735677
-0.362033 -0.0331977 0.291937 -0.910777 0.358183 -0.205402
0.144196 0.0886434 0.304135 0.263794 0.950026 0.166921
-0.0743819 -0.035194 -0.293932 -0.193527 0.714799 -0.672019
0.105077 -0.458172 0.138973 0.498736 -0.865714 0.0424456
-0.101748 -0.0974492 0.558379 0.326856 0.618726 0.714383
0.150852 0.286115 -0.361512 0.671161 0.158133 -0.724249
-0.395283 -0.168134 0.0400599 -0.805078 0.473191 -0.357685
-0.156194 0.236558 -0.094892 0.0659022 0.777391 -0.625555
-0.0101054 0.164974 -0.140647 0.460512 0.545693 -0.700106
0.0577773 -0.0931728 0.525257 -0.273293 -0.165688 0.947554
-0.285453 0.0618905 0.00432597 -0.977543 0.00903099 0.210542
-0.270171 0.105466 0.304711 -0.448152 0.82152 -0.352513
-0.325576 -0.186192 -0.102749 -0.771499 -0.162816 -0.615045
-0.374064 -0.447538 0.15493 -0.721222 -0.141082 0.678185
0.327665 0.0452862 -0.0447345 0.389251 -0.714367 0.581517
0.118609 -0.420909 0.214708 0.928188 -0.00224066 -0.372104
-0.0449561 -0.205047 0.487802 0.303359 -0.642644 0.70355
-0.0349079 -0.137781 -0.276987 -0.366801 -0.362631 -0.856712
-0.269681 0.169352 0.227105 -0.499458 0.83595 0.22744
0.147412 0.2243 0.0296026 -0.0941117 0.803992 -0.587146
-0.279587 0.0765216 0.0898502 -0.983322 -0.0809794 0.162849
0.17236 -0.349305 0.0519304 0.84402 -0.478773 0.241676
0.204667 -0.269855 0.0681747 0.968979 -0.021635 -0.246196
-0.0548532 -0.165343 -0.23687 0.26866 -0.704444 -0.656947
-0.211661 -0.290154 0.349834 -0.413497 -0.54653 0.728234
-0.0553908 -0.0644787 0.525365 0.0852156 0.723547 0.684995
0.21132 0.0037013 0.307605 0.554942 0.294222 0.778121
-0.237878 0.118592 0.351033 -0.37257 0.830741 0.413596
0.129123 -0.305107 0.459618 0.914286 -0.390049 0.109287
0.0145196 -0.181095 -0.25963 -0.298964 0.177063 -0.937694
-0.134251 0.31029 0.0320416 0.990419 -0.072134 -0.117759
0.156654 0.126274 -0.083461 0.345414 0.579554 -0.73811
-0.132132 0.0637415 0.428319 0.198409 0.691679 0.694417
-0.306393 0.0125954 0.477729 -0.479729 0.843606 0.241224
0.196378 -0.261617 -0.108597 0.513413 -0.821438 -0.248288
-0.369407 -0.120111 -0.0070036 -0.985964 0.118969 0.117134
0.0818818 0.226949 -0.292895 -0.892519 -0.0362546 -0.44955
-0.277433 -0.353901 0.010046 -0.535754 -0.644171 -0.545904
-0.386784 -0.0493083 0.430058 -0.931947 0.354732 -0.0750931
-0.221792 -0.342757 0.330136 -0.168636 -0.725621 0.66711
0.0795287 -0.24344 -0.218024 0.250331 -0.7937 -0.554414
0.184982 -0.208966 0.454493 0.857406 -0.380659 0.346343
-0.164411 0.271419 0.165457 -0.472637 0.65162 0.5933
-0.212526 0.163443 -0.165348 0.0856823 0.748926 -0.657091
0.030978 -0.478954 0.300654 -0.309744 -0.626611 0.715135
-0.173715 -0.0398712 -0.350636 0.607994 -0.0186479 -0.793722
-0.159882 -0.48402 0.208025 -0.562229 -0.467566 0.682115
0.371185 0.131315 0.0427644 -0.134801 0.893905 -0.427507
-0.191498 0.272748 0.121953 -0.31436 0.101825 0.943827
0.283317 -0.113043 -0.0358002 0.880121 0.192852 -0.433814
-0.431417 -0.37998 0.121953 -0.704167 -0.262691 -0.659653
-0.220484 -0.202099 0.430011 -0.877067 -0.226075 0.423845
-0.291384 -0.172668 0.408846 -0.462497 -0.270096 0.844479
-0.0424018 0.082775 0.361902 0.163924 0.793961 0.585453
-0.189991 0.311765 -0.0150623 -0.208073 0.950946 -0.228927
-0.112947 -0.217273 -0.178764 -0.143187 -0.741968 -0.654966
0.196561 -0.179107 0.319158 0.893813 -0.367472 0.257027
0.161842 -0.273668 0.454173 0.94179 -0.238686 -0.23677
-0.250598 0.165951 0.173554 -0.63349 0.605647 0.481541
0.235745 0.160669 0.0062545 0.00825015 0.864135 -0.503192
0.244616 0.0400185 -0.0912935 0.469266 0.44009 -0.765578
-0.252894 0.0634582 -0.301722 0.0765108 0.899987 -0.42915
-0.119318 0.138233 0.313112 0.114937 0.969682 0.215652
-0.191661 0.248074 -0.12769 0.201494 0.669794 -0.714686
-0.106184 -0.19224 0.498737 0.203659 -0.851485 0.483214
-0.170389 -0.101208 0.540607 -0.307474 -0.625119 0.717416
0.260872 -0.214075 -0.196265 0.574756 -0.732959 0.363905
-0.037472 -0.569836 0.170914 -0.59135 -0.245298 -0.768202
0.279217 -0.0420637 -0.148196 0.00325263 0.721442 -0.692467
-0.415135 -0.189745 0.156264 -0.953635 0.191318 0.23233
-0.428381 -0.224749 0.256505 -0.810022 0.470767 -0.349634
-0.351158 0.004145 0.293469 -0.93959 0.227318 0.255923
0.226434 0.264289 0.0755189 0.242253 0.703155 -0.668495
0.138112 -0.230072 -0.225519 -0.414385 -0.734932 -0.536806
0.0646167 -0.0551019 0.474451 0.393758 0.76967 0.502556
-0.228139 -0.246558 0.356972 -0.0363057 -0.671242 0.740349
0.099881 -0.362637 0.448948 -0.478779 -0.526023 0.702901
-0.125727 -0.269712 -0.0910589 -0.303835 -0.711235 -0.6339
0.0362 0.281355 0.0110493 0.66407 0.332689 -0.669574
0.252296 -0.205092 -0.118653 0.917488 -0.37985 0.118028
-0.381005 -0.124001 0.166584 -0.725677 0.519584 -0.451027
0.106969 0.16247 -0.153397 0.363937 0.628454 0.687456
-0.101294 -0.451187 0.0790724 -0.678801 -0.602385 -0.419954
0.286504 -0.0208554 0.169337 0.904961 -0.385214 0.18071
0.142487 -0.3835 0.0539064 0.752176 -0.406906 -0.518323
0.00997487 -0.29512 0.434098 -0.636723 -0.327132 0.698261
0.232551 0.214305 0.145762 0.130464 0.596318 0.792076
-0.312137 -0.130946 0.459053 -0.356873 0.0178404 0.933983
-0.0040314 -0.141617 -0.299622 -0.245892 -0.481229 -0.841401
-0.224879 0.244465 -0.050729 -0.848443 -0.321302 0.420606
0.0687973 0.00199581 -0.238537 0.265938 0.724929 -0.635417
0.269281 -0.0516769 0.187276 0.576444 -0.656654 0.486331
0.261193 -0.137407 0.119594 0.957777 -0.24181 -0.155537
0.145213 -0.394293 0.0959448 0.849967 -0.438338 0.29226
-0.360179 -0.187971 -0.02581 -0.827617 -0.0434749 -0.559607
-0.126471 0.250385 -0.0695481 0.364232 0.540614 -0.758334
-0.301346 -0.355271 0.24407 -0.362807 -0.550852 0.75162
0.0849016 0.194739 0.222229 0.250469 0.638383 0.727827
-0.374386 -0.204313 0.0146277 -0.902921 -0.324967 -0.281302
0.130474 0.18632 -0.256443 0.685888 -0.143247 -0.713469
-0.32548 -0.318041 0.00516021 -0.0838508 -0.956578 -0.279154
-0.414267 -0.178918 0.276942 -0.543786 0.405314 -0.734859
-0.154306 -0.40199 0.275644 -0.0940964 -0.741998 0.663766
-0.183711 0.288771 -0.0687564 0.259432 0.655599 -0.709144
-0.221797 0.128913 -0.22129 -0.208069 0.85981 -0.466297
-0.238005 -0.445254 0.226201 -0.260857 -0.670442 0.694594
0.139665 -0.143707 -0.275492 -0.0185162 0.89665 -0.442352
-0.160406 -0.434077 0.0656533 -0.45383 -0.281321 -0.845516
-0.0923904 -0.533923 0.157337 -0.436727 -0.609404 -0.661737
0.0875814 0.164278 -0.0966496 0.371823 0.543646 -0.75246
-0.234937 -0.173898 0.442742 -0.478254 -0.404691 0.779422
-0.120411 0.252696 0.0774947 -0.493417 0.719825 -0.488253
0.13053 0.312007 -0.348088 -0.399523 0.916582 0.0161034
0.112859 -0.424129 0.0932684 0.502247 -0.85594 -0.122944
-0.296669 -0.24699 -0.0784887 0.355585 -0.716524 -0.600127
0.242206 0.0932125 -0.0283463 0.2006 0.797922 -0.568401
0.204966 -0.250997 -0.0159016 0.707731 -0.30194 0.638709
-0.182766 -0.221521 -0.134087 -0.579262 -0.20644 -0.788567
0.0940285 0.0692326 0.339274 0.583818 -0.327422 0.742934
0.151454 -0.0546915 0.438753 0.460989 0.574693 0.676178
0.0326203 -0.240234 -0.175949 0.0362448 -0.947997 -0.31621
0.118881 -0.233508 0.53843 -0.462073 -0.554681 0.691966
0.276907 -0.0141898 0.227728 0.867359 0.0832357 0.490673
-0.081034 0.347819 0.0103192 0.566186 0.328997 -0.755774
-0.253459 0.0809961 -0.258827 -0.93015 0.364378 -0.0452762
0.0594052 0.124417 -0.203911 -0.891107 -0.453688 -0.00976925
-0.0655276 -0.141843 0.538153 0.248857 -0.834205 0.49211
-0.416253 -0.4203 0.122775 -0.174329 -0.482626 -0.858301
0.199315 -0.294829 -0.0444833 0.704634 -0.3742 -0.602881
-0.316079 -0.0167843 -0.0440757 -0.865177 0.466482 -0.18402
0.346552 0.104166 0.124539 0.645401 -0.660168 0.384234
-0.363716 -0.264862 0.016713 -0.276376 -0.733491 -0.620973
-0.273476 -0.000653508 0.532262 0.205473 0.706363 0.677372
-0.299569 -0.0546739 -0.149857 -0.832654 0.355467 -0.424653
-0.00524602 -0.413189 0.013637 -0.16846 -0.663919 -0.728583
0.233829 -0.226232 0.0966239 0.956357 -0.283705 0.0699545
0.051749 -0.310968 -0.114581 0.0293125 -0.851087 -0.524206
0.0283611 -0.0190333 0.442465 0.240361 0.673937 0.698595
0.0231645 -0.0542204 -0.24581 -0.68583 0.532877 -0.49566
0.195362 0.0328069 0.340972 0.637922 0.378147 0.670865
-0.360622 0.000236187 0.454259 -0.466425 0.856876 -0.219571
-0.168847 -0.367364 0.327946 0.435589 -0.679495 0.59038
0.157219 -0.0713895 -0.212171 0.530217 0.322502 -0.784131
0.301107 -0.0280022 -0.0313698 0.836596 -0.444165 0.320662
-0.354516 -0.0292595 0.239579 -0.928517 0.368609 -0.0445475
-0.355621 -0.0136308 0.507925 -0.507225 0.792116 0.339523
-0.393504 -0.139219 0.22693 -0.0219735 0.662688 -0.748573
-0.44486 -0.246978 0.19637 -0.513682 0.29675 -0.805028
-0.100745 0.0854682 0.392376 -0.0193254 0.868019 0.496154
-0.214077 -0.148685 -0.223958 -0.0346143 -0.69537 -0.717818
0.103433 0.10684 -0.123866 -0.194412 0.714075 -0.672534
-0.0732119 -0.00993929 -0.242945 0.254004 0.697647 -0.669903
-0.168059 0.0824481 -0.241866 0.329089 0.596027 -0.732429
-0.365498 -0.0709222 0.123959 -0.939008 0.331585 -0.0911887
0.198859 -0.250697 0.202947 0.950742 -0.304656 0.0572277
0.105404 0.273878 0.0217513 -0.0419423 0.734598 -0.677205
-0.346397 -0.228508 0.354574 -0.254554 -0.662346 0.704628
0.186589 -0.211283 0.255233 0.704699 -0.466271 0.534782
-0.359171 -0.337961 0.0535184 -0.734946 -0.311435 -0.602381
-0.131635 0.00858435 0.456508 0.218787 0.705498 0.674096
0.167031 -0.0997664 -0.244667 0.234088 0.631045 -0.739584
0.0596706 0.330169 0.0729276 0.519211 0.303252 -0.799036
-0.166932 0.361411 -0.00541696 -0.9517 0.144465 0.270919
-0.355816 -0.144004 -0.067886 -0.944595 -0.253981 -0.207927
0.000126716 0.316669 0.0994408 -0.220781 -0.0259949 0.974977
-0.110068 0.400913 0.0347256 0.0757832 0.664322 -0.743595
-0.0341075 -0.361638 -0.0463755 -0.319779 -0.724873 -0.610165
-0.188298 -0.390798 0.0289839 -0.220368 -0.815723 -0.534821
-0.261853 -0.166167 -0.17201 -0.376951 -0.492953 -0.784159
-0.213427 -0.496294 0.179432 -0.466159 -0.478037 0.74443
0.0922256 -0.464335 0.339567 -0.424882 -0.490478 0.760859
0.0956403 0.221876 0.18281 0.288689 0.903876 0.315701
0.0673095 0.00857935 0.417084 0.346532 0.661466 0.665115
0.282221 -0.155719 -0.178073 0.883556 -0.436517 0.169652
0.0251637 0.0840043 -0.194795 0.322073 0.603913 -0.729081
0.224352 -0.141066 0.349525 0.99315 -0.116823 0.00244025
-0.177746 -0.476992 0.125201 -0.232527 -0.692286 -0.683133
0.280877 0.238483 0.108433 -0.136503 0.358698 0.923419
0.0472744 -0.410361 0.360232 -0.311026 -0.614025 0.725421
0.309168 -0.0670173 -0.109318 0.946846 -0.303735 -0.105963
-0.351216 -0.0215703 0.171474 -0.924813 0.373791 -0.0707134
-0.14926 -0.533695 0.193278 0.254603 -0.751201 0.608994
0.0414599 -0.368018 -0.0520923 -0.128782 -0.463605 -0.876633
0.0991689 -0.00551212 0.411904 0.200226 0.688358 0.69719
-0.0900698 -0.411521 0.0215587 0.195203 -0.939917 -0.280091
0.141527 -0.204401 -0.280071 -0.73414 -0.674925 0.0742615
-0.327472 -0.239809 -0.0501194 -0.693295 -0.378797 -0.613071
-0.2721 -0.301711 0.320643 -0.599157 -0.454712 0.658975
-0.225137 0.0499956 0.446624 0.42657 0.541862 -0.724171
0.260661 0.141531 0.183295 0.606159 0.0842825 0.790865
-0.0108519 -0.094228 -0.301786 0.109399 0.814602 -0.56961
-0.299879 0.0562276 0.415447 -0.496287 0.741009 0.452333
0.222663 -0.179946 0.143518 0.943857 -0.321117 -0.0775777
0.161076 0.272069 -0.308652 0.528053 0.641823 0.556078
-0.224807 0.218013 0.102468 -0.552912 0.671415 -0.493447
-0.375599 -0.076975 0.219056 -0.597502 0.361692 -0.71566
0.129176 0.128606 0.256819 0.382019 0.463706 0.799399
-0.317237 -0.445422 0.154419 -0.101874 -0.505072 -0.857044
-0.42258 -0.328068 0.090981 -0.867732 -0.268886 -0.418022
0.206062 -0.21812 -0.248635 0.415388 -0.652645 -0.633646
0.105114 0.274151 0.0910107 0.0936817 0.518448 0.849962
-0.114181 -0.294399 0.393675 -0.0294283 -0.83669 0.546886
-0.289348 0.12188 0.254145 -0.468238 0.868026 0.165176
-0.0841037 -0.269613 0.428396 0.075073 -0.773738 0.629042
-0.26211 0.137936 -0.0336589 -0.895573 0.191059 0.401802
0.00449286 -0.501041 0.0946959 0.315013 -0.880604 -0.353982
-0.268346 -0.0428102 -0.260817 -0.761238 -0.195862 -0.618186
0.255326 0.107775 0.0888289 0.753125 0.524681 0.396878
0.0514997 -0.444018 0.0579747 0.466163 -0.731561 -0.497504
0.154647 -0.214717 0.512228 0.877568 0.259633 0.40307
0.0560775 -0.261178 0.48774 -0.240932 -0.664427 0.707452
-0.220262 0.0669817 0.418782 0.219683 0.677606 0.701848
-0.101171 0.205782 0.298172 0.321551 0.0570185 0.945174
-0.179727 -0.319037 0.35642 -0.167157 -0.667724 0.725399
-0.0296356 -0.312401 0.402044 -0.232584 -0.631398 0.739757
0.0473838 -0.479426 0.131079 0.450186 -0.855886 0.254542
-0.0309469 -0.266457 -0.129605 -0.551893 -0.692361 -0.464812
-0.0550378 -0.43427 0.0407869 -0.330911 -0.184018 -0.925546
-0.154939 -0.17136 0.474827 -0.257961 -0.628877 0.733464
0.143038 0.200133 -0.208851 0.91693 0.279536 0.28478
-0.124182 0.127129 -0.190651 -0.517115 0.797827 -0.309941
-0.14164 0.22557 0.226743 -0.0264486 0.225151 0.973965
-0.316398 0.0338632 -0.0549532 -0.975411 0.0804346 0.205192
-0.348936 -0.0364834 0.0933964 -0.948402 0.316968 0.00801887
-0.0997538 0.228237 0.231427 0.188569 0.755425 0.627515
0.172973 -0.164558 0.488717 0.56045 0.254812 0.788014
-0.316883 0.0481578 0.236355 -0.807503 0.521849 -0.274979
-0.337463 -0.303611 0.29552 -0.307288 -0.629518 0.71364
0.101206 0.016587 -0.198099 0.454656 -0.17069 -0.874158
0.107724 0.142844 -0.212558 0.475989 -0.74317 -0.470248
0.166553 0.239191 -0.264232 0.609834 -0.253345 0.750945
0.187988 0.00890771 -0.131643 0.780317 0.207844 -0.589835
-0.1406 0.177832 -0.138312 0.072937 0.718656 -0.69153
0.000659394 0.339641 0.0624853 0.938019 -0.138148 -0.317861
0.16424 -0.30799 0.253432 0.982424 -0.148947 -0.112506
-0.32809 0.0624093 0.340593 -0.609104 0.320231 0.725565
-0.231408 0.186774 -0.0588304 -0.766693 -0.255752 0.588875
-0.0069494 -0.229006 -0.174933 -0.413457 -0.607499 -0.678232
-0.241535 0.209173 0.0309392 -0.690944 0.376646 -0.617037
0.245853 -0.101705 0.266029 0.895689 -0.406934 0.179294
0.245533 -0.152841 0.0555946 0.727688 -0.658173 0.193077
0.207385 0.22287 0.123313 0.0673645 0.71087 0.70009
0.125002 -0.099213 -0.248764 0.37138 0.535931 -0.758192
-0.315673 -0.0166923 -0.207603 -0.863816 0.463527 -0.197394
-0.317957 0.077869 0.285434 -0.945826 0.221194 0.237668
-0.207423 0.289744 0.0821576 0.0403556 -0.87656 0.479598
0.179782 -0.333328 0.170123 0.945385 -0.319793 0.0630835
-0.445455 -0.299445 0.115528 -0.824171 -0.0559062 -0.563575
-0.0856071 0.0300452 0.429446 0.121525 0.636072 0.762
-0.0815065 -0.0211143 0.493537 0.0655489 0.856511 0.511949
0.29469 0.0773418 -0.037121 0.311547 0.61467 -0.724651
-0.0432708 -0.38769 0.350817 -0.607526 -0.129982 0.783592
-0.267566 0.0868201 -0.169966 -0.959103 0.180761 0.217824
-0.0082033 0.219681 0.205422 0.314275 0.904271 0.289007
0.0251735 -0.226102 0.516547 -0.3544 -0.566896 0.743659
0.109633 -0.415419 0.364799 0.969951 -0.178472 -0.165356
-0.27524 -0.40284 0.0655043 -0.0854104 -0.832667 -0.547148
0.010947 0.222497 -0.0356929 0.324534 0.605793 -0.726425
0.26306 0.0899631 0.204217 0.777054 0.304528 0.550862
0.125332 0.266322 -0.349243 -0.69614 0.233907 -0.678732
-0.394729 -0.159385 0.102639 -0.944187 0.329299 0.00854186
-0.15574 -0.264064 0.407636 0.112149 -0.846615 0.520255
-0.133802 0.289331 0.12434 -0.442473 0.743176 0.501903
0.304554 -0.0201917 0.0975713 0.738296 -0.573765 0.35456
0.152874 0.0670242 -0.132294 0.0594536 0.880936 -0.469486
-0.126568 -0.5238 0.144772 -0.152126 -0.349964 -0.924328
-0.0726405 0.351732 0.0908821 -0.20506 0.368469 0.906742
-0.340396 -0.422782 0.189143 -0.59676 -0.462277 0.655879
0.1037 0.257405 0.127697 0.220355 0.301713 0.927584
-0.024259 0.0897124 -0.197876 0.347942 0.551064 -0.758462
-0.235288 -0.375616 0.280437 -0.549639 -0.36356 0.752144
-0.485275 -0.357736 0.172686 -0.781713 -0.186452 -0.595114
-0.284714 0.0476481 -0.132403 -0.776667 0.331701 -0.535502
0.230439 -0.0737877 -0.193569 0.169078 0.818038 -0.549751
-0.0402698 0.142431 0.306388 0.124029 0.845189 0.519877
0.128251 -0.419311 0.158639 0.885579 -0.45015 0.114522
0.160563 -0.372049 0.212094 0.901772 -0.404982 0.150984
-0.148934 0.0113354 -0.292837 0.0687275 0.806066 -0.587822
-0.389649 -0.0941332 0.328544 -0.876871 0.466474 -0.116187
-0.323415 -0.118128 -0.129691 -0.820123 0.00763114 -0.572137
0.246718 -0.169147 -0.0821133 0.957335 -0.287672 0.0274763
0.304873 -0.0213232 0.0417709 0.995216 -0.0774327 -0.0595769
-0.332191 -0.0663906 -0.0939825 -0.674644 -0.490057 -0.551996
-0.147339 -0.216328 0.438975 -0.575297 -0.482941 0.660153
-0.377834 -0.393608 0.0926058 -0.0176451 -0.87329 -0.48688
-0.272151 -0.479233 0.151067 0.26832 -0.903582 0.333981
0.047596 0.149654 0.258636 0.665009 0.613042 0.426548
-0.281435 -0.404672 0.232076 -0.118261 -0.752032 0.64843
0.280325 -0.157193 -0.238099 0.709527 0.441652 -0.549104
0.266328 0.185396 0.0558675 0.502049 0.534791 -0.679666
-0.053268 -0.10435 -0.309742 -0.321455 -0.622298 -0.713731
0.206654 -0.170392 0.191437 0.858405 0.003235 -0.512962
-0.130909 -0.145567 0.517953 -0.367729 -0.526257 0.7667
-0.225208 -0.425228 0.0970511 -0.234482 -0.800428 -0.551664
-0.10658 -0.376093 0.321572 -0.106634 -0.7321 0.672799
0.0632315 -0.112055 -0.287177 0.363015 0.58417 -0.725924
0.0729337 0.104451 -0.163727 0.190062 -0.95475 -0.228754
-0.204963 0.0140753 -0.228757 -0.576208 -0.502302 -0.64473
0.0298619 0.127623 0.286539 0.307079 0.602005 0.737084
0.192694 0.0745914 -0.109233 0.417207 0.444373 -0.792761
0.282434 0.0390168 0.207317 0.635812 0.514615 0.575251
-0.0139142 0.165012 0.256146 0.0252175 0.317113 0.948053
-0.327296 0.000393162 0.0426137 -0.596945 0.495591 -0.630909
0.149845 -0.0044873 0.384736 0.94326 0.110407 0.313164
-0.191165 -0.335121 -0.0140209 0.0427507 -0.343026 -0.938353
-0.199465 0.135524 0.311266 -0.37682 0.723642 0.578229
0.028025 -0.534698 0.162482 0.465053 -0.40954 -0.784858
-0.00705525 0.0269039 0.408278 0.626964 0.779046 -0.00174696
-0.210277 -0.300864 -0.0568577 -0.219243 -0.720732 -0.65763
-0.118359 0.342541 0.0959494 -0.115471 0.928168 0.353794
0.336754 0.0245246 -0.0077987 0.749542 -0.513292 0.417993
0.0315803 0.228856 0.163393 0.176199 0.667654 0.72332
-0.441921 -0.194509 0.321782 -0.960139 0.278674 -0.0217604
0.176491 -0.0352298 -0.185189 0.605653 -0.0147323 -0.795593
-0.0651897 0.267865 -0.0576399 0.504432 0.498675 -0.704891
-0.204437 0.316165 0.0336041 -0.573534 0.819137 0.00856895
-0.403024 -0.220865 0.0868817 -0.600696 0.748984 -0.279619
-0.456026 -0.304267 0.166055 -0.926332 0.219614 0.306069
-0.11305 0.0300812 -0.279404 0.555032 0.152827 -0.817669
-0.195656 -0.199329 -0.15325 -0.320681 -0.780963 -0.535967
0.202009 -0.176652 -0.189304 -0.569167 0.775953 -0.27193
0.152893 0.198223 0.200766 0.190762 0.811921 0.551719
-0.214463 0.210347 -0.137354 -0.937394 0.348179 -0.00796938
-0.282777 0.0213132 -0.268981 -0.849523 -0.124482 -0.512655
0.206558 -0.294399 0.0115482 0.956462 -0.287311 0.0513077
0.240964 -0.151142 0.204283 0.890382 -0.409745 0.198314
0.139438 -0.317315 0.39457 0.962791 -0.241404 -0.121479
0.00353814 0.133995 -0.161897 0.26972 0.621968 -0.735124
-0.045256 0.0108155 0.450997 0.142892 0.944349 0.296288
0.202239 -0.179137 0.398748 0.855108 0.258373 -0.449481
-0.218356 0.191963 0.22817 -0.419726 0.847414 0.325147
-0.225617 -0.0272701 -0.211362 0.907914 0.283906 -0.308368
0.228401 -0.21965 -0.0547971 0.958457 -0.182087 -0.219554
0.0564504 -0.507081 0.28868 -0.235046 -0.678615 0.69587
-0.380404 -0.120582 0.427165 -0.451718 -0.562079 0.692833
0.187943 -0.292284 0.129922 0.986462 -0.042745 -0.158324
0.152385 0.247358 0.158042 0.161875 0.242631 0.956518
-0.315315 0.00856979 -0.00638912 -0.758045 0.590241 -0.277457
-0.151245 0.125978 0.357836 0.16463 0.577785 0.799413
-0.021724 0.00897663 -0.245485 0.40235 0.549077 -0.73255
-0.232001 -0.00816929 -0.309279 -0.675645 -0.563886 -0.474906
-0.0218745 -0.540533 0.112416 -0.216527 -0.707515 -0.67271
0.282885 -0.0958652 0.0676212 0.72575 -0.59526 0.344895
-0.258479 0.147051 -0.100126 -0.790109 0.17108 0.588608
-0.126036 -0.360622 0.00423122 -0.083308 0.117856 -0.98953
0.055291 -0.188371 0.553901 -0.575671 -0.321936 0.751638
-0.229053 -0.110907 -0.239965 -0.443984 -0.599816 -0.665657
0.118355 -0.375124 0.290448 0.505215 -0.362878 0.782993
0.0900318 -0.363341 -0.0567955 0.357277 -0.924118 -0.135496
-0.336009 -0.339636 0.249245 0.29564 -0.523791 0.798899
-0.149843 -0.17065 -0.215027 -0.238438 -0.837551 -0.491586
-0.0953752 -0.334401 -0.0312726 -0.161663 -0.699051 -0.696558
0.241925 -0.184799 -0.247688 0.546082 -0.819365 -0.174459
-0.302286 0.102793 0.146636 -0.851263 0.484543 -0.201418
-0.259809 0.145131 -0.145359 -0.679423 0.704918 -0.203653
0.23091 -0.169399 0.250273 0.871145 -0.468664 0.146495
0.333802 0.16907 0.0668003 0.617109 0.371308 -0.693763
0.249309 -0.00172056 -0.103405 0.0995781 0.777802 -0.620571
-0.291156 0.0756863 0.36931 -0.504276 0.852079 -0.140242
0.208056 0.180465 0.0114334 0.187837 0.815505 -0.54742
-0.267789 0.104639 0.0133347 -0.940527 0.339442 -0.0137099
0.132696 -0.275057 -0.171331 0.384575 -0.753879 -0.532699
0.136637 0.049924 0.342784 0.356412 0.743213 0.566219
-0.103573 -0.522647 0.232876 -0.486698 -0.398176 0.777548
0.121948 -0.107545 0.479882 0.276751 0.673182 -0.685737
-0.151547 -0.0806004 -0.316952 -0.219509 -0.684414 -0.695265
-0.250467 -0.0879814 0.487116 0.0373601 -0.941658 0.334491
-0.245401 -0.222749 -0.127356 -0.407094 -0.440467 -0.800165
0.172324 0.264229 0.0645416 0.777003 0.0619707 -0.626439
-0.070957 -0.25845 -0.120236 -0.230863 -0.667346 -0.708062
-0.312545 -0.00361824 -0.113171 -0.890274 0.378578 -0.253164
0.326679 0.00347778 -0.0902011 0.260311 0.656304 -0.708169
0.273023 -0.0828286 0.119596 0.936277 -0.269391 -0.22542
-0.341036 -0.042468 0.0305758 -0.867054 0.407127 -0.287166
-0.432281 -0.205762 0.198533 -0.993031 -0.0973644 0.0664025
0.0172989 0.0455279 -0.222769 -0.339172 0.831083 -0.440752
-0.270494 0.0762991 -0.0731369 -0.975937 0.150502 0.157782
-0.13512 -0.458882 0.0999649 -0.193262 -0.980969 0.0186879
-0.00877557 -0.421678 0.356765 -0.629509 -0.319908 0.70808
-0.126538 -0.0807719 -0.311898 -0.470112 -0.273216 -0.839254
0.100336 -0.473 0.219058 0.932649 -0.350211 0.0867102
0.297975 0.158153 0.173053 0.743993 0.611789 0.268681
0.168994 0.143566 -0.0298925 0.254164 0.63079 -0.733147
0.104632 -0.0557164 -0.208604 0.069441 0.698617 -0.712118
0.213188 -0.244658 -0.180034 0.513111 -0.785543 -0.345888
-0.387114 -0.230904 0.318636 -0.175756 -0.784774 0.594339
0.218107 0.125942 0.235725 0.18296 0.548629 0.815801
0.178155 -0.258723 0.333226 0.948318 -0.304857 0.0880579
0.168923 0.0157751 -0.18095 0.349717 0.578266 -0.737093
0.252514 -0.160467 -0.126304 0.934166 -0.333334 -0.12737
-0.126872 0.0760877 -0.217855 -0.125021 0.860539 -0.493804
-0.320534 0.0738353 0.140428 -0.932141 0.351563 -0.0866991
0.0923065 0.105175 0.294118 0.138076 0.655218 0.742714
0.30628 0.18861 0.131695 0.754042 0.297901 0.585386
-0.354557 -0.379222 0.188257 -0.707845 -0.392458 0.587309
-0.278964 -0.23945 0.353266 -0.0119838 -0.873793 0.486151
-0.296372 0.108378 0.199128 -0.714322 0.46026 -0.527166
-0.377148 -0.0236364 0.354944 -0.753942 0.542471 -0.370537
-0.0310711 -0.254729 0.465105 -0.59577 -0.385542 0.704567
0.284816 0.149291 0.0343511 0.189152 0.712564 -0.675629
-0.151571 -0.0622516 0.533673 0.385699 0.733355 0.559845
0.0757329 -0.30111 -0.147417 -0.620589 -0.244688 -0.744981
-0.405144 -0.145367 0.2504 -0.9862 0.164744 0.0163898
0.0378647 -0.585524 0.210523 -0.325413 -0.600291 0.730586
-0.292973 0.0416335 -0.182751 -0.980778 0.13535 0.140555
-0.343895 -0.0986847 0.0239058 -0.874148 0.272381 0.402087
-0.317139 -0.383248 0.0583829 0.0193832 -0.97054 -0.24016
-0.219191 -0.118581 0.478139 -0.17553 -0.729771 0.660775
-0.439883 -0.289117 0.258859 0.0679528 -0.690063 0.720553
-0.41182 -0.348779 0.214402 0.0491685 -0.801531 0.595929
-0.215037 0.169314 0.268917 -0.03624 0.948 0.316201
0.204926 0.200247 0.171247 -0.183201 0.46693 0.865109
0.326856 0.0418075 0.0881662 0.909151 -0.264856 -0.321397
-0.207097 -0.0209205 0.507738 0.53156 0.502795 0.681646
0.123018 -0.37606 0.340038 0.822786 -0.510237 0.250364
0.0849047 -0.540214 0.228947 0.887513 -0.435169 0.151488
-0.0669982 0.248212 0.192389 0.248257 0.928282 0.276877
-0.111501 0.354116 -0.0154317 0.551303 0.4421 -0.70754
-0.279602 -0.0607945 -0.185134 -0.861175 -0.301984 -0.40888
-0.071635 -0.307726 -0.0954464 -0.447649 -0.784549 -0.429062
-0.176688 -0.127247 -0.268721 -0.113197 -0.78916 -0.603666
-0.0171313 -0.130312 0.565293 -0.0876805 0.819879 0.565783
0.338544 0.142454 0.115559 0.500007 0.203875 0.841682
0.129545 0.190605 -0.0272239 0.502542 0.649432 0.570692
0.0331246 0.0938018 0.344638 0.697765 0.328532 0.636546
-0.297544 -0.0617323 0.487996 -0.1976 -0.660239 0.724596
0.205638 0.0856925 -0.0774492 0.183399 0.69539 -0.694836
0.262929 -0.161517 0.00284383 0.679155 -0.509981 0.52789
0.0734573 0.212304 -0.0224241 0.25786 0.75083 -0.608081
-0.276949 0.129169 0.111114 -0.877789 0.339614 -0.33786
-0.0485685 -0.420196 0.310257 -0.82529 -0.285323 0.487326
0.12469 0.212301 -0.311477 0.0711034 -0.957314 0.280167
0.206365 -0.174211 -0.258214 -0.16715 0.574725 -0.801094
-0.172308 0.189836 0.276464 -0.209003 0.977903 -0.00483148
-0.0281176 0.29308 -0.0113926 -0.122113 0.61248 -0.780997
0.0895085 -0.144214 -0.315369 -0.07022 -0.886567 -0.457239
-0.266825 0.161717 0.0619632 -0.901207 0.405326 -0.153418
0.146659 -0.326802 0.323593 0.939717 -0.33377 0.0743602
0.126409 -0.13532 0.550594 0.215575 0.714038 0.666091
0.296196 0.0558487 0.157666 0.667701 -0.143887 0.730391
0.216119 -0.143615 -0.204821 -0.714819 -0.372253 -0.591998
0.0941327 -0.476685 0.260471 0.951511 -0.295978 0.0838057
-0.214304 -0.257387 -0.0908313 -0.253197 -0.687349 -0.680766
-0.2507 0.186322 -0.00645406 -0.889129 0.41442 -0.194183
-0.356663 0.00473979 0.369374 -0.87496 0.303976 0.376887
0.32058 0.0854899 0.0103395 0.0358054 0.68472 -0.727927
-0.308188 -0.424169 0.103735 -0.298956 -0.823224 -0.482625
-0.0461285 0.300857 0.150737 0.459412 0.639434 0.616494
0.155328 -0.269825 -0.163433 0.490617 -0.68936 -0.53299
0.153738 -0.347854 -0.0433583 0.53675 -0.735842 -0.412838
0.16302 -0.249753 0.497639 0.957098 -0.289577 -0.0104345
0.0672471 -0.413583 0.00772057 0.509838 -0.823372 -0.249247
0.145444 -0.213383 -0.165298 0.767249 0.0204066 -0.641025
0.172873 0.25017 -0.338356 0.495786 -0.691281 -0.525668
0.177811 -0.0901694 0.425361 0.7817 0.321332 0.534501
0.059531 -0.194188 -0.251721 -0.213629 -0.135955 -0.967408
-0.16627 0.121597 -0.196274 0.0757927 0.841644 -0.534687
-0.286035 -0.292683 -0.026481 -0.842182 -0.521707 -0.136202
0.218971 -0.252018 0.0258402 0.796357 0.360841 -0.485395
-0.385324 -0.257918 0.0452802 -0.978712 -0.124023 -0.163525
-0.139181 -0.325368 -0.0611636 -0.0700773 -0.745645 -0.662649
