ply
format ascii 1.0
comment Created by Open3D
element vertex 128
property double x
property double y
property double z
property double nx
property double ny
property double nz
end_header
0.150654 0.0437627 0.583788 0.822894 -0.11059 0.557329
0.268852 -0.159825 -0.333376 0.483487 -0.21084 -0.84958
-0.352037 -0.305912 0.181462 -0.566894 -0.821811 -0.0570837
0.0272421 0.276824 0.472845 -0.483487 0.210838 0.849581
0.257935 -0.270755 0.24016 0.588193 -0.597797 0.544672
-0.104025 0.292665 0.394211 -0.483487 0.210838 0.84958
0.112783 0.371951 -0.38854 -0.100939 0.966487 -0.236039
0.395157 0.321022 -0.164841 -0.697434 0.561988 -0.444697
0.403898 0.242207 0.0092688 0.716481 0.62208 0.315709
-0.0319651 -0.330396 0.387302 0.215667 -0.888591 0.404837
0.304859 -0.0158422 0.344277 0.822894 -0.11059 0.557329
-0.0230149 0.292088 -0.563144 -0.400588 0.214297 0.890846
-0.0828284 0.467251 0.108581 0.0356665 0.986012 -0.162816
0.441146 0.102676 -0.30047 0.483488 -0.210839 -0.84958
0.210478 -0.0416591 0.473001 0.797624 -0.206424 0.566731
-0.285636 -0.337473 -0.00637512 -0.600423 -0.795393 -0.0827209
0.109072 0.340774 -0.545497 0.404728 -0.191412 -0.894179
0.119711 0.397997 -0.266449 0.0356664 0.986012 -0.162816
0.343572 -0.138653 0.245921 0.764176 -0.300099 0.570943
0.204743 0.370069 0.157713 0.549831 0.817454 0.171621
-0.0765473 -0.478745 -0.380333 -0.630777 0.517721 -0.578001
-0.169429 -0.270246 -0.555395 0.483487 -0.210839 -0.849581
-0.318278 0.0246699 -0.33483 -0.873533 0.132676 -0.468334
-0.431297 -0.127314 -0.054664 -0.871327 -0.345384 -0.348568
-0.0404379 0.368134 -0.383724 0.838036 0.475995 0.266692
0.0619915 -0.222632 0.499275 0.523143 -0.670747 0.525757
0.122437 0.391953 0.313787 0.581931 0.789032 0.196942
0.509124 0.173953 -0.104774 0.763674 0.533599 0.36342
-0.286353 -0.256583 -0.272208 -0.834164 -0.464879 -0.296745
0.519194 -0.0462027 -0.219106 0.483488 -0.210839 -0.84958
-0.0528086 -0.434506 0.0704554 -0.172859 -0.963883 0.202607
-0.174701 -0.391278 -0.271574 -0.664377 -0.735333 -0.13375
0.00119223 0.452752 0.401149 0.481427 0.86822 0.120094
-0.573601 0.026531 0.193025 -0.483488 0.210839 0.84958
0.410014 -0.0205238 0.183907 0.839733 -0.0135472 0.54283
-0.244205 0.0613153 -0.453444 -0.832624 0.275711 -0.480335
-0.0720342 0.179734 0.440442 -0.483488 0.210839 0.84958
-0.256967 -0.270644 0.446968 -0.483488 0.210839 0.84958
-0.0286566 0.472426 0.253726 0.289992 0.956967 -0.0108742
-0.387145 0.0502525 -0.199139 -0.873486 0.132653 -0.468429
0.568909 0.0272515 -0.0475405 0.524861 -0.127105 -0.841645
0.33941 -0.331612 0.0838877 0.546635 -0.645862 0.532966
0.497164 -0.0606744 0.0481271 0.836037 -0.0339206 0.547623
0.200957 -0.0542824 -0.398207 0.483487 -0.210841 -0.84958
-0.379748 0.213389 -0.116662 -0.750009 0.456591 -0.478551
0.0340541 0.418248 -0.15716 -0.00804271 0.982441 -0.186399
-0.536705 -0.0974694 0.244795 -0.483488 0.210839 0.84958
0.205701 -0.522873 -0.116296 -0.421655 0.276327 0.863627
-0.367911 -0.130028 -0.206101 -0.889022 -0.253127 -0.381533
-0.381614 0.35953 0.0679398 -0.573734 0.69281 -0.436857
0.0121588 -0.51558 -0.24715 0.798738 -0.198711 0.567918
0.317125 0.13221 0.301234 0.83843 0.275189 0.470432
0.0838233 -0.411639 0.144656 0.173485 -0.906362 0.385241
0.171751 0.408109 -0.0437442 0.329917 0.943877 0.0158515
0.177812 0.284398 0.428351 0.778505 0.498914 0.380808
0.176448 -0.381209 -0.331022 0.483487 -0.210839 -0.84958
-0.0472178 0.00602634 -0.554407 0.483488 -0.210838 -0.84958
-0.403631 -0.279398 0.360351 -0.495883 -0.868374 -0.00511617
0.384551 -0.332128 -0.224773 0.483488 -0.210838 -0.84958
-0.45034 0.33043 0.187754 -0.483488 0.210839 0.84958
-0.47506 -0.209163 0.232334 -0.719461 -0.670403 -0.181483
0.0502694 -0.471805 -0.0313297 -0.0987518 -0.964247 0.245919
0.120996 -0.211082 -0.404799 0.483488 -0.210839 -0.84958
0.52964 -0.327179 -0.121871 0.674327 -0.47735 0.563401
0.186952 -0.433386 0.0447652 0.222307 -0.885464 0.408084
0.610033 0.0428703 -0.189516 0.483488 -0.210839 -0.84958
-0.0315461 -0.387634 0.241698 0.0443898 -0.945844 0.321573
0.551689 -0.198225 -0.0148012 -0.5964 -0.0751884 0.799158
0.250981 0.382341 -0.158585 0.332412 0.942975 0.0173291
-0.168925 -0.358734 -0.418726 -0.768911 -0.597421 -0.227736
-0.456388 0.0382399 -0.0671956 -0.890326 0.0356074 -0.453929
0.592951 -0.150965 -0.151133 0.483488 -0.210838 -0.84958
0.402217 -0.221042 0.118344 0.716511 -0.403019 0.569375
-0.201448 -0.380137 0.173948 -0.299551 -0.945748 0.125816
0.236473 0.157658 0.429636 0.844066 0.228019 0.485346
0.465501 -0.343931 0.00294182 0.622087 -0.556233 0.551011
0.0619777 -0.0895854 0.583544 -0.483487 0.21084 0.84958
-0.0474375 0.438686 -0.0430289 -0.0514622 0.976346 -0.210001
-0.517676 0.0320179 0.057267 -0.898569 -0.0616775 -0.434477
0.0255169 0.161759 -0.551662 0.483487 -0.21084 -0.84958
0.29643 0.366474 -0.336413 0.249119 0.967759 -0.0371867
-0.0801664 -0.457075 -0.141347 -0.380833 -0.921711 0.0735939
-0.0477027 0.0398982 0.488992 -0.483488 0.210838 0.84958
-0.254503 0.288782 0.309539 -0.483488 0.210839 0.84958
-0.0393424 -0.180672 -0.503593 0.483489 -0.210838 -0.84958
-0.199517 0.435782 0.0343378 -0.266261 0.910652 -0.315938
-0.145288 -0.421596 -0.0384408 -0.420393 -0.906087 0.0477058
-0.1302 0.454799 0.339078 -0.483488 0.210839 0.84958
0.106874 0.0128558 -0.46841 0.483487 -0.210841 -0.84958
-0.269441 0.284016 -0.197129 -0.606983 0.657137 -0.446925
0.389889 0.159914 0.148644 0.820714 0.367454 0.437501
-0.35899 -0.237056 -0.0923737 -0.790894 -0.558613 -0.249877
-0.291596 0.34595 -0.0699875 -0.539122 0.726787 -0.425591
-0.116226 0.371375 -0.215209 -0.348727 0.868451 -0.352396
0.178849 -0.547368 -0.276824 -0.0862582 -0.963949 0.251716
-0.46288 0.0934339 0.239433 -0.483488 0.210838 0.84958
0.26087 0.0758339 -0.396402 0.483488 -0.210839 -0.84958
0.0754575 0.438667 0.148227 0.33024 0.943773 0.0153051
0.43231 -0.443723 -0.156488 0.452641 -0.736923 0.502057
0.296987 0.342149 -0.00470906 0.54969 0.817501 0.171852
-0.246247 -0.162449 -0.466266 -0.896203 -0.192851 -0.399536
0.550581 0.207712 -0.258262 0.694929 0.656626 0.293114
-0.13271 0.16504 -0.545824 -0.704038 0.531522 -0.470972
0.3325 -0.45716 -0.0471715 -0.562219 0.212276 0.79928
-0.00121072 -0.341699 -0.441931 0.483487 -0.210839 -0.84958
-0.248722 -0.0947092 0.407999 -0.483488 0.210839 0.84958
-0.2521 0.182547 -0.34601 -0.730369 0.490284 -0.475586
-0.507245 0.234067 0.106528 -0.795077 0.367896 -0.482188
0.250509 0.335074 -0.466633 0.483488 -0.210839 -0.84958
-0.416401 -0.0567671 0.303159 -0.483488 0.210838 0.84958
-0.173092 0.272458 -0.428573 -0.600316 0.667728 -0.440181
0.378893 -0.0873169 -0.288747 0.483488 -0.210839 -0.84958
0.0803344 0.155626 0.533137 -0.483488 0.210839 0.84958
-0.265467 -0.343231 0.298945 -0.299551 -0.945748 0.125816
-0.200555 0.125523 0.380756 -0.483488 0.210839 0.84958
-0.182475 -0.0892106 -0.607746 0.483501 -0.210838 -0.849573
-0.314267 0.0306501 0.339588 -0.483488 0.210839 0.84958
0.361783 0.240852 -0.379925 0.483488 -0.210839 -0.84958
0.277201 0.271185 0.237615 0.740302 0.580675 0.338777
-0.219102 -0.372936 -0.145365 -0.62955 -0.769743 -0.105656
-0.238267 0.489904 0.2457 -0.0949826 0.967906 -0.232674
-0.353161 0.167718 0.283438 -0.483488 0.210838 0.84958
-0.469813 -0.158646 0.0890697 -0.829097 -0.476851 -0.291909
0.205485 0.17435 -0.452369 0.483487 -0.210839 -0.84958
0.33114 -0.480056 -0.218458 0.483488 -0.210839 -0.84958
-0.343849 0.442911 0.18634 -0.348727 0.86845 -0.352396
0.182043 -0.216087 0.382115 0.588193 -0.597797 0.544672
-0.108173 -0.266143 0.530529 -0.483489 0.210838 0.84958
