ply
format ascii 1.0
comment Created by Open3D
element vertex 128
property double x
property double y
property double z
property double nx
property double ny
property double nz
end_header
-0.29421 -0.0607834 0.422563 -0.579157 -0.118983 0.806486
0.456483 -0.113184 0.0285614 0.456508 0.498759 0.736777
0.348229 -0.360474 -0.0110639 0.774523 -0.631509 -0.036207
-0.414366 0.28318 0.0317325 -0.808908 0.57987 0.0970521
0.171444 0.0121697 -0.0340981 -0.871967 0.0647371 0.485266
0.181174 -0.476303 0.00484397 -0.249463 -0.833017 -0.493812
0.462061 0.0148933 -0.204058 0.863133 -0.0552601 -0.501944
0.0235386 0.428018 -0.0928876 0.457071 0.520254 0.721402
0.13549 0.385201 -0.292787 0.244675 0.706967 -0.663575
-0.0936551 0.135018 -0.272186 -0.437261 -0.478274 -0.761615
0.265786 0.256537 -0.341786 0.504575 0.53502 -0.677612
0.337727 0.0273915 -0.379946 0.699373 0.301785 -0.647922
0.0462383 -0.165773 0.320857 0.500494 0.519776 0.692343
-0.400977 0.252362 0.173691 -0.868628 0.48117 0.118156
0.381465 0.216102 -0.26138 0.716413 0.236835 -0.656248
-0.018105 -0.426126 0.261814 0.0188943 -0.815477 0.578481
0.280372 -0.0945601 0.124197 0.553454 0.468979 0.688294
-0.375569 -0.0275341 0.332221 -0.881565 -0.0100324 0.471956
-0.00178492 -0.230226 0.399626 0.510058 0.503608 0.697294
-0.245449 0.398412 -0.182871 -0.441444 0.834239 -0.330412
-0.309434 0.402194 0.0504262 -0.734174 0.677994 -0.0362315
-0.0125082 0.0395173 -0.247127 -0.559794 -0.613993 -0.556455
0.145958 -0.162979 0.258303 0.424955 0.48375 0.765114
0.107118 -0.0337092 -0.271114 -0.457987 -0.499512 -0.735347
0.332544 0.318407 -0.245639 0.62223 0.58183 -0.52374
-0.258234 -0.134626 0.0331891 -0.431534 -0.485063 -0.760587
-0.276858 -0.173639 0.382486 -0.53441 -0.498699 0.682426
-0.213608 0.467139 -0.0337601 -0.585458 0.784768 -0.203415
0.201871 -0.131187 -0.259396 -0.442766 -0.512241 -0.735913
0.152169 -0.347493 0.359165 0.290277 -0.550537 0.782718
0.380049 0.186716 -0.137311 0.635652 0.529388 0.561867
0.0883049 0.299163 -0.0422439 0.560655 0.535909 0.631243
-0.132725 -0.168209 0.0150445 0.332595 0.545685 -0.769161
-0.443992 0.0385367 0.0229499 -0.447501 -0.527948 -0.721813
0.0733251 0.20697 -0.42373 -0.530589 -0.573165 -0.624465
0.234355 -0.275507 0.284853 0.500407 0.459153 0.73401
-0.456968 0.137022 0.15235 -0.895632 0.327581 0.300889
-0.312132 -0.337821 0.215286 -0.591464 -0.704081 -0.392988
-0.209369 0.144635 0.251972 0.418981 0.469607 0.777125
-0.361339 0.316356 -0.195253 -0.701158 0.642502 -0.309141
-0.295841 -0.269154 0.307145 -0.618364 -0.366703 0.695093
-0.131048 0.102761 -0.0579334 0.668001 -0.741386 0.0641889
0.294205 -0.205959 0.192522 0.49721 0.569022 0.654978
0.00671717 -0.129362 0.105712 0.190533 0.738777 -0.646456
-0.0901511 0.127476 0.189888 0.906019 0.254927 0.33785
0.255326 0.0991548 8.17087e-05 0.424126 0.524492 0.738258
-0.303472 -0.246464 0.135312 -0.544532 -0.544667 -0.637826
0.227948 0.0866842 -0.434054 -0.367961 -0.477492 -0.797876
0.106984 -0.121486 0.0446332 -0.597231 0.783064 -0.173568
-0.417003 0.137939 -0.074877 -0.407438 -0.53088 -0.743075
0.0217366 0.338237 -0.382883 0.118395 0.76751 -0.630008
-0.370181 -0.144181 0.298827 -0.640414 -0.292985 0.70995
-0.41965 0.242074 -0.141207 -0.732007 -0.265432 -0.627464
-0.044022 0.400879 -0.295497 -0.0017788 0.817981 -0.575242
0.428587 -0.253915 -0.0140732 0.822839 -0.557683 -0.109203
0.246066 -0.229378 -0.217972 -0.435476 -0.534353 -0.72445
-0.0967352 0.430543 -0.0232453 0.397316 0.430946 0.810201
-0.407148 -0.209658 0.180828 -0.569012 -0.415379 -0.709708
0.362939 -0.24393 -0.275172 0.179047 -0.714868 -0.675948
0.0909138 -0.44017 0.220638 0.253619 -0.849941 0.461821
-0.0196662 -0.203397 -0.000233382 -0.133152 0.848516 -0.512143
-0.192665 -0.271246 0.0837897 -0.372999 -0.596011 -0.711085
-0.279698 0.33376 -0.275626 -0.605484 0.412652 -0.68052
0.214883 -0.430889 0.143235 0.442025 -0.834947 0.327838
0.244925 0.00394076 0.0721534 0.293086 0.600021 0.744362
-0.134025 0.074505 0.0641174 0.878398 -0.41137 -0.243294
0.0832529 0.0174682 -0.162669 -0.657547 -0.370315 0.656124
0.397568 -0.282297 -0.124943 0.850857 -0.496118 -0.17294
0.018515 0.13814 -0.341592 -0.44495 -0.510992 -0.735464
0.0190532 0.178169 -0.0330791 0.0928306 -0.831033 0.548422
0.0331424 -0.0590738 0.19925 0.0490561 0.767531 -0.639132
0.391268 -0.168577 0.112778 0.412738 0.529248 0.741312
0.343306 -0.143529 -0.339884 -0.340887 -0.368047 -0.865065
0.340442 0.137645 -0.337776 0.875622 0.108356 -0.470686
-0.115275 -0.085307 0.0886321 0.509088 0.502812 -0.698577
0.414375 0.103647 -0.264479 0.729356 0.190826 -0.656982
-0.0489555 0.0219727 0.232062 0.743492 0.635306 0.20882
-0.351442 0.0263724 -0.0311087 -0.380712 -0.584865 -0.716234
-0.175599 -0.362726 0.138366 -0.473843 -0.413117 -0.777693
-0.164629 0.381302 -0.288598 -0.151364 0.843966 -0.514597
-0.182031 0.126534 -0.207644 -0.470694 -0.501672 -0.725791
0.0901293 -0.27572 -0.0918255 -0.490206 -0.454669 -0.743622
-0.112519 0.282759 -0.363956 -0.504254 -0.521295 -0.688462
-0.485048 0.167166 0.0281795 -0.870084 0.480221 0.111096
-0.3365 0.359812 0.164398 -0.370786 0.763113 0.529318
0.431892 -0.138919 -0.214226 0.89021 -0.223131 -0.397163
-0.0840096 -0.128862 0.379152 0.44981 0.505231 0.736487
-0.16883 0.224922 0.171717 0.450996 0.533836 0.715277
0.120229 -0.091084 -0.0911938 -0.917361 0.253085 0.307241
-0.0438558 0.316407 0.0306214 0.394225 0.531672 0.749608
-0.374834 -0.0687152 0.0544067 -0.454385 -0.516632 -0.72569
0.294312 -0.353824 -0.155709 -0.446531 -0.526908 -0.723172
-0.0403547 0.498647 -0.145635 -0.246667 0.879626 -0.406711
-0.328853 0.160078 -0.137293 -0.606867 -0.294716 -0.738143
-0.0590156 -0.415011 0.109523 -0.338321 -0.602953 -0.722486
0.132124 0.451442 -0.187678 0.403565 0.782853 0.473578
0.144775 -0.064352 0.163104 -0.133017 0.990359 0.0386751
0.243006 0.392519 -0.237982 0.568938 0.724803 -0.388549
0.240259 0.22074 -0.0779832 0.462177 0.544282 0.700106
-0.289412 0.230654 0.247693 0.541551 0.426956 0.724176
0.200989 -0.00891573 -0.350232 -0.363649 -0.525094 -0.769438
-0.353327 0.135466 0.345937 -0.249666 0.561974 0.788576
-0.0257069 0.104678 -0.140258 -0.0298154 -0.798167 0.601699
-0.180181 -0.279688 0.371548 -0.457612 -0.515072 0.72477
0.325612 -0.340122 0.19335 0.559154 -0.796772 0.229132
-0.0868806 -0.350917 0.347619 -0.125205 -0.748517 0.651188
-0.140644 0.312081 0.0949436 0.483903 0.487639 0.726668
0.0486812 -0.498639 0.140571 0.108382 -0.898444 0.425502
0.176881 0.35538 -0.139287 0.41438 0.567509 0.711493
-0.306138 0.389707 -0.0723699 -0.633738 0.759102 -0.148795
-0.154924 0.00639392 0.319664 0.42427 0.582096 0.693656
-0.0620468 0.183599 0.0626298 0.656023 -0.74991 0.0852628
0.509057 -0.0645087 -0.0730392 0.992101 0.0490269 -0.115461
0.347954 0.0800558 -0.0501223 0.452213 0.494122 0.742528
0.203431 -0.38441 -0.0792108 -0.384957 -0.63688 -0.667975
-0.157064 -0.200171 0.448519 -0.187183 -0.316155 0.930058
0.0500666 -0.417265 0.0398843 -0.409764 -0.563037 -0.717693
-0.185819 0.221697 -0.274287 -0.423282 -0.567554 -0.706198
0.396622 -0.0264728 -0.311179 0.893652 -0.129411 -0.429696
-0.214272 -0.377476 0.270389 -0.319095 -0.666782 0.673483
-0.202368 0.400905 0.0617733 0.417519 0.588548 0.692307
0.129917 0.105112 -0.388139 -0.371279 -0.427382 -0.824316
-0.460352 -0.0851093 0.206734 -0.838797 -0.0453052 0.542555
-0.0382133 -0.317552 0.0268753 -0.360305 -0.511117 -0.780346
0.203248 0.20206 -0.427474 0.547093 0.485102 -0.682177
-0.238674 -0.00153998 -0.0853313 -0.135775 -0.653781 -0.744403
0.464908 0.103663 -0.134073 0.627032 0.428503 0.650551
0.0290039 -0.361179 0.353341 -0.0612214 -0.796842 0.601078
