ply
format ascii 1.0
comment Created by Open3D
element vertex 128
property double x
property double y
property double z
property double nx
property double ny
property double nz
end_header
-0.0288955 -0.0517185 -0.167649 -0.976927 -0.172542 0.125873
0.0509841 -0.00465809 -0.282925 -0.137389 0.947437 -0.288942
0.0496422 0.258547 0.435251 0.0321224 0.380462 0.924238
-0.315097 0.221656 0.448556 -0.010334 0.334586 0.942308
0.269678 0.15773 0.405349 -0.995304 -0.0875706 0.0412474
0.25966 -0.16426 -0.167181 -0.0901632 -0.899992 0.42648
0.0175081 -0.238676 -0.314497 -0.0831225 -0.903976 0.419426
0.0319584 0.121742 0.422234 0.998974 0.0444655 0.00860091
-0.0287649 0.178039 0.378227 -0.997125 -0.063082 0.041977
0.270338 0.0537071 0.185801 -0.999747 -0.0126725 -0.018586
0.26667 0.00138565 -0.101935 -0.999763 -0.0170118 0.0135852
0.326713 0.0981562 0.195072 0.996841 0.0473714 0.0637424
0.33476 -0.122396 -0.105561 0.998888 0.046936 -0.00440282
0.321276 -0.126268 -0.18441 0.0302481 -0.405398 -0.91364
-0.0226073 -0.230434 -0.361989 -0.995169 0.0757421 -0.0624722
0.0419494 -0.17488 -0.165931 0.0236104 -0.903949 0.426987
0.225053 -0.0431234 -0.149979 0.071241 0.200434 0.977114
0.326238 0.0344614 -0.22055 -0.0067222 0.884352 -0.466772
0.278276 0.00891359 0.254396 0.102895 -0.960518 0.25849
-0.0950196 0.188448 0.462495 0.02939 0.313872 0.94901
-0.308572 0.142162 0.480995 0.010114 0.29057 0.9568
0.331886 -0.0274974 0.117824 0.999048 -0.0409446 -0.0150319
-0.0181629 -0.0754056 -0.430212 -0.182025 0.828527 -0.529537
-0.018943 -0.212104 -0.245496 0.057697 -0.922048 0.382751
0.225066 -0.131049 -0.117346 0.0231685 0.264411 0.964132
0.249281 -0.104841 -0.191076 0.0520611 -0.561351 -0.825939
0.266798 0.0992328 -0.0118643 -0.994028 -0.0884987 0.063849
0.329796 0.0563799 0.253732 0.999616 0.0231545 0.0151976
0.028953 -0.132257 -0.449713 0.999611 0.00859642 0.0265489
0.27082 -0.0711657 -0.105885 -0.993603 -0.100782 0.0509462
0.275115 -0.0429408 0.0886343 -0.991087 -0.0789954 0.107264
0.0966247 -0.143612 -0.229704 -0.264381 0.919648 -0.29043
-0.0251879 -0.142356 -0.397511 0.0104 -0.314219 0.949294
-0.0308228 -0.0773799 -0.232262 -0.995925 -0.0780355 0.0452042
0.11705 0.280604 0.423665 -0.0651548 0.447406 0.891954
0.298937 0.201365 0.181686 0.0520657 0.852539 -0.520064
0.321411 0.0885004 0.432499 0.0311143 -0.917671 0.396121
0.244741 -0.0355943 -0.221567 0.0116548 -0.337932 -0.941098
0.328599 0.14454 0.145526 0.981456 -0.191264 -0.0127306
-0.0519143 0.283815 0.419922 -0.0285088 0.910078 -0.413456
0.273478 -0.0188537 0.173094 -0.999438 -0.00210606 -0.0334606
0.115611 0.215377 0.404229 -0.639258 -0.710901 0.293204
-0.111418 0.22222 0.383853 -0.0280972 -0.475693 -0.879162
0.30053 0.121484 0.492372 -0.0489056 0.452703 0.890319
0.0215282 0.267645 0.381517 -0.0394214 0.907623 -0.417931
0.0925868 -0.112087 -0.123831 -0.0119871 0.390776 0.920408
0.235845 0.0285541 -0.219331 -0.0186536 0.873996 -0.485575
0.102023 0.028312 -0.203642 -0.0420301 0.918877 -0.392299
0.332197 -0.0363668 -0.0881742 0.999036 0.0428848 -0.00935944
-0.185144 0.0871159 0.439629 -0.016319 -0.480977 -0.876582
-0.0308407 -0.130107 -0.292497 -0.999403 0.0345321 -0.00133521
-0.257947 0.220768 0.38143 -0.0431473 -0.370083 -0.927996
0.153224 -0.0424282 -0.220813 -0.0614416 -0.317103 -0.946399
-0.236572 0.0832555 0.487564 -0.132828 -0.905806 0.402333
-0.0205768 0.0193692 -0.209205 0.00674107 0.917271 -0.398206
0.21067 0.139448 0.482568 -0.0458324 0.395112 0.917489
0.269331 0.0293624 0.115308 -0.985781 -0.165323 0.0300611
-0.142631 0.278051 0.427433 0.00711975 0.921005 -0.389487
-0.0770346 0.109085 0.497432 -0.00474523 0.383819 0.923396
0.328982 0.164313 0.454857 0.998859 0.0452004 -0.0154412
0.153842 0.0860132 0.440413 0.0965369 -0.465328 -0.879858
-0.0270418 -0.147616 -0.188707 -0.997919 -0.000737171 -0.0644781
0.333009 -0.0663036 -0.0196426 0.999444 -0.0320647 -0.0091426
0.325537 0.0297642 -0.0671203 0.998918 0.0452608 -0.010692
-0.145316 0.143278 0.415442 0.137475 -0.452549 -0.881079
0.274685 -0.0914942 -0.00265776 -0.997628 -0.0431857 -0.0536073
0.0489466 -0.08265 -0.311179 -0.0257596 -0.268219 -0.963014
0.272882 0.0964153 0.361671 -0.993927 0.109482 0.0110799
-0.207169 0.263266 0.428737 0.0715886 0.241192 0.967833
-0.116053 0.0759031 0.444364 0.0842273 -0.417682 -0.904681
-0.0118028 0.0960505 0.498776 0.0894835 -0.947809 0.306023
0.264757 0.174293 0.332489 -0.992554 0.0612554 -0.105285
-0.307668 0.163404 0.410424 0.00936289 -0.388584 -0.921366
-0.0251797 -0.186422 -0.450107 -0.979948 -0.180519 0.0843526
0.0572599 -0.208217 -0.256078 0.0661855 -0.922013 0.381459
0.324307 0.145357 0.267002 0.998767 -0.00898979 0.0488193
0.190851 0.269165 0.370988 0.170565 0.814436 -0.554619
0.0448361 -0.00907061 -0.167278 -0.0248532 0.24445 0.969343
0.267717 0.243979 0.290547 -0.0582082 0.922783 -0.380898
-0.0432427 0.102744 0.431958 0.00911092 -0.397607 -0.917511
0.266832 0.1268 0.217993 -0.998301 -0.0526457 0.0249619
-0.191083 0.213932 0.387718 -0.0414991 -0.310167 -0.949776
0.243271 0.293948 0.414904 -0.0209533 0.91712 -0.398059
0.128815 -0.0894823 -0.307691 0.999264 0.0377892 -0.0065601
0.324252 0.208363 0.264581 0.999109 0.036491 0.0211853
0.185858 0.178401 0.403858 0.0982584 -0.397633 -0.912268
0.324571 0.139233 0.350916 0.997841 -0.0636939 -0.0160291
-0.150721 0.106649 0.496419 0.0366103 0.335035 0.941494
0.329952 -0.0543561 -0.205881 0.999468 0.0320166 -0.00623651
-0.0175379 -0.0206626 -0.306437 -0.0273334 0.913691 -0.405489
0.33039 0.0305688 0.17491 0.999133 0.0414277 -0.00403655
0.142437 -0.0571002 -0.147304 0.0842308 0.331936 0.939534
0.149472 -0.112932 -0.190791 -0.0157271 -0.401083 -0.915907
0.331134 0.073904 0.127611 0.99719 0.0132018 0.0737439
0.0344485 -0.248258 -0.407526 -0.00738739 -0.884122 -0.467199
0.0296091 0.189987 0.459275 0.990909 0.128155 -0.0409342
0.11694 -0.00354447 -0.290481 0.0966569 0.87415 -0.47594
0.291841 0.0432765 0.321391 0.123032 -0.941376 0.314124
0.125881 0.170806 0.470577 0.0601327 0.365617 0.928821
0.0279331 0.141858 0.347034 0.983863 0.160137 -0.0798128
0.323487 0.20938 0.394049 0.999743 0.022082 0.0050893
0.0157392 -0.0471954 -0.374752 0.0523278 0.918878 -0.391057
0.26929 0.0595026 0.0493661 -0.98551 -0.160429 0.0550757
0.325129 0.0404768 -0.148885 0.990284 0.119057 -0.0718536
0.276238 0.0669251 -0.128835 -0.0179346 0.907988 -0.418612
-0.276343 0.083088 0.437024 0.0600143 -0.42451 -0.903432
0.16296 -0.162215 -0.150855 0.0881992 -0.927102 0.364284
-0.2135 0.156295 0.432623 0.990882 0.13443 0.00902807
0.0307545 -0.0984487 -0.233337 0.997342 -0.0600917 0.041201
0.0165427 0.219014 0.296231 -0.117635 -0.285006 -0.95128
0.0303676 -0.0769829 -0.151569 0.948892 0.292448 -0.118649
0.323609 0.112212 0.0592404 0.997706 0.0468933 0.0488136
0.0663578 0.111587 0.493095 -0.0401723 0.455862 0.889143
0.321734 0.287067 0.409152 0.970522 0.145962 -0.191787
0.259128 0.224294 0.38553 -0.0651409 -0.296806 -0.952713
0.130212 -0.205286 -0.253612 0.0897793 -0.923358 0.373296
0.323108 0.0932297 -0.0810623 -0.0906464 0.941458 -0.324716
-0.0388639 0.243808 0.340282 -0.992265 -0.120036 0.0316324
0.0275055 -0.172131 -0.300517 0.633358 0.328698 -0.700582
0.0335971 0.0564579 0.379203 0.997213 -0.0740811 -0.00888055
0.323378 0.249441 0.326336 0.988254 0.103348 -0.112573
0.255771 0.196074 0.461792 -0.0354054 0.421359 0.906203
0.272065 0.0919473 0.284154 -0.972385 -0.135025 0.190355
0.266585 0.129199 0.100803 -0.992215 -0.104782 0.0673058
0.1858 0.00756698 -0.176933 0.0453247 0.311188 0.949267
-0.0309192 0.0868957 0.357288 -0.998964 -0.0450904 0.00616723
0.269534 -0.00258668 0.0196899 -0.998824 -0.0477193 0.00861604
0.171803 0.231107 0.446235 0.0139777 0.36428 0.931184
