ply
format ascii 1.0
comment Created by Open3D
element vertex 128
property double x
property double y
property double z
property double nx
property double ny
property double nz
end_header
-0.0188836 0.214175 -0.467046 -0.173512 0.283771 -0.943063
-0.155037 0.183259 -0.206007 0.425246 -0.522901 0.738742
0.473492 -0.176595 0.14755 0.669227 0.717848 0.191911
-0.292726 0.394234 -0.152361 -0.746355 0.617135 -0.249197
-0.0558988 0.0503193 -0.365017 -0.307558 -0.18122 -0.934113
-0.209311 -0.0597779 0.472043 -0.325529 0.0857077 0.941639
-0.122939 0.369244 -0.242274 0.519943 0.836261 0.174147
0.230461 -0.228003 0.234604 -0.245768 0.915928 -0.317292
-0.00301234 0.233682 -0.259032 0.2781 -0.34476 0.896549
-0.246068 0.328683 -0.212789 -0.618047 0.591614 -0.517697
0.358671 -0.227065 -0.0479526 -0.569651 -0.818735 -0.071905
0.221199 -0.230959 -0.0123806 -0.780512 0.610139 0.136128
0.211832 -0.145941 -0.287469 0.193906 -0.555818 -0.808373
-0.393384 0.067614 0.257086 -0.908639 -0.346336 0.233294
0.304267 -0.0792892 0.396747 0.688591 0.702454 0.180001
-0.137808 0.269739 -0.133157 0.58221 -0.577545 0.572253
-0.257953 0.270315 -0.178489 0.946168 -0.112106 0.303643
-0.327137 0.0671688 -0.205626 -0.627616 -0.766724 -0.135029
0.443026 -0.243979 -0.0699435 0.776129 -0.609511 -0.16162
-0.320546 -0.015573 0.272325 -0.670934 -0.71769 -0.186464
0.219733 -0.23804 0.199933 0.35036 -0.905592 0.239064
0.44672 -0.0928078 -0.280799 0.661713 -0.362883 -0.656088
0.0231266 0.276256 -0.380833 0.696942 0.716219 0.0360977
-0.283932 0.136465 0.173281 0.630889 0.758448 0.16351
-0.0698557 0.0687289 -0.367075 0.436499 0.171615 0.883185
-0.103633 0.0730781 0.491948 -0.322898 0.0797577 0.943067
-0.217043 0.266621 -0.241144 0.865211 -0.0657671 0.497077
0.236203 -0.0901599 -0.437184 0.456652 -0.262259 -0.850111
-0.0900667 0.00573046 0.497517 -0.223178 0.0467489 0.973656
-0.218225 0.291151 -0.312214 -0.465284 0.278742 0.840127
-0.16257 -0.00564169 0.479663 -0.323275 0.120742 0.93857
-0.317939 0.211402 -0.263189 -0.607446 0.607028 -0.512374
0.270855 -0.0408571 0.331345 0.548954 0.831925 0.0809311
0.113987 -0.104395 0.386339 0.00220013 -0.672786 0.739833
0.105513 -0.155495 0.337802 -0.269062 -0.60002 0.75338
0.452046 -0.231611 0.0996949 0.731157 -0.652996 0.197498
0.241452 -0.266907 0.287127 0.435938 -0.549886 0.712449
0.444419 -0.250152 0.0405856 0.839939 -0.541366 0.0377526
0.111645 -0.246241 0.429451 0.369131 -0.357722 0.857775
-0.153406 0.213074 0.394045 -0.462623 0.160708 0.871868
-0.286602 0.196624 -0.304059 -0.438083 0.506614 -0.74258
-0.0240132 -0.134221 0.491869 0.0230392 -0.179381 0.98351
0.337592 -0.0851428 0.0391938 -0.76584 0.641173 -0.0488443
0.384426 -0.298333 -0.113391 0.76994 -0.590072 -0.242915
0.0534448 -0.130477 0.285986 -0.0421436 0.18328 -0.982157
0.212759 -0.00347226 0.383771 0.520737 0.836425 0.170958
0.244001 -0.182693 0.0847051 -0.728492 0.639787 -0.244892
0.0579952 0.178991 -0.480371 0.0860654 0.0399632 -0.995488
0.153525 -0.314102 0.00693804 -0.715909 0.674362 -0.180858
0.0922894 0.0784618 0.48555 0.733137 0.655216 0.182215
0.250046 -0.112289 -0.370624 0.573688 -0.337447 -0.746332
-0.246878 0.104707 0.222834 0.545372 0.795467 0.264201
0.310556 -0.213099 -0.157373 -0.214276 0.931781 0.293035
-0.303314 0.175806 0.0842518 -0.588151 -0.803867 -0.0887524
0.295477 0.01296 -0.429455 0.442675 -0.240886 -0.86372
0.385755 -0.324291 -0.0399345 0.735281 -0.677389 -0.0224957
-0.294356 0.174632 0.0341806 0.376734 0.803503 0.460927
-0.400929 0.10962 -0.108678 -0.596919 -0.784182 -0.169547
-0.125455 0.016336 0.290386 0.236015 0.0341651 -0.971149
-0.307094 0.250629 -0.0166201 0.939791 -0.280494 0.195231
-0.388868 0.277414 0.155919 -0.755442 0.541241 0.369278
0.435097 -0.23794 -0.118207 0.797119 -0.533082 -0.283592
-0.301768 0.10022 0.336857 -0.575007 0.370998 0.729197
-0.0150517 -0.252172 0.43545 -0.407471 -0.835098 0.369565
-0.217908 0.184655 0.36308 -0.646404 -0.750474 -0.137661
0.240019 -0.0784895 0.457675 0.320183 -0.389756 0.863466
0.338473 -0.213568 -0.119156 0.35007 -0.886696 -0.302029
0.370106 -0.343893 0.022266 0.801055 -0.59342 -0.0785067
0.227301 -0.178841 0.417254 0.422585 -0.44461 0.789774
-0.367239 0.0813763 -0.0808417 -0.62879 -0.767497 -0.124787
0.0160808 0.0838109 0.325861 0.250294 -0.00461377 -0.968159
-0.252284 0.292431 -0.181794 -0.627276 -0.76557 -0.142923
-0.269513 -0.0167128 0.446087 -0.335935 0.127505 0.933215
-0.246691 -0.0489778 0.446397 -0.657407 -0.664342 0.355622
-0.27129 0.260799 -0.140736 -0.954239 0.131637 -0.268515
-0.245927 0.150679 -0.431185 -0.430432 0.464741 -0.773786
-0.26944 0.218012 0.217042 0.919491 -0.0664628 -0.387452
0.216188 -0.170912 0.322981 -0.0369742 0.761536 -0.647067
-0.347007 0.114264 0.354208 -0.567503 0.447291 0.691282
0.124786 -0.325045 0.0915451 -0.95153 -0.152969 -0.266816
-0.191773 0.132241 -0.239257 0.470367 0.874904 0.115314
0.456884 -0.119091 -0.121005 0.641711 0.73298 0.225713
-0.221432 0.202208 -0.103406 0.722529 -0.618625 0.308634
0.0608126 -0.00969254 -0.386191 0.182134 0.346916 0.920042
-0.382899 0.0467444 0.184112 -0.645359 -0.756071 -0.108944
-0.158075 0.371361 -0.0533427 0.736289 0.661107 0.144277
-0.103581 0.0784585 0.40397 -0.611191 -0.791008 0.0274374
0.201145 -0.0163404 -0.262457 -0.512371 0.445724 0.734034
-0.201086 -0.0146142 0.264893 0.395292 -0.175008 -0.90173
-0.190769 0.0594885 -0.481146 -0.199171 0.312843 -0.928687
-0.192346 -0.0926389 0.475446 -0.208025 0.00785693 0.978092
0.194144 -0.185683 0.30643 -0.0953716 0.81601 -0.570115
-0.230641 0.285548 0.369359 -0.520866 0.263611 0.811917
0.4204 -0.280175 0.0393235 0.694596 -0.710865 0.110486
0.295987 -0.065173 0.333749 0.551387 0.817691 0.165392
0.41755 -0.270169 -0.0688645 0.777072 -0.609019 -0.158919
0.295937 -0.246621 -0.0262621 0.358511 -0.927337 -0.107315
-0.107541 0.25009 -0.191099 0.686368 -0.499166 0.528896
-0.0627325 -0.240671 0.37199 -0.618322 -0.769865 -0.158067
-0.355961 0.179191 0.313085 -0.654203 0.384392 0.651353
0.42196 -0.276116 -0.0166973 0.830786 -0.530958 -0.166969
0.189259 -0.0755415 0.262105 -0.407231 0.463406 -0.787031
-0.299856 0.187185 0.151465 0.919596 -0.0227369 -0.392208
-0.197464 -0.0152786 -0.326379 -0.719093 -0.675085 -0.164822
-0.125472 -0.129532 0.29482 0.0884376 0.145119 -0.985454
0.195175 -0.127267 0.219505 -0.54288 0.521959 -0.657906
-0.441813 0.159067 -0.0797533 -0.900255 -0.423474 -0.101053
0.422147 -0.0888266 -0.303946 0.635848 -0.498795 -0.588983
-0.00942181 -0.109479 -0.486567 -0.47921 -0.591553 -0.648401
0.173347 0.0439815 -0.479818 0.171275 0.144423 -0.97458
0.282813 -0.249077 0.135168 -0.271412 0.929186 -0.250896
0.206485 -0.156881 -0.282634 0.119716 -0.800625 -0.587084
-0.143145 -0.0284771 0.484131 -0.174798 -0.0810426 0.981263
-0.240192 0.254867 -0.295242 -0.500998 0.510157 -0.6991
-0.293617 -0.0454672 0.327782 -0.575853 -0.801359 -0.161915
-0.222763 0.29084 -0.315701 -0.632245 -0.748879 -0.198612
-0.00999872 -0.208519 0.276818 0.00449719 0.163121 -0.986596
0.347009 -0.0759655 0.124251 -0.0623671 0.990664 -0.121222
0.2423 0.0757023 -0.275236 0.204029 0.646145 0.735438
-0.246227 0.188174 0.0790194 0.769222 -0.602513 -0.21278
-0.219266 0.252269 -0.246543 0.759893 -0.114402 0.639902
-0.391768 0.0526448 0.222028 -0.666133 -0.740999 -0.0847794
-0.30294 0.222606 0.136142 0.953436 0.044402 -0.298308
0.221319 -0.209037 -0.203055 -0.685528 -0.727232 -0.0344147
-0.335139 0.289321 -0.243882 -0.704123 0.546807 -0.453005
0.0510461 -0.204362 -0.415671 -0.339668 -0.785955 -0.516623
0.0498288 -0.155426 0.309525 0.623283 0.78098 0.0398578
-0.171588 0.381821 -0.315027 -0.574887 0.459418 0.677082
