ply
format ascii 1.0
comment Created by Open3D
element vertex 128
property double x
property double y
property double z
property double nx
property double ny
property double nz
end_header
0.203126 -0.0829505 0.25955 -0.123761 0.307734 -0.943389
0.078003 -0.226688 0.0395902 0.292927 -0.942161 0.162867
-0.238493 0.222909 -0.302868 -0.229641 0.760728 -0.607089
-0.0184601 0.34264 0.202385 -0.176211 0.83956 0.513896
0.37851 0.491223 0.140711 -0.264376 0.952583 -0.150634
0.286995 0.0599955 0.292301 0.0151514 0.153067 0.9881
-0.167373 0.190459 -0.277685 0.140394 -0.331278 0.93303
0.120145 0.0741246 -0.308479 0.0142234 -0.17167 -0.985052
0.3154 0.418243 -0.143599 -0.302787 0.948137 -0.0967236
0.487478 0.145878 0.252806 0.955988 0.290263 -0.0428301
-0.139473 -0.133278 -0.0924026 -0.939638 -0.339501 0.0426466
0.127748 -0.241456 -0.187216 0.182882 -0.838687 -0.512989
0.403387 -0.0513246 -0.278295 0.0419395 -0.210122 -0.976775
0.209306 -0.00912779 -0.29044 0.0101475 -0.168778 -0.985602
0.0730411 -0.263408 -0.150909 0.268892 -0.953259 0.137823
0.180013 -0.217134 -0.0613531 0.295951 -0.942595 0.154687
0.348134 -0.0145749 0.246087 0.18792 -0.795178 -0.576522
0.299832 -0.0235661 0.306223 -0.0631984 0.191354 0.979484
-0.0251654 0.361761 0.046219 -0.234391 0.95054 -0.2038
0.403912 0.401602 -0.171912 0.979488 0.20146 0.00423013
0.482481 0.148091 0.16885 0.971815 0.233059 -0.0354933
0.385662 0.00415973 0.304371 0.0123686 0.133845 0.990925
0.0990444 0.0333743 -0.30057 0.0178607 -0.177927 -0.983882
-0.226144 0.192405 -0.0207383 -0.966759 -0.254387 0.0257591
-0.233886 0.205357 -0.203172 -0.954031 -0.29143 0.0699479
-0.201137 0.0862527 -0.134389 -0.961862 -0.270943 0.0375806
0.355188 -0.189069 -0.173507 0.284786 -0.957046 0.0544147
-0.155522 -0.0946664 -0.264369 -0.963618 -0.265569 0.0302342
0.423122 -0.147691 0.0727017 0.250919 -0.95036 0.183999
0.300713 -0.162665 0.0530779 0.221779 -0.929108 0.295926
0.0599785 0.29181 0.245235 -0.046747 0.184032 0.981808
-0.092087 -0.272485 0.0460507 0.2333 -0.953043 0.193079
0.379195 -0.127005 -0.206998 -0.206076 0.843169 0.496587
-0.103367 -0.229973 0.234229 -0.950457 -0.306292 0.0530748
0.509318 -0.20394 0.0720866 0.285488 -0.949016 0.133662
0.432615 0.306323 -0.103198 0.962077 0.271012 -0.0309807
-0.220194 0.292088 -0.0210081 -0.310601 0.937346 -0.157826
-0.139497 0.114829 -0.319385 -0.0431317 -0.161302 -0.985962
-0.0734654 0.353677 0.0761292 -0.267191 0.949036 -0.167154
0.139208 -0.200509 0.0926756 0.294363 -0.941282 0.165342
-0.166678 -0.0501809 -0.205219 -0.971257 -0.237795 -0.0106335
-0.24517 0.232728 -0.276925 -0.964843 -0.261136 0.029778
0.356511 -0.0387943 0.293971 0.188568 -0.547133 0.815529
0.182125 0.183021 0.267547 -0.00862304 0.15145 0.988427
0.512787 -0.186112 0.165976 0.205075 -0.952514 0.225082
0.083618 0.336754 0.237453 0.00555116 0.150542 0.988588
0.476865 0.0908871 0.288222 -0.0197766 0.17934 0.983588
0.284021 -0.157335 0.106576 0.279528 -0.952791 0.118543
0.383571 0.331008 -0.349007 -0.0512535 0.0414707 -0.997824
-0.244301 0.25894 -0.0159464 -0.966257 -0.257538 -0.00463644
0.444195 -0.148693 0.0655342 -0.981144 -0.176031 0.0798087
-0.0806731 0.340903 0.0279944 -0.24969 0.945052 -0.211024
-0.0785968 0.335943 0.00217876 -0.264337 0.949557 -0.168721
-0.0132859 -0.214149 0.248406 0.250435 -0.946129 0.205236
-0.0994614 -0.26366 -0.0186883 -0.94816 -0.314969 0.042269
0.508428 0.0523323 0.164682 0.964439 0.262616 -0.0298299
-0.136036 0.203777 -0.332557 -0.02418 0.100723 -0.994621
0.266507 -0.207827 -0.141752 0.208485 -0.936807 0.280941
0.500018 0.0981846 0.237449 0.973488 0.228488 -0.0107442
0.528967 -0.03154 0.0471137 0.966752 0.254224 -0.027569
0.112323 -0.203073 -0.175028 -0.256665 0.903382 -0.343547
-0.177104 0.0679905 0.283174 -0.0880264 0.199999 0.975834
-0.0921499 -0.0170408 -0.294105 -0.010108 -0.143879 -0.989544
0.485786 0.100839 -0.140188 0.964028 0.264064 -0.0303431
0.468026 0.210505 0.246438 0.961524 0.272496 -0.0348961
0.146549 0.400515 0.00721095 -0.277288 0.950708 -0.138803
0.443391 -0.162725 -0.022933 -0.956746 -0.286147 0.0525084
-0.0850358 -0.309519 -0.160893 0.239508 -0.952696 0.187099
0.34864 0.0431874 0.295459 -0.0130915 0.167242 0.985829
0.35077 0.20403 0.265869 -0.0192075 0.184525 0.98264
0.267407 -0.1674 0.0879917 0.263117 -0.948381 0.177039
0.394817 0.369717 -0.342173 -0.137583 0.401268 -0.905569
-0.170008 -0.0339737 -0.195486 -0.972485 -0.232955 -0.00237895
0.17384 -0.166376 -0.210802 -0.0238866 0.171494 0.984896
0.0406809 0.342238 0.167107 0.234139 -0.955575 -0.179043
0.439432 -0.0892913 0.245116 0.286934 -0.939397 0.187621
0.188191 0.14066 0.271726 -0.011837 0.252898 0.967421
-0.127105 -0.0991524 -0.280587 0.0173422 -0.174251 -0.984549
0.45396 0.240605 0.0995384 0.961727 0.27218 -0.0316047
0.402397 0.444995 0.142475 0.961422 0.272983 -0.0338675
-0.104406 0.221874 0.254427 0.00443726 0.142636 0.989765
-0.12119 -0.196455 -0.0470716 -0.927115 -0.372754 0.0388798
-0.21442 0.127023 -0.323759 0.0186059 -0.177863 -0.983879
0.181259 0.383156 0.165058 0.244579 -0.900688 -0.359085
0.518981 -0.0247579 -0.196064 0.94045 0.33785 -0.0375737
-0.178373 0.0385884 0.151319 -0.971159 -0.238244 -0.00946315
0.233208 -0.221579 -0.180486 0.191869 -0.806827 -0.558763
0.485163 -0.146347 0.223529 0.0107599 0.163323 0.986514
0.463504 0.191455 -0.1538 0.969712 0.243234 -0.0222423
-0.234648 0.248814 0.19972 -0.976063 -0.217025 -0.0141704
0.42928 0.296567 -0.270267 0.973015 0.230351 0.0134448
0.217952 0.303318 -0.324419 -0.129205 0.533073 -0.836145
-0.171993 0.137697 -0.325499 0.0230461 -0.178282 -0.983709
-0.225384 0.296585 0.00106346 -0.285643 0.949965 -0.126389
-0.0546233 0.352839 0.0529412 -0.271962 0.947719 -0.16693
-0.0591071 0.242816 0.251151 -0.00490758 0.17451 0.984643
-0.0695023 0.268865 0.247078 -0.0191959 0.185476 0.982461
0.000264833 -0.193687 -0.200711 0.152102 -0.542886 0.825918
0.516598 0.0353103 0.260208 0.967298 0.252821 -0.0204144
-0.202283 0.0350681 0.0302434 -0.956588 -0.286374 0.0541185
0.543623 -0.0708498 0.152819 0.96541 0.259087 -0.0292718
-0.19859 0.328328 0.132008 -0.26766 0.948204 -0.171078
0.0251277 -0.142009 0.296439 0.169829 -0.544717 0.821244
0.341214 0.472488 0.104123 -0.254627 0.944709 -0.206616
0.480747 -0.145566 0.224169 -0.0126883 0.170084 0.985348
0.540034 -0.171151 0.194635 0.674574 -0.72932 0.114201
0.412712 -0.0183014 0.205383 0.0354064 -0.0144516 0.999269
-0.100204 -0.26991 0.045562 -0.974584 -0.221121 -0.0359478
0.115362 0.0166783 0.294011 0.0398719 0.110227 0.993106
0.451419 0.212335 -0.255127 0.956285 0.284801 -0.0663886
0.327331 0.389789 -0.304293 -0.309459 0.876227 -0.369406
-0.0205098 -0.142321 -0.270994 0.0186697 -0.18896 -0.981807
0.461893 -0.244413 -0.0825963 0.253634 -0.948243 0.191063
0.140416 0.162759 -0.322719 0.0362355 -0.192198 -0.980687
0.242356 -0.0940841 0.283805 0.181379 -0.5764 0.796784
-0.205532 0.0994466 -0.317929 0.0672759 -0.225447 -0.97193
0.191528 0.294201 -0.323829 -0.104016 0.507574 -0.855307
0.441355 -0.0299997 -0.283589 0.0203781 -0.167489 -0.985663
0.0319541 0.393528 0.13855 -0.267866 0.948045 -0.171633
0.402452 -0.102595 -0.1696 -0.0427339 0.0574062 -0.997436
0.418417 0.385747 0.142084 0.964575 0.262269 -0.0284554
-0.486231 -0.0637146 0.0355808 -0.108844 0.612902 0.782627
0.463961 -0.252701 -0.112546 0.293836 -0.947194 0.12839
0.296366 -0.00333536 0.301838 -0.0458626 0.21892 0.974664
-0.229008 0.238148 0.192128 -0.115793 0.308558 -0.944131
0.000156807 -0.250103 -0.247027 0.111529 -0.534028 -0.838078
-0.38153 -0.0528999 -0.0310848 -0.0441348 0.0285369 -0.998618
-0.218642 0.0754814 -0.08611 -0.959119 -0.276615 0.059794
