ply
format ascii 1.0
comment Created by Open3D
element vertex 512
property double x
property double y
property double z
property double nx
property double ny
property double nz
end_header
-0.119186 -0.339808 -0.323468 0.047427 -0.976012 -0.212486
0.0800938 0.109799 -0.370737 0.664185 0.189699 -0.723099
-0.0722251 -0.203694 0.353332 -0.664185 -0.189699 0.723099
0.285779 0.476019 0.0971285 0.718081 0.181185 -0.671961
0.322452 -0.414114 0.20729 0.746062 -0.106836 0.65725
-0.0747495 -0.465392 0.263294 0.047427 -0.976012 -0.212486
-0.286591 -0.396372 -0.101019 0.047427 -0.976012 -0.212486
-0.0498949 0.0502916 -0.468008 0.579161 -0.742174 0.337271
0.0199466 0.0649594 -0.315353 -0.119776 -0.927769 -0.35341
0.158166 0.027841 -0.320526 0.664185 0.189698 -0.723099
0.135836 0.218733 0.406186 -0.0541187 -0.214924 0.97513
-0.0594998 0.290093 0.271978 -0.948232 -0.110867 0.297597
-0.110732 -0.0380352 0.335762 -0.047427 0.976012 0.212486
-0.0365453 0.344025 0.101283 -0.836721 0.0773692 -0.542136
0.0833453 0.0583773 -0.0637709 -0.047427 0.976012 0.212486
0.049759 0.150641 -0.0130818 -0.473904 0.165274 -0.864927
0.0521104 -0.297566 -0.479264 0.047427 -0.976012 -0.212486
0.00486918 -0.235675 -0.402414 -0.066011 0.978372 0.196036
0.121608 -0.240221 0.46354 0.746062 -0.106836 0.65725
-0.411173 -0.00759684 -0.175129 -0.746062 0.106836 -0.65725
-0.0945259 -0.267007 -0.170574 -0.444614 0.877838 -0.178096
0.189018 -0.358992 -0.166558 0.0474253 -0.976013 -0.212485
-0.297925 -0.128623 -0.323353 -0.746062 0.106836 -0.65725
0.14265 -0.330545 -0.307574 0.0474231 -0.976013 -0.212484
-0.0978491 -0.462387 0.261929 -0.664185 -0.189699 0.723099
0.371227 -0.0850716 0.205409 0.746062 -0.106836 0.65725
-0.363287 -0.0204891 -0.0084246 0.212252 -0.975315 -0.0609077
0.215421 -0.083172 0.219068 0.651601 0.32722 0.684356
-0.11006 -0.0191914 -0.0916608 -0.428079 -0.696469 -0.575915
0.159112 -0.0768076 0.275508 0.74277 -0.0580494 0.667025
0.072461 0.0477562 -0.310518 -0.33196 -0.791832 -0.512645
0.122785 -0.474548 0.424113 0.746062 -0.106836 0.65725
-0.212128 0.0192069 0.0502005 -0.047427 0.976012 0.212486
0.0846568 0.0941284 -0.227693 -0.047427 0.976012 0.212486
0.275512 0.299013 0.37311 0.638739 -0.133916 0.75768
-0.268417 -0.304787 0.0611309 -0.554879 0.773293 -0.306803
0.044161 0.401311 0.0379533 -0.429486 0.172133 -0.886517
-0.332686 -0.0151796 -0.265455 -0.746062 0.106836 -0.65725
-0.050754 -0.251839 -0.205689 -0.474017 0.854826 -0.21114
-0.0108495 -0.0822368 -0.133446 -0.698937 -0.185597 -0.690682
-0.295471 -0.0720904 0.110127 -0.428079 -0.696469 -0.575915
0.330724 -0.33314 -0.253676 0.047427 -0.976012 -0.212486
0.141673 0.0975984 -0.317375 0.664185 0.189699 -0.723099
-0.142147 -0.11238 -0.497541 -0.746062 0.106836 -0.65725
-0.0155433 -0.022642 0.286303 -0.047427 0.976012 0.212486
0.0126164 -0.354102 0.391802 -0.664185 -0.189699 0.723099
0.315647 0.433479 0.124942 0.841425 0.153674 -0.518063
0.0204061 -0.470404 0.307554 0.047427 -0.976012 -0.212486
-0.171037 0.0279295 0.0193068 -0.047427 0.976012 0.212487
0.134004 -0.271274 -0.42119 0.664185 0.189699 -0.723099
0.117056 0.183895 0.396855 -0.153157 -0.217316 0.964011
-0.34762 -0.0238738 -0.111443 0.474016 -0.854827 0.211139
-0.144592 0.0424133 -0.261069 0.282564 -0.959216 0.0078996
-0.109382 -0.0382769 0.337173 -0.047427 0.976012 0.212486
0.213176 -0.389533 -0.150874 0.107726 -0.792653 -0.60008
0.216993 0.126216 0.374195 0.337559 -0.18455 0.923036
0.382244 0.04481 0.0652621 -0.0474271 0.976012 0.212486
-0.115104 -0.324712 -0.391899 0.047427 -0.976012 -0.212486
0.261789 -0.481983 0.0154777 0.449942 -0.841659 -0.298602
-0.188391 -0.019607 -0.364837 0.692757 -0.519732 0.499967
0.110683 0.0495014 -0.339258 -0.397002 -0.730096 -0.556192
-0.347059 -0.148828 -0.228972 0.737633 -0.00912598 0.675141
-0.31614 -0.0172652 -0.284575 -0.746062 0.106836 -0.65725
-0.0834101 -0.345443 -0.289601 0.047427 -0.976012 -0.212486
0.145963 0.409472 0.22342 -0.767961 -0.171658 0.617066
-0.12338 0.0220741 0.0568395 -0.047427 0.976012 0.212486
-0.199589 -0.109479 -0.389367 0.73066 0.0398262 0.681579
0.246292 0.375846 0.40853 0.517144 -0.158004 0.841188
-0.00375634 -0.0107531 0.282461 -0.751799 -0.174943 0.635762
-0.450477 -0.0277306 -0.133787 -0.746062 0.106836 -0.65725
0.350541 -0.0326573 0.237411 0.746062 -0.106836 0.65725
-0.0375481 0.384107 0.108551 -0.836721 0.0773692 -0.542136
0.551706 -0.24155 -0.0297225 0.664185 0.189699 -0.723099
-0.0537903 0.190661 0.120444 -0.960358 0.0139483 -0.278421
0.153533 0.115428 -0.0469936 0.00433516 0.212925 -0.977059
-0.49438 -0.0258619 0.0122242 -0.664185 -0.1897 0.723099
-0.0334617 -0.422353 0.0353267 -0.995748 -0.0293791 -0.0873048
0.355424 -0.328647 0.183755 0.746062 -0.106836 0.65725
0.344345 -0.0918178 0.154553 -0.13984 0.981722 0.129101
0.428658 -0.0865179 0.139983 0.746062 -0.106836 0.65725
0.132779 0.490766 0.128497 -0.0474234 0.976013 0.212486
-0.280847 -0.385822 -0.148197 0.047427 -0.976012 -0.212486
-0.108098 -0.0675693 0.356092 -0.664185 -0.189699 0.723099
-0.0364825 -0.178537 -0.115297 -0.734695 0.34437 -0.584494
0.115934 0.113456 -0.336857 0.664185 0.189699 -0.723099
-0.500134 -0.272118 -0.117145 -0.746062 0.106836 -0.65725
-0.478389 -0.271853 -0.141785 -0.746062 0.106836 -0.65725
0.302759 0.0728728 -0.0813796 -0.047427 0.976012 0.212486
0.340036 0.409158 0.284425 0.972857 -0.00310085 0.231385
-0.218785 0.0752834 -0.208861 -0.047427 0.976012 0.212486
-0.0495684 0.0693562 -0.35612 0.247719 -0.968468 -0.0265336
0.194619 -0.0319543 0.265603 0.554878 -0.773294 0.306802
-0.161287 -0.163229 -0.48408 -0.746062 0.106836 -0.65725
0.299544 0.410323 0.366722 0.778242 -0.0972474 0.620389
0.0811654 0.318285 0.00652294 -0.290277 0.190078 -0.937875
0.109815 0.0669813 -0.0973833 -0.0474272 0.976012 0.212486
0.380495 -0.424684 0.0394859 0.464184 -0.858647 -0.217391
0.0519503 0.224501 0.386336 -0.437297 -0.211545 0.874082
-0.0658519 -0.403309 -0.0198862 0.0474269 -0.976012 -0.212486
-0.235808 -0.175844 -0.333841 0.632527 0.372954 0.678834
-0.279743 -0.159011 -0.29778 0.698938 0.185594 0.690682
-0.247963 -0.202291 -0.306074 0.566073 0.50416 0.652215
0.404545 -0.247601 -0.166481 0.664185 0.189699 -0.723099
-0.107894 0.0455612 -0.233599 0.0660114 -0.978372 -0.196035
-0.122263 -0.274719 -0.546499 -0.746062 0.106836 -0.65725
0.408131 -0.399882 0.0701661 0.0474274 -0.976012 -0.212486
0.443714 0.0238657 0.094208 -0.397007 -0.730091 -0.556195
-0.0469307 0.224832 0.283079 -0.912255 -0.128972 0.38879
0.0776683 0.0952797 -0.234542 -0.047427 0.976012 0.212486
0.492124 -0.376965 -0.0163486 0.0474276 -0.976013 -0.212485
0.416671 -0.0351137 0.161945 0.746062 -0.106836 0.65725
0.0881221 -0.165355 -0.268093 -0.705901 0.477562 -0.523104
0.00208053 0.374619 0.391057 -0.645378 -0.192304 0.73926
-0.303469 -0.210171 -0.330315 -0.746062 0.106836 -0.65725
0.0357957 0.0940776 -0.238366 -0.0474271 0.976012 0.212486
-0.229958 -0.0797598 0.0668686 -0.514642 -0.585543 -0.626325
-0.41711 -0.276821 -0.212153 -0.746062 0.106836 -0.65725
0.00458584 0.207136 0.349677 -0.64538 -0.192304 0.739259
-0.480049 -0.165132 -0.122554 -0.746062 0.106836 -0.65725
-0.273467 -0.358415 -0.272437 0.047427 -0.976012 -0.212486
0.190827 -0.472577 -0.0451915 0.107726 -0.792653 -0.60008
-0.0756655 0.44312 0.225438 -0.995748 -0.029379 -0.0873048
-0.291622 -0.0715214 -0.321226 -0.746062 0.106836 -0.65725
0.387047 -0.0321524 0.0312614 0.6516 0.327222 0.684356
-0.282248 -0.316611 0.130797 -0.664185 -0.189699 0.723099
0.0305629 0.226265 0.374608 -0.524543 -0.205369 0.826243
0.0384464 -0.308843 -0.430517 0.0474275 -0.976012 -0.212487
0.122483 0.460335 0.0284888 -0.0454601 0.210396 -0.976559
0.520795 -0.147254 -0.033377 0.664184 0.189699 -0.7231
-0.144486 -0.267538 -0.279259 0.0828451 0.942633 0.323388
-0.0288005 0.0754965 0.0515242 -0.862875 0.0671294 -0.500939
-0.0429758 0.0714701 0.241458 -0.931401 -0.120069 0.343621
0.0709092 -0.277727 -0.480837 0.664185 0.189699 -0.723099
0.504646 -0.311305 0.0171879 0.746062 -0.106836 0.65725
-0.0701209 0.354351 0.194216 -0.990574 -0.0185894 -0.13571
-0.378188 -0.283577 -0.257432 -0.746062 0.106836 -0.65725
-0.512693 -0.201852 -0.0914675 -0.746062 0.106836 -0.65725
-0.0537482 0.415766 0.141597 -0.908689 0.0461746 -0.414913
0.332527 0.188713 0.284121 0.886885 -0.0567224 0.458496
0.26443 -0.108505 -0.25869 0.664186 0.189698 -0.723099
0.30253 0.288163 0.343827 0.778243 -0.097247 0.620388
-0.178221 0.119059 -0.400883 -0.047427 0.976012 0.212486
0.101769 -0.343483 0.469274 0.746062 -0.106836 0.65725
-0.116577 -0.275544 -0.238998 -0.139827 0.981722 0.129113
-0.00451938 -0.169614 0.424462 -0.664184 -0.189701 0.723099
-0.271405 0.0523933 -0.115465 -0.047427 0.976012 0.212486
-0.269817 -0.0579663 0.073407 -0.397002 -0.730096 -0.556192
0.154863 -0.184927 -0.379379 0.66419 0.189688 -0.723098
-0.077109 0.0479983 -0.241323 -0.00845972 -0.965299 -0.261009
0.352133 -0.0506446 0.0741231 0.589707 0.461539 0.662742
-0.1523 -0.00822132 0.18954 -0.0474276 0.976012 0.212487
0.260749 -0.437903 -0.0675362 0.299395 -0.801177 -0.518149
0.247891 -0.124215 -0.278002 0.664186 0.189697 -0.723099
-0.112732 0.0448573 -0.045434 -0.047427 0.976012 0.212486
0.476523 -0.00459808 0.0989667 0.746062 -0.106836 0.65725
-0.322816 0.0769038 -0.26169 -0.746062 0.106836 -0.65725
-0.0507824 -0.0329104 0.325603 -0.047427 0.976012 0.212486
-0.114595 0.0383519 -0.204432 -0.00845972 -0.965299 -0.261009
0.14682 -0.128743 0.31736 0.364935 0.761911 0.535084
0.172749 0.0822082 -0.153278 -0.0474266 0.976012 0.212486
0.0382398 -0.0570282 -0.190807 -0.669057 -0.280667 -0.688177
0.280198 0.378963 0.0656838 0.68258 0.186977 -0.706487
-0.192572 -0.320769 -0.427302 0.047427 -0.976012 -0.212486
0.331407 0.0883615 0.27305 0.862876 -0.0671292 0.500938
0.355547 0.0924568 0.107561 0.962706 0.101389 -0.250834
-0.0510732 0.073636 0.217427 -0.962706 -0.101389 0.250833
-0.0265873 0.385951 0.364576 -0.783647 -0.168266 0.597984
-0.214694 -0.0923345 -0.411932 -0.746062 0.106836 -0.65725
0.430301 -0.276269 0.107275 0.746062 -0.106836 0.65725
-0.182357 -0.090127 -0.44828 -0.746062 0.106836 -0.65725
-0.12513 -0.127011 -0.46217 0.669055 0.280674 0.688177
0.288524 -0.200653 -0.260732 0.664185 0.189699 -0.723099
-0.412717 -0.215286 -0.146571 0.669054 0.280677 0.688177
0.333344 0.17859 0.281289 0.886885 -0.0567224 0.458496
0.426264 -0.376842 0.0955084 0.746062 -0.106836 0.65725
-0.388293 0.0179132 0.0168231 -0.047427 0.976012 0.212486
0.139603 -0.489083 0.205448 -0.0629885 -0.976482 0.206194
-0.217289 0.0452567 -0.0706059 -0.047427 0.976012 0.212486
0.351593 -0.148388 0.217405 0.746062 -0.106836 0.65725
0.133844 -0.305431 -0.424895 0.047427 -0.976012 -0.212486
0.260407 0.366856 0.0464218 0.566263 0.201512 -0.799212
-0.0455715 0.239283 0.290685 -0.890839 -0.137555 0.432994
-0.0230145 0.0812405 -0.192528 -0.0474272 0.976012 0.212486
0.346801 0.391316 0.206375 0.991652 0.0715411 -0.107272
-0.0215052 -0.299303 0.374837 -0.664185 -0.189699 0.723099
0.0155912 0.174642 0.350668 -0.606573 -0.197153 0.770194
-0.0973599 -0.0841277 -0.500439 0.73066 0.0398262 0.681579
-0.0458785 0.00320264 -0.166731 -0.397002 -0.730096 -0.556192
-0.126157 0.018292 -0.144342 -0.15641 -0.910598 -0.382554
-0.409415 -0.270971 -0.219936 -0.746062 0.106836 -0.65725
-0.231128 0.0231817 0.0277022 -0.047427 0.976012 0.212486
-0.179107 -0.383253 -0.137289 0.047427 -0.976012 -0.212486
0.338204 -0.00746818 -0.16442 0.664185 0.1897 -0.723099
0.153671 -0.0688858 0.421235 -0.51465 -0.585531 -0.626329
0.0809313 -0.455007 -0.0461027 -0.272399 -0.839356 -0.470404
0.078982 0.472973 0.0385545 -0.242278 0.195133 -0.950381
-0.236054 -0.0766631 0.0689828 -0.514642 -0.585543 -0.626325
-0.0679154 0.296146 0.186503 -0.995748 -0.029379 -0.0873048
0.367679 -0.429388 0.139069 0.908689 -0.0461739 0.414913
0.0318812 0.443354 0.323755 -0.0474273 0.976012 0.212486
-0.459712 -0.407626 -0.0560855 -0.664185 -0.189699 0.723099
0.133277 -0.417835 -0.117485 -0.0594357 -0.802031 -0.594318
-0.208641 -0.319518 -0.436632 0.047427 -0.976012 -0.212486
0.186591 0.326182 0.42388 0.242278 -0.195133 0.950381
-0.29899 -0.178169 -0.330198 -0.746062 0.106836 -0.65725
0.424219 -0.101216 -0.110007 0.664185 0.189699 -0.723099
0.253009 -0.395074 -0.132566 0.208683 -0.79412 -0.570811
0.310669 -0.292233 0.240476 0.746062 -0.106836 0.65725
0.120869 0.126785 0.38457 -0.103769 -0.216389 0.970777
0.383398 0.0544213 -0.106672 0.664185 0.1897 -0.723099
-0.0879762 -0.0879419 0.369231 -0.664185 -0.189701 0.723099
0.241481 -0.499109 0.103294 0.328838 -0.937441 0.114324
0.171442 -0.0953512 0.43052 0.746062 -0.106836 0.65725
0.272095 0.0854634 0.337519 0.5591 -0.150342 0.815355
0.271329 0.466601 0.270417 -0.047427 0.976012 0.212486
-0.00321461 0.137835 0.0261536 -0.746062 0.106836 -0.65725
0.239544 -0.30579 -0.333305 0.664185 0.189699 -0.723099
0.11388 -0.327535 -0.327823 0.0474281 -0.976012 -0.212487
-0.189022 -0.0329237 -0.0172354 -0.364934 -0.761912 -0.535083
0.0369828 -0.403995 0.401095 -0.664185 -0.189699 0.723099
-0.432843 -0.32435 -0.202019 -0.746062 0.106836 -0.65725
-0.472966 -0.326608 -0.047005 -0.664186 -0.189699 0.723099
0.158608 -0.0956909 0.431011 -0.711288 -0.137311 -0.689359
-0.53095 -0.0824489 -0.0513339 -0.746062 0.106836 -0.65725
0.251105 0.43032 0.0558994 0.524544 0.205369 -0.826243
0.411686 -0.364638 -0.0909257 0.047427 -0.976012 -0.212486
0.131911 -0.0318361 0.361446 -0.0474271 0.976012 0.212486
-0.107196 -0.125053 -0.0249745 -0.711289 -0.137307 -0.689359
0.127364 0.0767269 -0.138231 -0.047427 0.976012 0.212486
-0.234422 0.0736265 -0.204741 -0.047427 0.976012 0.212486
-0.224649 -0.308809 -0.0855635 -0.247716 0.968469 0.0265366
0.16538 -0.304169 0.403458 0.746062 -0.106836 0.65725
0.401384 -0.0384287 -0.114509 0.664186 0.189697 -0.723099
-0.0920448 -0.316873 -0.422758 0.047427 -0.976012 -0.212486
-0.0714243 -0.0268644 -0.112941 -0.486976 -0.624099 -0.611028
0.207731 -0.103493 0.241358 0.486982 0.624091 0.611031
-0.233514 -0.115255 0.0957828 -0.632526 -0.372956 -0.678834
0.308165 -0.220648 0.254955 0.746062 -0.106836 0.65725
0.0487723 -0.0492705 0.42297 -0.0474277 0.976012 0.212487
0.476451 0.0655045 -0.00876705 -0.047427 0.976012 0.212486
0.473121 0.0536094 -0.000522531 0.247714 -0.96847 -0.0265389
0.360272 0.0607206 0.115112 0.984443 0.0817018 -0.155552
0.249189 -0.00639914 0.334265 0.429487 -0.172132 0.886516
0.432642 -0.149337 0.125249 0.746062 -0.106836 0.65725
0.265307 -0.115049 0.257141 -0.316715 0.947576 -0.0423221
-0.0685568 -0.0670472 -0.532147 0.737633 -0.009126 0.675141
0.353567 -0.449546 0.114764 0.43537 -0.89953 -0.0360338
0.0225983 0.287496 0.38459 -0.566263 -0.201512 0.799212
-0.0148106 0.0682778 -0.131155 -0.0474272 0.976012 0.212486
0.397794 -0.00613507 -0.109336 0.664183 0.189705 -0.7231
0.332576 0.0583667 -0.00809382 -0.047427 0.976012 0.212486
-0.0497637 -0.311601 -0.437534 0.047427 -0.976012 -0.212486
0.406631 0.0550372 0.0237287 -0.047427 0.976012 0.212486
-0.103659 -0.274182 -0.205124 -0.282568 0.959215 -0.00790393
0.0555413 -0.0173676 -0.228633 -0.589708 -0.461536 -0.662743
-0.245081 -0.0294259 0.0129446 -0.263617 -0.8457 -0.464002
0.033001 -0.477498 0.112934 -0.3336 -0.942667 -0.00952949
0.23865 -0.428913 0.30001 0.746062 -0.106836 0.65725
-0.452064 -0.252802 -0.168571 -0.746062 0.106836 -0.65725
-0.490473 0.00237942 -0.0834923 -0.746062 0.106836 -0.65725
0.164666 -0.450598 -0.0757869 -0.0181186 -0.798375 -0.601888
-0.0387866 0.0435218 -0.240118 -0.15641 -0.910598 -0.382554
-0.0436923 -0.351351 -0.253597 0.047427 -0.976012 -0.212486
0.111601 -0.0663911 -0.262648 -0.721872 -0.0886767 -0.686322
0.268172 0.38771 0.394975 0.638739 -0.133916 0.75768
-0.225767 0.0952182 -0.301986 -0.047427 0.976012 0.212486
0.139987 -0.216519 -0.401331 0.664185 0.189699 -0.723099
0.440227 -0.0618267 0.0357118 -0.0288089 0.973045 0.228809
-0.0309531 0.0946007 0.273798 -0.86721 -0.145795 0.47612
-0.145376 -0.0361744 0.319482 -0.047427 0.976012 0.212486
0.00816692 -0.226374 -0.241456 -0.554879 0.773292 -0.306803
0.193386 0.00460248 -0.294273 0.664185 0.1897 -0.723099
0.165115 -0.0348759 0.319947 0.382569 -0.917263 0.110763
0.0200461 0.21729 0.0187834 -0.599664 0.142306 -0.787497
0.175309 -0.146458 0.417824 0.746062 -0.106836 0.65725
0.263674 -0.354373 -0.171113 0.047427 -0.976012 -0.212486
-0.15926 -0.29191 -0.507297 -0.746062 0.106836 -0.65725
0.226535 0.332616 0.0184595 0.391988 0.213847 -0.894771
0.259544 -0.449931 0.266891 0.0474273 -0.976012 -0.212486
0.308668 0.0873104 -0.146377 -0.047427 0.976012 0.212486
0.112419 0.245623 0.410034 -0.153157 -0.217316 0.964011
-0.142456 -0.240889 -0.518079 -0.746062 0.106836 -0.65725
-0.194988 -0.0407848 -0.00255778 -0.397002 -0.730096 -0.556192
-0.0692529 0.449759 0.186759 -0.960358 0.0139484 -0.278421
0.0572354 0.0654589 -0.0334552 -0.473904 0.165274 -0.864927
0.153552 0.468003 0.23769 -0.0474278 0.976013 0.212484
0.2124 0.212925 -0.0153709 0.298562 0.216852 -0.929428
-0.117151 -0.0754103 -0.0348341 -0.611878 -0.417765 -0.671623
0.0952646 -0.214777 -0.38959 -0.382566 0.917265 -0.11076
0.247131 -0.0389456 -0.256331 0.664186 0.189698 -0.723099
-0.035815 -0.0257056 0.29585 -0.047427 0.976012 0.212486
0.0600666 0.218567 0.388698 -0.391989 -0.213847 0.89477
-0.397841 -0.0741585 -0.130813 0.677891 -0.560604 0.475591
0.0461116 -0.0406924 0.382975 -0.0474269 0.976012 0.212486
-0.19648 -0.194289 -0.356942 0.566074 0.504158 0.652216
-0.272898 -0.303817 0.0716818 -0.554879 0.773293 -0.306803
-0.110318 -0.400908 -0.0408395 0.0474271 -0.976012 -0.212487
0.452164 -0.371637 -0.0497445 0.0474271 -0.976013 -0.212486
-0.100858 0.0399684 -0.211372 -0.0457074 -0.955154 -0.292561
-0.424015 -0.0898474 -0.173922 -0.746062 0.106836 -0.65725
0.24627 -0.120473 0.269609 -0.247716 0.968469 0.0265369
0.485061 0.016584 0.0927178 0.746062 -0.106836 0.65725
0.117064 0.505992 0.055051 -0.0474292 0.976012 0.212487
-0.18509 -0.0141993 0.20968 -0.047427 0.976012 0.212486
0.530713 -0.120849 0.0185567 0.746062 -0.106836 0.65725
0.438711 -0.379063 -0.0186362 0.0474268 -0.976012 -0.212487
0.258778 0.457895 0.307604 -0.0474264 0.976013 0.212485
-0.0339853 0.289876 0.0896043 -0.836721 0.0773692 -0.542136
0.361543 -0.238583 -0.203613 0.664185 0.189699 -0.723099
0.395397 -0.0493668 -0.122879 0.664186 0.189697 -0.723099
-0.164119 -0.231867 -0.340928 0.364935 0.761911 0.535084
-0.258407 0.003276 -0.201807 0.444614 -0.877838 0.178095
0.289703 0.194592 0.342156 0.676223 -0.125193 0.725981
0.151957 0.288103 0.197116 -0.767961 -0.171658 0.617066
0.307772 0.26612 0.065127 0.783647 0.168266 -0.597984
0.490821 -0.0870221 0.0693385 0.746062 -0.106836 0.65725
0.443378 -0.136888 0.115086 0.746062 -0.106836 0.65725
0.264166 -0.134602 -0.265778 0.664184 0.189703 -0.723099
0.256191 -0.277578 0.304699 0.746062 -0.106836 0.65725
0.0210661 0.492041 0.0977066 -0.0474275 0.976012 0.212487
-0.487412 -0.0608373 0.00944936 -0.664185 -0.189699 0.723099
-0.344828 -0.0286086 -0.132969 0.529219 -0.802487 0.275575
-0.077742 -0.237626 -0.119878 -0.623348 0.674481 -0.395616
-0.167691 0.114592 -0.378012 -0.047427 0.976012 0.212486
-0.315814 -0.333994 -0.00595251 -0.212255 0.975315 0.0609043
0.336525 0.0144982 0.138283 0.316721 -0.947574 0.0423274
0.0679162 0.187997 0.384774 -0.345705 -0.215618 0.913234
0.160193 -0.117555 0.293645 0.458093 0.661111 0.594208
-0.360511 0.0316117 -0.226264 -0.746062 0.106836 -0.65725
-0.0495314 -0.39556 -0.0518358 0.0474273 -0.976012 -0.212488
0.30354 0.238694 0.33478 0.754285 -0.104462 0.648183
0.336089 0.0522187 0.0209301 -0.047427 0.976012 0.212486
0.218331 -0.0111718 -0.275498 0.664185 0.1897 -0.723099
-0.0853904 -0.00952295 0.210453 -0.0474271 0.976012 0.212487
-0.385744 -0.261503 -0.245267 -0.746062 0.106836 -0.65725
-0.42419 -0.144944 -0.142386 0.747499 -0.155357 0.64584
0.280188 0.318303 0.0498149 0.645378 0.192304 -0.73926
0.1086 -0.158934 0.409568 -0.13984 0.981722 0.129101
-0.258348 -0.0271227 0.228696 -0.664185 -0.18971 0.723096
-0.0704955 0.131074 -0.503476 0.664186 0.189701 -0.723098
-0.0149429 0.0151756 0.275459 -0.813548 -0.16117 0.558717
-0.223289 0.0154617 -0.12342 0.103048 -0.981267 -0.162775
0.269517 0.401827 0.06229 0.606574 0.197153 -0.770194
0.304507 0.217678 0.330268 0.754285 -0.104462 0.648183
-0.0123437 0.0447911 -0.0227234 -0.047427 0.976012 0.212486
0.178608 -0.0566851 0.258711 0.734695 -0.344372 0.584493
0.416417 0.074104 -0.0616667 -0.047427 0.976012 0.212486
0.224326 -0.42927 -0.095047 0.169192 -0.792849 -0.58546
0.180939 -0.322026 -0.338159 0.047427 -0.976012 -0.212486
-0.0629768 0.17846 0.16978 -0.995748 -0.029379 -0.0873048
-0.391306 0.0124993 0.0410183 -0.047427 0.976012 0.212486
0.28272 -0.0390282 -0.223663 0.664185 0.189699 -0.723099
0.0916159 -0.0795909 0.481238 -0.42808 -0.696469 -0.575916
0.293061 0.486361 0.184505 -0.0474278 0.976013 0.212484
0.264836 -0.262049 0.297409 0.746062 -0.106836 0.65725
0.374342 -0.0580078 -0.144485 0.664186 0.189698 -0.723099
0.00646906 0.0899748 -0.226066 -0.0474269 0.976012 0.212486
0.39967 0.0316504 0.0906938 0.139825 -0.981722 -0.129114
-0.21432 -0.41054 -0.0198111 0.0474268 -0.976013 -0.212486
0.199364 0.503134 0.0481525 0.298563 0.216852 -0.929427
-0.318757 -0.334746 -0.00415885 -0.212253 0.975315 0.0609069
0.0458165 0.213786 0.00114433 -0.473904 0.165274 -0.864928
0.141447 -0.171764 0.452148 0.746062 -0.106836 0.65725
-0.0246592 -0.191254 -0.139587 -0.71729 0.434209 -0.544938
0.0958832 -0.0556411 0.462748 -0.047427 0.976012 0.212486
0.481662 -0.366272 -0.0678029 0.0474267 -0.976013 -0.212484
-0.371513 -0.324847 -0.0524701 0.15641 0.910598 0.382555
0.439382 -0.130685 -0.10381 0.664185 0.189699 -0.723099
0.139754 -0.358875 -0.178091 0.0474264 -0.976013 -0.212486
-0.00252876 0.285173 0.0501817 -0.676224 0.125193 -0.725981
-0.28731 -0.00954467 0.165484 -0.047427 0.976012 0.212486
0.0408856 0.285749 0.395473 -0.481517 -0.208717 0.851222
-0.0365275 0.0654821 -0.44809 0.474016 -0.854827 0.211139
0.09922 -0.203637 0.4949 0.746062 -0.106836 0.65725
0.314816 -0.41534 -0.0680077 0.360787 -0.810566 -0.46132
-0.0906551 0.0561811 -0.528591 -0.746062 0.106836 -0.65725
0.205298 -0.0297991 0.326446 -0.0828472 -0.942632 -0.32339
-0.119988 0.0493682 -0.296642 0.282564 -0.959216 0.0078993
0.141509 -0.514029 0.0733705 -0.245581 -0.963556 0.106066
-0.0305631 0.466653 0.202796 -0.047427 0.976012 0.212486
-0.0628502 0.213681 0.160414 -0.990574 -0.0185894 -0.13571
0.328529 -0.348935 0.210986 0.746062 -0.106836 0.65725
0.190593 0.0866502 -0.169699 -0.047427 0.976012 0.212486
0.106266 0.0959923 -0.231432 -0.0474273 0.976012 0.212487
0.311862 0.332157 0.338223 0.808486 -0.0874172 0.581987
0.191054 -0.213525 0.389049 0.746062 -0.106836 0.65725
-0.0176628 0.29001 0.348778 -0.751798 -0.174943 0.635763
0.454056 -0.18466 -0.104492 0.664185 0.189699 -0.723099
-0.477431 -0.262895 -0.0597494 0.58971 0.461534 0.662743
0.0324368 -0.230947 -0.309886 -0.414103 0.89867 -0.144605
0.477719 0.0438507 0.0909787 -0.0474272 0.976012 0.212486
0.388727 -0.0249235 0.179314 -0.698941 -0.185581 -0.690681
-0.324377 -0.0100592 -0.0935383 0.350077 -0.933581 0.0766373
-0.0776406 0.0753778 -0.52465 0.664172 0.189699 -0.723111
-0.0230445 -0.417598 -0.0154513 -0.945471 0.0247609 -0.324763
-0.282748 0.00884773 0.0820208 -0.0474271 0.976012 0.212487
0.23039 -0.0851178 0.206457 0.589707 0.461539 0.662742
-0.00766068 0.455326 0.259937 -0.047427 0.976013 0.212485
0.206241 -0.332984 -0.28218 0.047427 -0.976012 -0.212486
-0.0582119 0.389623 0.149176 -0.928234 0.0355117 -0.370298
0.515873 -0.362464 -0.0776582 0.047427 -0.976012 -0.212486
-0.201884 -0.272977 -0.245289 0.15641 0.910598 0.382555
0.194861 -0.295054 0.371474 0.746062 -0.106836 0.65725
0.35282 0.262185 0.175892 0.991652 0.0715411 -0.107272
0.0491981 -0.312538 -0.411145 0.0474275 -0.976012 -0.212487
0.182819 -0.308929 0.382888 0.746062 -0.106836 0.65725
-0.082222 0.0907516 -0.24943 -0.047427 0.976012 0.212486
-0.164394 -0.119785 -0.473491 -0.746062 0.106836 -0.65725
0.316963 0.426334 0.343222 0.862875 -0.0671295 0.500939
-0.125702 -0.410686 0.000638427 0.0474273 -0.976012 -0.212487
-0.164998 -0.199397 -0.378699 0.514644 0.585541 0.626326
0.315809 -0.394621 0.217999 0.746062 -0.106836 0.65725
0.302347 0.283763 0.343367 0.778243 -0.097247 0.620388
-0.519927 -0.0988777 -0.0665169 -0.746062 0.106836 -0.65725
0.0459076 0.128289 -0.393251 -0.047427 0.976012 0.212486
0.152936 -0.167163 -0.363579 -0.643141 0.638081 -0.423346
0.0580688 -0.144334 0.40235 0.486982 0.624091 0.611031
-0.0728138 -0.0697915 0.387919 -0.664185 -0.189697 0.723099
-0.214522 -0.237026 -0.29861 0.397001 0.730097 0.556191
0.0503751 0.0558886 -0.0596986 -0.0474268 0.976012 0.212486
-0.00491546 0.0785554 -0.176154 -0.0474271 0.976012 0.212486
0.327103 -0.432439 -0.0224903 0.428615 -0.829999 -0.356919
-0.248237 -0.0980333 -0.334668 0.746062 -0.106835 0.65725
0.227695 -0.312495 -0.345947 0.664185 0.189699 -0.723099
0.055505 0.088533 -0.395532 -0.00845972 -0.965299 -0.261009
0.077208 -0.485836 0.176356 -0.213434 -0.96786 0.133014
-0.273348 -0.214632 0.155072 -0.747499 0.155354 -0.645841
-0.239857 -0.294396 0.0356665 -0.554879 0.773293 -0.306803
0.343885 0.300502 0.146897 0.962707 0.101389 -0.250831
0.307971 0.315553 0.341134 0.808486 -0.0874172 0.581987
0.395619 0.0723344 -0.0581805 -0.047427 0.976012 0.212486
0.142833 0.44962 0.319735 -0.0474283 0.976012 0.212486
0.297522 -0.347825 -0.193635 0.047427 -0.976012 -0.212486
0.199367 0.432317 0.411831 -0.0474275 0.976012 0.212487
-0.419044 -0.0173383 0.0836585 -0.664185 -0.1897 0.723099
0.348485 0.322276 0.244752 0.990574 0.0185897 0.135708
-0.118618 0.0716348 -0.169745 -0.047427 0.976012 0.212486
-0.41958 -0.0244816 -0.168331 -0.746062 0.106836 -0.65725
-0.011141 -0.243422 -0.262621 -0.414103 0.89867 -0.144605
-0.323493 -0.301349 -0.126588 0.22842 0.869512 0.437919
-0.253857 0.00133629 -0.0634561 0.028813 -0.973046 -0.228805
-0.160703 0.0947758 -0.285432 -0.047427 0.976012 0.212486
0.329425 -0.109293 0.248924 0.746062 -0.106836 0.65725
-0.254813 -0.317431 -0.0500055 -0.282568 0.959215 -0.00790375
-0.326273 -0.412689 -0.0349243 0.0474267 -0.976013 -0.212486
-0.0794034 0.0609354 -0.342717 0.316715 -0.947576 0.042322
0.095884 -0.163897 -0.277299 -0.692756 0.519734 -0.499966
-0.149208 -0.285505 -0.197562 -0.176258 0.979736 0.0951284
-0.230175 -0.0143812 -0.0245848 -0.192651 -0.891165 -0.410745
-0.106824 -0.175567 0.328931 -0.664185 -0.189699 0.723099
-0.387977 -0.347097 -0.256645 -0.746062 0.106836 -0.65725
0.24289 0.311097 0.398416 0.473903 -0.165274 0.864928
0.335647 0.337536 0.293597 0.928235 -0.0355113 0.370296
-0.100454 -0.383259 0.280295 -0.664185 -0.189699 0.723099
0.105939 -0.122925 0.488377 -0.746595 0.118986 -0.654552
0.0814348 0.0532042 -0.324744 -0.33196 -0.791832 -0.512645
-0.171892 -0.423511 0.049242 0.0474281 -0.976012 -0.212489
0.296077 -0.453651 -0.0104199 0.428615 -0.829999 -0.356919
-0.458749 -0.320747 -0.0324083 -0.664185 -0.1897 0.723099
-0.176677 -0.411678 -0.00618085 0.0474268 -0.976013 -0.212486
0.0448144 0.487137 0.12553 -0.0474275 0.976012 0.212487
0.313329 -0.41271 0.217874 0.746062 -0.106836 0.65725
-0.0265148 0.0885029 -0.226667 -0.047427 0.976012 0.212486
-0.373646 0.0344217 -0.0557365 -0.047427 0.976012 0.212486
0.198783 -0.305456 -0.370657 0.664185 0.189699 -0.723099
-0.370046 -0.0409816 0.0943444 -0.0828481 -0.942632 -0.32339
-0.275488 -0.320322 -0.0706226 -0.139827 0.981722 0.129113
-0.213944 0.0197979 -0.229166 0.382565 -0.917266 0.110758
-0.0695295 -0.158087 -0.0672266 -0.747499 0.155354 -0.645841
-0.345666 -0.283644 -0.143384 0.364935 0.761911 0.535083
-0.308151 -0.327285 -0.0503767 -0.103049 0.981267 0.162774
-0.032357 0.0964959 -0.264686 -0.047427 0.976012 0.212486
0.0156393 0.14111 0.00873914 -0.638737 0.133916 -0.757682
0.344074 0.0145016 0.158676 0.0660016 -0.978371 -0.196044
-0.302082 -0.328812 0.109379 -0.664185 -0.189699 0.723099
-0.0950588 -0.120031 -0.552235 -0.746062 0.106836 -0.65725
0.369451 0.025056 0.153143 -0.0474271 0.976012 0.212486
0.498799 0.00293747 0.0603529 -0.711288 -0.137311 -0.689359
-0.208743 0.0172022 -0.126024 0.0660111 -0.978372 -0.196036
0.443963 -0.331828 0.0827352 0.746062 -0.106836 0.65725
0.186847 0.266872 0.411636 0.193673 -0.199704 0.960526
-0.208963 -0.327541 -0.399853 0.047427 -0.976012 -0.212486
0.347406 0.283967 0.25176 0.972857 -0.00310085 0.231385
-0.0787908 -0.0173818 -0.507278 0.734695 -0.344371 0.584493
-0.27593 -0.245883 0.146004 -0.734695 0.34437 -0.584494
-0.25047 0.038256 -0.350095 -0.746062 0.106836 -0.65725
-0.222336 -0.108019 0.240551 -0.664185 -0.189699 0.723099
0.545659 -0.177509 -0.0076178 0.746062 -0.106836 0.65725
0.0140006 0.0581859 -0.00435794 -0.676224 0.125193 -0.72598
-0.171006 0.00933253 -0.444998 -0.746062 0.106836 -0.65725
0.180975 0.0633496 -0.0648191 -0.047427 0.976012 0.212486
-0.0887287 -0.248239 -0.349588 0.119778 0.927768 0.353412
-0.373418 -0.347413 -0.273223 -0.746062 0.106836 -0.65725
-0.278586 -0.321187 0.0199697 -0.414103 0.89867 -0.144605
0.377439 -0.324542 0.159432 0.746062 -0.106836 0.65725
-0.470672 -0.412237 -0.0673619 -0.664185 -0.189699 0.723099
-0.065973 -0.0477501 0.390376 -0.047427 0.976012 0.212486
-0.342514 -0.409272 0.0511324 -0.664185 -0.189699 0.723099
-0.331322 0.026102 -0.260292 -0.746062 0.106836 -0.65725
0.410928 -0.353167 -0.143784 0.047427 -0.976012 -0.212486
0.30821 0.364553 0.093412 0.813546 0.16117 -0.558719
0.0114426 -0.46429 0.0594118 -0.376216 -0.914761 -0.147219
0.347105 0.38077 0.245833 0.995748 0.0293787 0.0873062
-0.13774 -0.239245 -0.345986 0.263616 0.8457 0.464001
-0.132051 0.135425 -0.465751 -0.047427 0.976012 0.212486
-0.087645 -0.197052 0.340911 -0.664185 -0.1897 0.723099
-0.337531 -0.0550856 0.112237 -0.263617 -0.8457 -0.464002
-0.359318 -0.258136 -0.163932 0.486975 0.6241 0.611027
0.356525 0.178294 0.154194 0.991652 0.0715417 -0.107275
-0.203228 -0.0200566 0.232536 -0.047427 0.976012 0.212486
-0.383921 -0.0295986 -0.0493887 0.414105 -0.898669 0.144608
-0.419918 0.0482868 -0.156118 -0.746062 0.106836 -0.65725
