ply
format ascii 1.0
comment Created by Open3D
element vertex 825
property double x
property double y
property double z
property double nx
property double ny
property double nz
end_header
-0.203721 0.0241681 0.0334211 0.016819 0.980993 0.193312
0.337031 -0.0162892 0.249016 0.668405 -0.100602 0.736962
0.14599 0.0796901 -0.0528094 -0.0225557 0.163475 -0.98629
-0.235868 -0.250851 0.097614 -0.805685 0.365752 -0.465936
-0.11393 -0.269343 -0.150098 -0.407989 0.90027 -0.151852
0.138284 0.323781 0.429163 0.0805218 -0.234263 0.968833
0.318235 -0.462566 0.103749 0.46237 -0.883444 -0.0757697
0.0281334 -0.356451 -0.205724 -0.00169579 -0.979931 -0.199328
-0.416554 -0.262871 -0.107173 0.544545 0.538673 0.642886
-0.171724 0.0498696 -0.0949262 -0.103621 0.960809 0.257118
0.155618 -0.386381 0.398196 0.758914 -0.108543 0.642081
-0.399961 -0.101297 -0.20057 -0.822603 0.07872 -0.56314
0.111509 -0.213544 0.47867 0.76768 -0.110118 0.631301
-0.0892689 -0.258926 0.321459 -0.663379 -0.196547 0.722009
-0.0801851 -0.0898529 -0.56168 -0.632359 0.123676 -0.764739
-0.177344 -0.0221434 0.247025 0.0422375 0.989041 0.141469
0.377029 -0.375177 -0.0520209 0.0397865 -0.979381 -0.198063
-0.396527 0.0606142 -0.176278 0.0449951 0.998901 -0.0131288
0.173247 0.073221 -0.110051 -0.0505267 0.974263 0.219677
0.304561 0.446889 0.364601 -0.119976 0.946388 0.299924
0.367401 -0.242512 -0.196384 0.672053 0.152846 -0.724557
0.23591 -0.067981 0.344358 -0.68368 -0.207732 -0.699592
0.410543 -0.398736 0.0642753 0.0128515 -0.981007 -0.193546
0.323354 -0.265168 -0.247875 0.69672 0.124504 -0.706456
0.105545 -0.487089 0.00378409 -0.442687 -0.817482 -0.368445
0.127025 -0.339185 0.441329 0.758907 -0.102288 0.643115
-0.26715 -0.434299 0.0953432 0.0354694 -0.977993 -0.205599
0.209721 0.377141 0.0171727 0.35636 0.206646 -0.911211
0.0960516 -0.358938 -0.194094 -0.0334629 -0.993695 -0.107008
-0.186535 0.0647873 -0.153476 -0.0462124 0.971585 0.232137
-0.453299 0.0254133 -0.0477751 -0.0324135 0.939092 0.342135
-0.242731 -0.436256 0.0890273 0.102619 -0.96409 -0.24495
-0.141655 -0.00772251 0.188598 -0.115014 0.953022 0.280215
0.260759 0.446286 0.360391 -0.0245889 0.981209 0.191375
0.300403 0.275888 0.0608913 0.738448 0.203698 -0.642808
0.245362 -0.119847 0.29173 -0.466027 0.867302 -0.174944
0.313629 0.0803507 -0.165965 0.746655 0.105987 -0.656714
-0.0188514 -0.445607 0.0363577 -0.319898 -0.920455 -0.224562
0.209838 -0.33424 -0.266682 0.00806541 -0.98501 -0.172306
0.160934 -0.11015 0.430516 -0.679276 0.253587 -0.688678
0.0332814 -0.0787914 -0.181306 -0.710839 -0.164756 -0.683786
-0.023154 0.315219 0.0773012 -0.697077 0.100351 -0.709939
-0.0641402 0.113504 -0.339941 -0.181571 0.958013 0.221907
0.320109 -0.464106 0.111287 0.47244 -0.87471 -0.108083
-0.263223 -0.351054 -0.312028 -0.00374544 -0.984645 -0.174529
-0.0230295 0.0575464 -0.081319 -0.0862596 0.972396 0.216806
0.147391 0.255731 0.20861 -0.610833 0.140147 -0.779257
0.121415 0.43033 0.0174099 -0.0626141 0.109391 -0.992025
0.0106332 -0.424757 -0.0582322 -0.308797 -0.850903 -0.42498
-0.525265 -0.231596 -0.0799013 -0.840875 0.11504 -0.528862
0.0234556 0.307617 0.0321033 -0.605985 0.146435 -0.781882
-0.273766 0.0939771 -0.300261 -0.0482745 0.97587 0.212949
0.149335 0.0851312 -0.315148 0.703769 0.114547 -0.701134
0.0184569 -0.0522739 0.435034 -0.089172 0.987174 0.132426
0.345086 0.384593 0.194958 0.983013 0.0935598 -0.157897
0.298246 0.144949 0.325593 0.8333 -0.12592 0.538289
-0.336749 -0.40291 0.055572 -0.676832 -0.166365 0.717092
0.144432 0.130353 -0.0462161 -0.0765062 0.23495 -0.968992
-0.392666 -0.38873 0.00552307 -0.604556 -0.25285 0.755367
0.297356 -0.236608 -0.259582 0.625551 0.22113 -0.748189
0.443673 0.0377099 -0.0128495 0.682289 -0.659939 0.314583
-0.418621 0.0326583 -0.157677 -0.733341 0.133993 -0.666526
-0.0537723 -0.0297459 -0.13007 -0.350523 -0.614022 -0.707185
-0.29548 -0.238913 -0.23717 0.555604 0.490806 0.671129
0.192003 -0.120402 0.276285 0.395761 0.757538 0.519143
0.313398 0.0884414 0.0229301 0.745407 0.195507 -0.637295
-0.333457 -0.380105 -0.175233 0.126535 -0.954989 -0.268299
-0.000630837 -0.236432 -0.244472 -0.38343 0.863278 -0.328226
0.238294 0.0824368 -0.134946 -0.0696198 0.95988 0.271632
-0.149027 -0.375092 0.236867 -0.680603 -0.176595 0.711051
0.281601 -0.110469 0.23004 -0.143574 0.987337 -0.0674751
-0.0787208 -0.465182 0.272543 0.0219956 -0.982476 -0.185086
0.358776 0.130213 0.158192 0.991329 0.099355 -0.0860012
-0.0220376 -0.345575 -0.282556 0.00430687 -0.999729 -0.0228991
0.124725 -0.0494265 0.428373 -0.0634389 0.941852 0.329986
-0.0558075 0.245837 0.270583 -0.950767 -0.095995 0.294663
-0.106692 0.0378028 -0.400276 0.540495 -0.776539 0.323808
-0.228704 -0.285501 -0.428459 -0.684135 0.0579968 -0.727046
-0.221962 -0.409122 0.167442 -0.659759 -0.200664 0.72419
-0.274672 -0.308024 -0.119929 -0.0218892 0.954961 0.295922
0.449758 -0.123862 -0.0898056 0.684507 0.0749021 -0.725148
0.137851 -0.204785 0.448671 0.756239 -0.103265 0.646095
-0.205294 -0.116497 -0.426525 -0.656453 0.0787791 -0.750242
0.136978 0.0501878 -0.337553 0.680992 0.17574 -0.710891
0.00320555 0.084482 -0.406019 0.209613 -0.966222 -0.149925
-0.120318 -0.344505 -0.314191 0.0362741 -0.978679 -0.202166
0.0670796 0.0579513 -0.0554726 0.0129653 0.987723 0.155674
0.0170415 0.041894 0.315662 -0.678154 -0.157757 0.717788
0.506072 -0.0354312 0.0584118 0.710022 -0.0902832 0.698368
0.150285 -0.0439237 0.30482 0.570504 -0.707315 0.417409
-0.404982 -0.204421 -0.214645 -0.727174 0.104294 -0.678484
-0.193448 0.0297579 -0.415719 -0.815477 0.0980284 -0.570427
-0.123847 -0.316455 0.279384 -0.653717 -0.206945 0.727893
-0.366802 -0.331619 -0.0459769 0.196482 0.944113 0.26466
0.050764 -0.030071 0.335828 -0.049388 0.982832 0.177772
0.338544 -0.046695 -0.17538 0.671635 0.173221 -0.720348
0.362121 -0.310005 -0.220698 0.650573 0.212738 -0.729038
0.199088 -0.332142 0.359645 0.749733 -0.106985 0.653035
0.417169 0.0703711 -0.0493467 -0.0441154 0.977525 0.20615
-0.271019 0.0338858 -0.0100494 -0.142145 0.949973 0.278112
0.272783 0.367718 0.0556278 0.648577 0.17896 -0.739811
0.0400358 -0.0548727 -0.196159 -0.741373 -0.287091 -0.606584
0.207217 -0.465654 0.31303 -0.016669 -0.986837 -0.160857
-0.0853571 -0.171184 0.352459 -0.685008 -0.168552 0.70877
-0.133927 -0.0570011 -0.453264 0.765697 -0.200418 0.61118
-0.232184 -0.376918 -0.172629 0.0965336 -0.958517 -0.268191
0.123873 -0.0251119 0.350129 -0.155745 -0.204053 0.966492
0.0510271 0.389556 0.428167 -0.279229 -0.340115 0.897972
-0.257071 -0.380503 -0.17384 -0.0689023 -0.994113 -0.0836145
0.203497 -0.383435 -0.154825 0.264461 0.140657 -0.954084
-0.247993 -0.131618 0.121303 -0.697123 -0.318785 -0.642181
0.358109 0.0206304 0.106453 0.445414 -0.887283 0.119728
0.337645 0.0290003 -0.15355 0.713526 0.0323766 -0.69988
0.116369 0.463262 0.0287696 -0.0602821 0.184273 -0.981025
-0.280377 0.0504307 -0.106963 -0.192959 0.917697 0.347274
0.109129 0.0929517 -0.350478 0.635657 0.232574 -0.736104
0.348438 -0.0277386 0.21774 -0.480324 -0.50582 -0.716543
-0.0185478 -0.468809 0.334729 -0.611198 -0.251021 0.750616
0.142049 -0.378924 -0.15247 -0.107062 0.170011 -0.979609
-0.155234 -0.356127 0.232075 -0.674094 -0.142321 0.724805
-0.100917 0.008142 0.128512 -0.0483074 0.967048 0.24997
-0.306856 0.0161481 0.0486949 -0.0474495 0.977292 0.206518
-0.144422 -0.314855 -0.429725 0.0296304 -0.988756 -0.146576
-0.356191 0.0191526 0.0201151 -0.0238349 0.986974 0.159102
-0.105163 -0.000947393 -0.520506 -0.715835 0.117826 -0.688256
-0.513735 -0.0620257 -0.0689325 -0.736477 0.11338 -0.666893
0.146663 -0.170085 -0.360436 -0.673769 0.648501 -0.354235
0.0305398 0.0796061 -0.16215 -0.0863723 0.941959 0.324426
0.131487 0.0970057 0.380041 -0.0198662 -0.24668 0.968893
-0.27291 0.0206955 0.026752 -0.00871067 0.990479 0.137391
-0.319363 -0.131247 -0.298261 -0.694355 0.0573999 -0.71734
0.265071 0.16102 0.355016 0.333828 -0.171205 0.926956
0.272704 -0.344318 0.279794 0.745857 -0.10768 0.657345
0.351623 0.127806 0.237777 0.959808 0.0687806 0.272101
0.0540194 -0.0494352 0.426755 -0.162657 0.945174 0.283175
0.350982 0.176937 0.237889 0.966888 -0.0422071 0.251685
0.410835 -0.102226 0.157629 0.734881 -0.100475 0.670712
-0.0242351 -0.259676 -0.562169 0.684861 0.126396 -0.717628
-0.248319 0.0751322 -0.347734 -0.688432 0.121993 -0.714968
0.0650327 0.0590167 -0.0622834 -0.0468162 0.982677 0.179317
0.291795 -0.436462 -0.0499501 0.369783 -0.808394 -0.457996
0.0540396 0.0762165 -0.16078 -0.116902 0.951979 0.282966
0.149238 -0.458789 -0.0596046 -0.119457 -0.807409 -0.577772
-0.0577356 -0.26022 -0.219375 -0.397303 0.910401 0.115415
0.163745 -0.512536 0.0915688 -0.130445 -0.950129 0.283265
0.521128 0.0506458 0.0214133 0.678709 0.132333 -0.722386
0.152574 0.503553 0.0886421 0.0191791 0.987042 0.159312
-0.170898 -0.166204 0.0420354 -0.752033 0.0615379 -0.656246
-0.0717901 0.111969 -0.347783 -0.0666978 0.968845 0.238516
0.291997 -0.402357 -0.100418 0.297295 -0.809807 -0.505794
-0.198773 -0.19216 -0.443977 -0.703754 0.146339 -0.695209
-0.215372 -0.318713 -0.447271 -0.785393 0.0776952 -0.614102
-0.233107 -0.281824 0.191102 -0.616872 -0.220413 0.75557
0.443484 -0.221899 0.0997858 0.621852 -0.0443291 0.781879
-0.0205395 0.0756061 -0.374569 0.217095 -0.959909 -0.177327
0.249754 0.349698 0.035588 0.522757 0.209618 -0.826309
0.109844 0.457942 0.256766 -0.111445 0.932879 0.342516
-0.234206 -0.247111 0.0931271 -0.670574 0.43611 -0.600116
0.225804 -0.0962608 0.360023 -0.760609 0.247756 -0.600076
0.185375 0.50878 0.0446944 0.229619 0.242262 -0.942648
0.0362547 0.0967133 -0.41624 0.584374 0.316714 -0.747127
-0.29151 -0.432278 0.0677841 0.0754496 -0.985253 -0.153568
0.259106 0.0823529 -0.133206 -0.00393346 0.983725 0.179635
-0.0728344 -0.32286 -0.396283 0.0468902 -0.938144 -0.343054
-0.340129 -0.0635678 0.130772 -0.260275 -0.787878 -0.558127
0.172127 -0.275506 -0.3884 0.660796 0.199456 -0.723578
0.218138 -0.189993 0.367504 0.712699 -0.0878213 0.695951
-0.0517998 -0.175965 -0.570369 0.666952 0.184428 -0.721915
0.330128 0.341543 0.120185 0.906919 0.131293 -0.400325
-0.0367131 -0.227331 -0.171837 -0.623564 0.695753 -0.356504
0.362692 0.0713936 0.128885 0.983373 0.112993 -0.14216
0.274045 -0.0664027 0.156985 0.607344 0.358949 0.708724
-0.170931 0.0411648 -0.0530847 -0.0832798 0.964641 0.250064
-0.375507 -0.04194 -0.111339 0.571834 -0.767341 0.290161
-0.234634 -0.0335826 -0.379301 -0.773685 0.0910844 -0.626989
-0.122531 -0.0296958 -0.50687 -0.631757 0.108195 -0.767579
0.480777 -0.347119 0.0375337 0.657184 -0.132226 0.742042
-0.0334693 0.0642166 -0.448747 0.499463 -0.845151 0.19041
-0.127879 -0.283071 0.279007 -0.70935 -0.138366 0.691142
0.144609 0.300844 -0.00580489 0.143242 0.106328 -0.983959
0.323056 0.439558 0.329217 0.908909 -0.0450949 0.414549
0.384658 -0.267079 0.15648 0.757568 -0.111643 0.643138
0.383428 -0.302323 0.152015 0.719846 -0.115627 0.684436
0.0827045 -0.475554 0.234291 -0.37621 -0.306219 0.874469
-0.256242 0.0203485 -0.34413 -0.84766 -0.0327995 -0.529525
0.212553 0.500981 0.0815217 -0.0492029 0.975373 0.215003
0.170412 0.0783597 -0.137148 -0.119078 0.966572 0.227068
-0.406687 -0.241622 -0.21708 -0.704077 0.111298 -0.701348
0.0328757 -0.0671231 0.477969 -0.0629034 0.969926 0.235131
-0.0643309 0.0545325 -0.273816 0.0131872 -0.982591 -0.185311
-0.510724 -0.159982 -0.0829652 -0.76383 0.124597 -0.633276
-0.388258 -0.276542 -0.248083 -0.66397 0.120669 -0.737958
0.238018 0.174635 0.374246 0.434139 -0.322949 0.840968
-0.0471749 0.360177 0.126884 -0.907254 -0.0769702 -0.413481
0.188643 -0.467186 -0.0492955 0.0884903 -0.788619 -0.608482
-0.447202 -0.24383 -0.099721 0.618753 0.406435 0.672276
-0.131425 -0.12961 0.00369387 -0.686966 -0.111956 -0.718014
-0.314837 -0.00878621 -0.0730791 0.251187 -0.965607 -0.0671405
-0.0372117 -0.253958 -0.327864 -0.139823 0.982008 0.126925
-0.241832 0.0150655 0.0681427 -0.00864454 0.981401 0.191772
-0.0483041 0.109917 0.0940239 -0.870738 0.0813295 -0.484976
-0.269656 -0.371576 0.127729 -0.710291 -0.173441 0.682205
-0.0562514 0.462872 0.219554 -0.0349564 0.98634 0.160967
0.0490419 -0.0356141 0.367009 -0.171933 0.950843 0.257559
-0.0848758 -0.219306 -0.579947 -0.562668 0.135871 -0.815441
-0.101729 0.0429833 -0.0355767 -0.0419224 0.987524 0.151788
-0.428497 -0.138775 -0.173777 -0.731426 0.10435 -0.67389
0.187012 -0.370042 -0.152892 0.18446 0.06621 -0.980607
0.123092 -0.469396 -0.0386982 -0.217066 -0.86099 -0.459976
0.48991 -0.00325714 0.0796977 0.858828 -0.115307 0.499118
0.137188 -0.388441 -0.151988 -0.158386 0.0947491 -0.982821
0.296482 -0.36171 -0.12193 0.108375 -0.958881 -0.262303
-0.300159 0.0734469 -0.21153 -0.0565106 0.972947 0.22401
-0.231398 0.090346 -0.273667 -0.0879005 0.954002 0.286623
0.370237 0.0483526 -0.123347 0.606028 0.318363 -0.728955
-0.0413124 0.191231 0.279516 -0.867548 -0.166618 0.468613
-0.143056 -0.342841 -0.290199 0.0460892 -0.946087 -0.320616
0.16473 0.0583963 0.159584 -0.94414 0.0072692 -0.329463
-0.48294 -0.0977832 -0.0377591 0.726523 -0.553148 0.407666
0.436079 -0.00295449 0.143509 0.757035 -0.108307 0.644335
-0.0457627 0.0599315 -0.0937846 -0.119749 0.951715 0.282662
0.364212 0.0679273 0.176126 0.987108 -0.0578576 0.149231
-0.0745066 -0.422419 0.0764649 0.00124373 -0.985291 -0.170882
0.115424 0.457219 0.0264348 -0.0847959 0.199421 -0.976238
-0.122219 0.106014 -0.336358 0.0411382 0.980012 0.19464
0.285673 -0.326415 -0.286316 0.057968 -0.966631 -0.249529
-0.218124 -0.0656576 -0.407182 -0.70088 0.10525 -0.705471
-0.526594 -0.0295606 -0.0148063 -0.65723 -0.221577 0.720384
0.294659 -0.00917719 -0.208845 0.642697 0.240099 -0.727525
0.512885 -0.370806 -0.00324186 0.745568 -0.108322 0.657567
0.478205 -0.150156 0.0737783 0.743048 -0.105757 0.660829
-0.0631797 -0.404513 -0.0296146 0.145614 -0.955741 -0.255646
-0.523188 -0.0619179 -0.0532731 -0.73905 0.106493 -0.665179
0.201884 -0.443513 -0.0783231 0.103366 -0.784135 -0.611921
0.0804292 0.012536 0.347731 -0.324132 -0.258125 0.910115
0.0986194 -0.151262 -0.269782 -0.686898 0.434892 -0.582272
0.392558 -0.284548 0.152923 0.762566 -0.11463 0.636673
0.243596 0.0296044 -0.24317 0.72251 0.0674236 -0.688065
-0.294769 -0.147325 0.166633 -0.592786 -0.20559 -0.778677
-0.0590848 0.0669312 0.153298 -0.998484 -0.0427259 -0.0346917
0.456337 -0.255067 0.0794905 0.735213 -0.117995 0.667487
0.450569 -0.0611485 0.0232922 -0.0316711 0.979259 0.200123
0.357522 -0.428028 -0.00155826 0.37421 -0.918259 -0.129487
0.325003 0.399615 0.1335 0.906684 0.0996988 -0.40986
-0.162401 -0.369498 -0.200782 -0.0437082 -0.977928 -0.204317
0.371377 -0.0845118 0.145138 -0.249467 0.961856 -0.112244
-0.100478 -0.00689669 -0.476221 0.683014 -0.455549 0.570936
0.260517 0.445309 0.35956 -0.141091 0.964803 0.221918
-0.0805519 -0.263984 -0.198351 -0.395578 0.916531 -0.059073
0.503708 -0.277909 -0.0865029 0.678353 0.145608 -0.720164
0.148422 0.274588 0.213373 -0.389356 0.225646 -0.893021
-0.484897 -0.274483 -0.0429377 0.496905 0.508463 0.703243
-0.278338 -0.152759 0.172647 -0.653022 -0.225245 0.723067
-0.17898 -0.00519967 -0.0682488 -0.292228 -0.884935 -0.362619
-0.050654 -0.168117 -0.502544 0.464933 0.630687 0.621346
0.25086 -0.309385 0.309348 0.542447 -0.135792 0.829043
0.0476708 -0.0375957 -0.208969 -0.486244 -0.301079 -0.820315
0.324523 0.186076 0.295289 0.904705 -0.057443 0.422149
-0.374914 -0.383452 0.0262276 -0.725458 -0.15002 0.671718
0.357561 0.18932 0.18002 0.999661 0.0213324 0.0149271
-0.307722 -0.303648 -0.342399 -0.773164 0.108403 -0.624873
0.221154 0.0778231 -0.132483 -0.0644436 0.9647 0.255346
-0.197649 -0.407114 -0.0214651 0.127589 -0.942243 -0.309675
-0.0469469 -0.28628 0.356057 -0.681259 -0.113067 0.723258
-0.21186 -0.123039 0.248013 -0.658291 -0.196783 0.726587
-0.229245 -0.155131 -0.348364 0.660834 0.381345 0.646433
0.171273 -0.0830543 0.415388 -0.728498 -0.307813 -0.611998
0.533644 -0.318235 -0.0156989 0.790874 -0.077879 0.607003
-0.228064 0.0322796 -0.00843078 -0.0196423 0.986212 0.164318
0.449352 -0.150961 -0.0970272 0.667302 0.185227 -0.721387
-0.227477 -0.0859632 0.24136 -0.785115 -0.0443882 0.617757
-0.536206 -0.109416 -0.0541547 -0.808908 0.220703 -0.544938
0.314319 -0.46628 0.0770582 0.387771 -0.921718 0.00836748
0.0739573 0.0850736 -0.191938 -0.0532889 0.97185 0.229494
0.0261595 0.110977 -0.424183 0.661721 0.211992 -0.719156
-0.0457354 0.0522161 0.225809 -0.976045 -0.0678314 0.206726
-0.324682 0.069461 -0.194734 -0.0444966 0.970416 0.237303
-0.183758 0.106046 -0.35506 -0.0495931 0.974538 0.21867
0.488969 -0.364612 -0.078135 0.0422099 -0.979554 -0.196703
0.260845 0.082322 -0.147421 -0.0442524 0.978311 0.202358
0.0913738 -0.151084 0.508058 0.725081 -0.0742645 0.684648
0.0914019 -0.0314804 0.340539 -0.222993 -0.315523 0.922345
0.00107831 -0.0221042 0.291 -0.0538268 0.984297 0.168116
-0.270975 -0.095082 -0.305246 0.82922 -0.201124 0.521482
-0.29568 -0.137954 0.169626 -0.657348 -0.200822 0.726336
-0.146954 -0.456389 0.195355 -0.016694 -0.995624 -0.0919484
0.420576 -0.37551 0.100009 0.634955 -0.105593 0.765299
0.0791173 0.0952304 -0.0383838 -0.114815 0.112187 -0.987032
0.0530639 0.494247 0.0861935 -0.0158577 0.990033 0.139939
-0.348602 9.62098e-05 0.109733 0.000151736 0.99841 0.0563656
-0.136366 -0.459301 0.226518 -0.666924 -0.185667 0.721623
-0.268919 -0.316432 0.0395066 -0.459697 0.828642 -0.319423
0.173961 0.348406 0.433498 0.184331 -0.218554 0.958257
-0.340986 -0.336852 -0.0265326 -0.0406462 0.97177 0.232404
0.118893 0.478628 0.0342212 0.175732 0.177805 -0.968248
-0.096766 -0.428317 0.0835553 0.180749 -0.933298 -0.310299
0.0939269 -0.125496 0.355438 0.699288 0.388958 0.599757
-0.342125 0.0234673 0.00627506 -0.129494 0.959595 0.249819
-0.139341 -0.236244 -0.0223012 -0.651026 0.485915 -0.58314
-0.0662402 0.17527 0.170743 -0.998344 -0.045126 -0.0356835
0.48375 -0.205565 0.0581633 0.670681 -0.0969593 0.735382
-0.330125 -0.241769 -0.212325 0.563232 0.561784 0.605944
0.127812 -0.482898 0.397809 -0.099397 -0.980272 -0.170845
-0.0888643 0.0181749 0.0866591 0.0157562 0.980209 0.197336
0.182114 0.460088 0.0330224 0.23818 0.244757 -0.939874
-0.452909 -0.351465 -0.179032 -0.705098 0.147334 -0.693635
-0.0489627 0.202064 0.112453 -0.88135 0.107388 -0.460098
-0.132659 0.0356721 -0.188756 0.0647348 -0.953683 -0.293764
-0.110302 0.029337 -0.177453 -0.0984779 -0.911352 -0.399673
-0.0229313 -0.428199 -0.00853932 -0.950183 0.0832828 -0.300359
-0.279808 0.0801126 -0.248692 -0.047199 0.973645 0.223133
0.0665855 -0.221898 -0.402983 -0.238091 0.970034 -0.0484443
0.375387 -0.171452 0.184648 0.714516 -0.204118 0.669181
-0.128108 -0.138815 0.32037 -0.684613 -0.166589 0.709615
0.52192 -0.115934 -0.0250657 0.657076 0.199605 -0.726918
-0.0299032 0.108112 -0.314271 -0.0454173 0.98611 0.159761
0.214865 -0.274831 0.355561 0.795315 -0.123746 0.593431
-0.189151 -0.282812 -0.22705 0.124377 0.945123 0.302113
0.254373 -0.342265 -0.227284 -0.0470197 -0.998223 -0.0366094
-0.0427708 -0.15968 0.390898 -0.668452 -0.181158 0.721355
0.0309618 -0.0321268 0.333505 -0.0842679 0.955854 0.281499
0.472343 -0.360717 -0.0946729 0.212784 -0.940323 -0.265546
-0.345642 0.0321816 -0.0340294 -0.0299349 0.991777 0.124424
0.353756 -0.229728 -0.209995 0.647396 0.213823 -0.731545
-0.268444 0.0478004 -0.0760111 -0.0368059 0.982463 0.18279
0.481523 0.00072126 0.0845867 -0.735428 -0.150285 -0.660727
-0.0813225 -0.368261 -0.191264 0.0685355 -0.959396 -0.27361
-0.143247 -0.110729 -0.496843 -0.724197 0.118909 -0.679264
-0.472457 -0.0466842 -0.107136 -0.81122 -0.0180442 -0.584462
-0.220078 -0.0489776 -0.399887 -0.765575 0.0931821 -0.636562
-0.0282204 -0.249033 -0.245241 -0.399164 0.885087 -0.239351
-0.00695072 0.478097 0.164796 -0.0375115 0.98599 0.162535
0.195751 0.467006 0.0427445 0.376978 0.0778861 -0.922942
0.31843 -0.084931 0.136637 0.279121 0.779206 0.561186
-0.20876 -0.417144 0.175552 -0.645697 -0.286625 0.707758
-0.244664 -0.102037 0.219943 -0.665654 -0.160284 0.728844
-0.0414327 0.141008 -0.455341 -0.0365092 0.983724 0.175936
-0.0168957 0.0838199 -0.204535 -0.188021 0.947318 0.259302
0.478839 -0.0819445 -0.0516828 0.605335 0.34193 -0.718786
0.307077 0.476519 0.231509 -0.0415066 0.987273 0.153522
-0.0895238 -0.175242 -0.46581 0.514588 0.585632 0.626285
-0.299411 -0.354062 -0.293926 0.0549039 -0.975235 -0.214248
0.33297 0.252635 0.288828 0.792107 -0.0839713 0.604579
0.0752647 -0.485233 0.168215 -0.292936 -0.935078 0.199545
-0.242791 -0.184079 0.123897 -0.731 0.014603 -0.682221
0.536556 0.00237122 0.0219736 -0.646389 0.0472163 -0.761546
0.503573 -0.0369506 0.0407459 -0.739464 0.637746 -0.215578
0.259399 0.0714195 -0.0792767 -0.107737 0.968378 0.225025
-0.161917 -0.0547746 -0.0103994 -0.499681 -0.582611 -0.641002
-0.0771305 -0.160884 0.362614 -0.741708 -0.121992 0.659535
-0.454492 -0.143052 -0.143047 -0.775878 0.102581 -0.622487
-0.042608 0.0558229 -0.275448 -0.0437826 -0.948736 -0.313023
-0.266505 -0.0685574 -0.292184 0.708611 -0.342424 0.616941
-0.414299 0.0226256 -0.00108687 0.0146254 0.989223 0.145685
-0.0640566 -0.268166 -0.604131 0.623093 0.264561 -0.736046
-0.093277 -0.0535732 -0.0743097 -0.573643 -0.501181 -0.647882
0.190575 -0.425893 0.0507766 -0.999987 -0.00505344 -0.000376571
-0.307924 -0.186093 -0.319575 -0.581229 0.0595034 -0.811561
0.186239 0.461734 0.268526 0.0254633 0.982544 0.184281
-0.0735551 -0.349738 -0.278056 0.0862634 -0.966239 -0.242776
0.146574 -0.374475 0.416173 0.771822 -0.0912166 0.629261
0.363727 -0.288713 -0.21082 0.609182 0.27584 -0.743511
0.0727613 -0.0644295 -0.224708 -0.752849 0.0445193 -0.656686
0.154828 -0.333774 -0.280477 0.0401206 -0.99664 -0.0714051
-0.158537 -0.0917184 0.300654 -0.653876 -0.216563 0.724946
-0.392676 -0.0727483 -0.14461 0.612242 -0.585703 0.531141
-0.0182323 -0.105893 -0.124263 -0.709322 -0.0803678 -0.700288
0.418016 -0.350846 0.110491 0.699412 0.000632642 0.714718
0.0530103 -0.273126 -0.492499 0.626764 0.230277 -0.744406
-0.182513 -0.292478 -0.162794 -0.17601 0.978057 0.111464
0.267845 -0.471216 0.220747 0.215321 -0.954267 0.20739
-0.254503 -0.0324453 -0.354075 -0.811704 0.174378 -0.55743
-0.0618096 -0.261167 -0.262857 -0.283741 0.956813 0.0632501
-0.48776 -0.251271 -0.125788 -0.736181 0.112208 -0.667418
0.0824094 0.228219 -0.01383 -0.338229 0.21858 -0.915327
0.189141 -0.0327302 0.277351 0.508363 -0.836696 0.203732
0.105664 0.22235 -0.0200094 -0.243463 0.258157 -0.934923
0.0916025 0.08361 -0.184607 -0.0218379 0.984812 0.172245
0.374924 -0.422301 0.128905 0.838981 -0.111018 0.532715
0.0896855 -0.140343 0.372164 0.437259 0.753062 0.491633
0.161903 -0.104857 0.283182 0.640698 0.475672 0.602696
-0.107097 0.041061 -0.377908 0.634074 -0.757742 0.154197
-0.12144 -0.448374 0.2379 -0.679501 -0.136003 0.720959
-0.255089 -0.38018 -0.156476 0.0525028 -0.960357 -0.273783
-0.0945015 -0.160291 -0.0412835 -0.781375 0.246131 -0.573474
0.274557 0.439419 0.389144 -0.104209 0.959165 0.262949
-0.415661 -0.0618086 -0.0841281 0.567581 -0.71121 0.414769
-0.379645 0.0555618 -0.165873 0.0374232 0.980323 0.19382
0.436339 0.00916904 -0.0685641 0.643201 0.264361 -0.718614
-0.486233 -0.176904 -0.114892 -0.790312 0.104315 -0.60376
0.170345 -0.483794 0.233123 -0.147263 -0.935716 0.320544
0.182319 -0.178867 0.402035 0.773095 -0.107966 0.625034
-0.349397 -0.289798 -0.29037 -0.614763 0.17128 -0.76989
0.176595 -0.47311 0.254791 -0.0392853 -0.183582 0.982219
-0.0662996 0.384024 0.284212 -0.932091 -0.191002 0.307773
-0.0550099 0.204715 0.13051 -0.968085 -0.0114982 -0.250359
0.25559 -0.106532 0.224975 0.0775947 0.872671 0.482103
-0.29559 -0.351491 0.112984 -0.665993 -0.149169 0.730891
-0.152007 0.0203028 -0.135257 -0.0911896 -0.898358 -0.429695
0.351696 0.291612 0.240063 0.991937 0.0427344 0.11931
-0.102078 -0.0459806 0.362494 -0.683798 -0.129001 0.718177
-0.211213 -0.271569 0.201269 -0.596565 -0.309674 0.740414
0.0820104 -0.212272 -0.342773 -0.563059 0.794808 -0.226373
-0.305568 -0.004888 -0.104439 0.365081 -0.930609 -0.026147
0.363379 -0.271582 -0.209151 0.689639 0.0663727 -0.721105
0.252251 0.0959186 -0.177976 -0.038439 0.977127 0.209153
0.216752 -0.33472 -0.272421 0.0305592 -0.985924 -0.164379
0.417675 0.0108306 -0.0878125 0.663497 0.193138 -0.722821
-0.0839688 0.0958878 -0.296673 -0.0276258 0.997654 0.0626394
-0.327105 -0.290922 -0.313761 -0.785586 0.0733058 -0.614394
0.119718 -0.0729795 0.453207 -0.291365 -0.608758 -0.737916
0.204831 0.11375 0.376892 0.243745 -0.196741 0.949674
0.347291 0.313584 0.270506 0.863112 -0.0724189 0.499794
0.207523 -0.37655 0.341972 0.620088 0.0432185 0.783341
0.326916 -0.139453 -0.212671 0.698459 0.0855331 -0.710521
-0.139077 -0.302163 -0.497715 0.198167 -0.945615 -0.257958
0.475445 -0.242555 0.0588105 0.597066 0.0114884 0.80211
-0.0835911 -0.0808197 -0.0621627 -0.522303 -0.440371 -0.730255
0.286521 0.0320253 -0.199353 0.664014 0.191178 -0.722866
0.112832 -0.31436 0.462122 0.721731 -0.112224 0.683016
-0.277869 -0.426534 0.0660215 0.109054 -0.956195 -0.271658
-0.262803 -0.0586142 -0.302685 0.701918 -0.314274 0.639174
0.213321 -0.0961669 0.372375 -0.752285 0.156198 -0.640054
0.339338 -0.377392 -0.0757977 0.781508 0.173461 -0.599296
0.151865 -0.183047 0.440439 0.751163 -0.110714 0.650766
-0.168381 0.113149 -0.386799 -0.0690202 0.950572 0.302736
0.226009 -0.149506 0.367613 0.727834 -0.0588268 0.683225
-0.197232 -0.12535 0.0658121 -0.673988 -0.255528 -0.693142
0.545678 -0.255499 -0.0377021 0.681452 0.156586 -0.714915
-0.150535 -0.207179 0.0121511 -0.657474 0.34424 -0.670244
0.121901 0.104227 -0.331349 0.671261 0.160662 -0.7236
-0.166503 -0.317955 -0.441641 0.0704026 -0.973943 -0.21559
0.0255831 0.0287183 0.322631 -0.64257 -0.145719 0.752243
-0.192514 -0.228793 -0.462125 -0.794967 0.0723705 -0.602321
-0.400713 0.0233372 -0.00779185 -0.075369 0.97298 0.21824
-0.0667627 -0.232704 -0.138078 -0.600433 0.709498 -0.368907
-0.423881 -0.290131 -0.0803473 0.442368 0.667029 0.599486
0.0057769 -0.140289 0.43913 -0.686604 -0.0855073 0.721986
-0.00474516 0.0413106 -0.249737 -0.32912 -0.872121 -0.362056
-0.194327 -0.149701 -0.443124 -0.785432 0.118124 -0.607572
0.0248488 -0.232276 -0.413861 -0.126807 0.962532 0.239691
0.193729 -0.339698 -0.263627 -0.119073 -0.975169 -0.186725
-0.178368 0.0977757 -0.286672 -0.201365 0.949284 0.241478
0.370959 -0.0241625 0.219196 0.714707 -0.112487 0.690319
0.025477 -0.272992 0.426067 -0.544581 -0.22773 0.807199
0.283742 -0.0902477 0.286507 -0.707466 0.478824 -0.519827
-0.129125 0.0345069 -0.186207 -0.0199753 -0.997988 -0.0601771
-0.0095646 0.466635 0.22534 -0.00750242 0.949413 0.313941
-0.439635 -0.0428348 0.0632358 -0.677643 -0.151008 0.71972
-0.344163 0.00840847 0.0388885 -0.0592181 0.96343 0.261334
0.0678207 -0.365338 -0.167388 0.0575488 -0.988252 -0.141587
-0.509846 -0.0469676 -0.0689831 -0.762648 0.131325 -0.633341
-0.161607 -0.322626 -0.415414 0.150871 -0.964869 -0.215097
-0.229085 -0.261006 -0.251902 0.26878 0.828009 0.492095
-0.154172 -0.446524 0.169062 0.0447192 -0.974425 -0.220217
0.000224183 -0.181085 -0.522214 0.690979 0.159161 -0.705136
0.535364 -0.199161 -0.000388809 0.808977 -0.173305 0.561713
0.17629 -0.128553 0.288667 0.305661 0.806554 0.506006
-0.370315 -0.343829 0.00396632 -0.0322685 0.967948 0.249071
-0.182949 -0.361529 -0.234929 0.035681 -0.997538 0.0603644
0.063499 -0.303187 0.44868 -0.713287 -0.0727681 0.697084
-0.337045 -0.0968556 -0.223619 0.726706 -0.296876 0.619486
0.183438 0.472543 0.220641 -0.0229567 0.991192 0.130425
-0.291995 -0.168239 -0.283375 0.703999 0.27125 0.65636
-0.269965 -0.315762 -0.38296 -0.604423 -0.00323622 -0.796657
0.350059 -0.332417 -0.23738 0.6638 0.190875 -0.723144
0.330174 0.0812176 -0.0952091 0.0435802 0.990758 0.128448
0.019131 -0.282988 -0.528146 0.650686 0.205018 -0.731147
-0.454207 -0.350768 -0.174117 -0.838663 0.12942 -0.529051
0.0224254 -0.437487 -0.0388591 -0.262126 -0.839224 -0.476438
0.284925 -0.317911 -0.296181 0.795477 -0.0593181 -0.603074
0.350745 0.254554 0.238618 0.99719 0.0333536 0.0670863
-0.314546 0.0281023 -0.0197212 -0.0412724 0.98104 0.189362
0.155473 0.451895 0.302211 -0.0921852 0.959548 0.266024
-0.0698337 -0.115598 -0.570816 0.567906 0.340296 -0.749454
0.164326 -0.143241 -0.350915 -0.625983 0.519758 -0.581375
0.134627 0.479205 0.183171 -0.00136277 0.999988 -0.00460323
0.0742217 -0.455512 0.255531 0.103124 -0.946251 -0.306553
0.406162 0.0128856 0.0124517 0.651065 -0.351336 0.672813
0.0453885 -0.480597 0.166536 -0.252629 -0.963691 0.0864809
0.453317 0.0444924 0.0483326 -0.0265536 -0.965207 -0.260136
0.199503 -0.476668 -0.0422638 0.194205 -0.849923 -0.489811
-0.0623889 0.177824 0.168859 -0.994995 -0.099444 -0.00978666
-0.254265 0.0907799 -0.297909 -0.0954956 0.942905 0.319079
0.42367 -0.222887 -0.147315 0.630825 0.252964 -0.733532
-0.115815 -0.142669 0.327159 -0.687968 -0.131126 0.713797
0.0112914 -0.233273 -0.291524 -0.300972 0.895382 -0.328186
0.30014 -0.0887542 -0.21745 0.688767 0.150045 -0.709286
-0.441282 -0.0395401 0.0614915 -0.622112 -0.264168 0.737015
-0.158942 0.0835975 -0.442409 -0.724861 0.127015 -0.677085
-0.147192 0.0424696 -0.0399076 -0.0191539 0.983725 0.178655
0.0393297 -0.289318 0.433798 -0.685388 -0.149483 0.712669
-0.0361692 0.422366 0.113319 -0.893338 0.0304566 -0.448351
-0.079039 0.0545695 -0.278138 0.117292 -0.972914 -0.1992
0.234682 0.336076 0.0270834 0.450608 0.186118 -0.873105
-0.358557 -0.342842 0.031555 -0.219947 0.962858 0.156614
-0.197719 -0.228495 0.0589413 -0.756491 0.410061 -0.509481
0.156121 0.225361 0.196634 -0.991128 -0.129875 -0.0282406
-0.136049 0.0433647 -0.303819 0.276701 -0.942874 0.185542
-0.0908595 -0.025488 0.284883 -0.0233462 0.98106 0.192292
0.382942 -0.423078 0.115828 0.965101 -0.00598449 0.261808
-0.254 -0.272656 -0.400031 -0.797225 0.13469 -0.588465
-0.314936 -0.0556672 -0.294129 -0.81825 0.0972547 -0.566576
0.251075 0.472378 0.227943 -0.0201517 0.979438 0.200737
-0.0537448 -0.285028 0.345806 -0.665762 -0.182158 0.723588
-0.232989 0.0386609 -0.0444353 0.00335029 0.989051 0.147534
-0.322706 -0.32475 -0.328321 -0.742185 0.0917481 -0.663886
0.296772 0.0946491 -0.169076 -0.0591723 0.963801 0.259972
-0.0477997 0.0471192 0.0857217 -0.936628 0.102838 -0.334891
0.0206665 0.0433281 -0.267268 -0.24979 -0.820694 -0.513874
-0.169768 -0.23932 0.255363 -0.651369 -0.263043 0.711707
0.306553 0.376833 0.0917633 0.771922 0.178063 -0.610271
0.33557 -0.209491 0.226569 0.783731 -0.178405 0.594926
0.255835 0.269914 0.0164827 0.586153 0.113108 -0.802266
0.375477 -0.0794712 0.11674 -0.163447 0.972169 0.167848
0.146514 0.0297234 0.137419 0.844368 -0.0287584 0.534992
-0.0105337 0.339013 0.367366 -0.695465 -0.190744 0.69278
-0.11075 -0.00171079 -0.110297 -0.471606 -0.726087 -0.500385
0.443301 -0.349258 0.0769709 0.714051 -0.118274 0.69003
0.434751 0.0609294 -0.0152989 0.0706345 0.986523 0.147591
-0.00920117 -0.441187 0.158082 0.0479431 -0.981285 -0.186499
-0.420466 -0.277956 -0.204746 -0.741266 0.0552124 -0.668936
0.0849423 -0.216027 -0.380522 -0.387073 0.896761 -0.21446
0.128993 -0.148576 0.359888 0.0889101 0.905427 0.415088
0.368333 0.0144185 0.153391 -0.329216 -0.885147 -0.328834
0.36579 -0.0652658 0.215569 0.791475 -0.104864 0.602139
0.324849 -0.355717 0.217651 0.679707 -0.15706 0.716471
-0.345628 -0.0120666 0.149726 -0.669259 -0.178027 0.721387
0.00579432 0.085826 -0.219373 -0.0490114 0.995177 0.0849776
0.233067 -0.358521 -0.157998 0.0388349 -0.97733 -0.20813
0.0922451 0.0267342 -0.295174 -0.449347 -0.682292 -0.576685
0.28536 0.447419 0.0930882 0.762185 0.133106 -0.633527
0.295912 -0.33412 0.2534 0.731002 -0.0785129 0.677844
0.145974 -0.232944 0.443147 0.74417 -0.100909 0.660325
-0.234266 -0.287618 -0.41576 -0.789608 0.0909625 -0.606832
0.101001 0.405719 0.0206112 -0.274662 0.230266 -0.933562
0.234996 0.485302 0.179667 -0.052776 0.998483 0.0156683
-0.0555061 0.176668 0.24454 -0.977953 -0.0585876 0.200436
0.311171 0.337112 0.344806 0.834141 -0.136946 0.534279
0.282807 -0.0654843 0.30488 0.742685 -0.106563 0.661108
-0.278179 -0.408489 -0.026965 -0.0427377 -0.991204 -0.125249
0.238811 0.213505 -0.00486429 0.389851 0.296132 -0.871964
0.239804 0.475603 0.245239 -0.0208491 0.988118 0.152277
-0.100278 -0.0406784 -0.533888 -0.734738 0.111543 -0.669118
0.470045 -0.0700357 -0.059837 0.591388 0.306297 -0.745951
-0.0606531 0.442869 0.155815 -0.956716 -0.0310579 -0.289362
-0.00358715 0.0469068 -0.27096 -0.239087 -0.914729 -0.325743
0.278279 -0.244837 -0.283229 0.713606 0.115901 -0.690893
0.347089 0.0694607 -0.128104 0.639229 0.215747 -0.738132
0.0887784 -0.206307 -0.337038 -0.563652 0.806353 -0.179143
0.0523766 0.0260982 -0.27245 -0.362141 -0.684151 -0.63308
-0.25084 -0.0905619 -0.33123 0.732849 -0.161444 0.66096
-0.0570661 0.0270282 0.0391748 -0.0215292 0.952295 0.30442
0.456468 -0.17359 -0.10297 0.568219 0.223867 -0.79184
-0.0175602 0.199963 0.0530582 -0.861388 0.067057 -0.503503
0.0555741 0.0642823 -0.0318715 -0.554964 0.104572 -0.825275
0.0993718 0.484807 0.0365759 -0.0914512 0.069223 -0.993401
0.511188 -0.234549 -0.0681439 0.677272 0.16818 -0.716253
0.0120849 -0.468039 0.106184 -0.37046 -0.927247 -0.0545283
-0.0420175 0.226516 0.296781 -0.867739 -0.144789 0.475464
-0.333797 -0.384311 0.0624542 -0.670022 -0.180838 0.719978
0.111649 0.192763 0.396202 -0.0640035 -0.251909 0.965632
0.208976 0.30509 0.409716 0.227172 -0.12172 0.966218
0.298466 0.405062 0.370748 0.712453 -0.120091 0.691367
-0.260768 -0.140538 -0.32247 0.615494 0.139404 0.775715
0.436694 -0.377459 -0.0414182 0.11671 -0.966892 -0.226932
0.298878 0.032588 0.307907 0.696653 -0.145736 0.702449
0.25391 0.100444 -0.202038 -0.0172162 0.989742 0.141825
-0.170245 0.0295901 -0.3092 0.51256 -0.828734 0.224681
-0.255555 -0.138974 -0.372177 -0.689851 0.0592035 -0.721526
-0.164457 0.109867 -0.339833 -0.0243719 0.981441 0.190207
-0.174453 -0.0229943 -0.447487 -0.753226 0.105049 -0.649319
-0.0938714 -0.0146787 -0.107439 -0.440871 -0.595794 -0.671314
0.425861 0.0217295 -0.000449332 0.676295 -0.541642 0.499249
0.158245 -0.0473372 0.301794 0.46604 -0.743469 0.479646
0.329458 0.442759 0.155864 0.912369 0.148883 -0.381335
-0.034687 -0.0368425 0.345489 -0.103517 0.95454 0.27953
0.188103 0.370276 0.012883 0.298323 0.134611 -0.944925
-0.146767 0.0903606 -0.247539 -0.0272343 0.979971 0.197268
0.540344 -0.349389 -0.0650359 0.660428 0.214055 -0.719733
-0.192932 -0.293027 -0.0630223 -0.508944 0.848756 -0.143489
0.186977 0.503252 0.0703961 -0.0223465 0.978354 0.205728
0.328457 0.315591 0.312923 0.883272 -0.0378308 0.467333
0.212875 0.200599 0.389759 0.327441 -0.182801 0.92702
0.0887463 0.0835746 -0.368525 0.62858 0.214678 -0.74753
0.298473 -0.347558 -0.195681 -0.0785558 -0.981605 -0.174015
-0.144795 -0.320838 -0.424703 0.116025 -0.968203 -0.221634
0.291155 -0.384293 0.244507 0.753252 -0.0952406 0.6508
-0.386906 -0.060229 -0.211291 -0.781903 0.0768182 -0.618649
0.157209 0.0686168 -0.31254 0.504698 0.293285 -0.811951
0.0832352 0.435162 0.372491 -0.0079053 0.984037 0.17779
-0.300464 0.00779845 0.0640547 -0.090891 0.959992 0.264867
0.415076 -0.06107 0.0370518 0.22991 0.781121 0.58051
0.0178996 -0.237637 -0.386139 -0.0697579 0.991469 0.110104
0.41324 -0.183571 -0.136624 0.799176 -0.0125748 -0.600965
0.0516763 -0.482635 0.111614 -0.218824 -0.969117 -0.113704
-0.275425 -0.222543 -0.263039 0.562317 0.565216 0.603598
0.167833 -0.456959 0.051319 0.778142 0.258362 -0.57249
-0.371071 -0.086552 -0.173443 0.737784 -0.4303 0.520112
0.339934 -0.0480969 -0.175575 0.532351 0.355919 -0.768065
0.199002 -0.413744 0.342282 0.696251 -0.133691 0.705238
0.0160309 0.161765 0.34811 -0.595791 -0.223407 0.771442
-0.122414 -0.234281 -0.0470082 -0.579306 0.594462 -0.557691
0.193071 -0.0415919 0.251254 0.685828 -0.595849 0.417856
0.462195 -0.0493085 0.0794912 -0.633247 0.673678 -0.380995
0.280574 -0.219515 0.283573 0.785529 -0.106072 0.609667
-0.119675 0.00783708 -0.498317 -0.728923 0.106345 -0.676286
0.408705 -0.282338 0.131557 0.745006 -0.106045 0.658574
0.0474325 -0.475733 0.388959 -0.681008 -0.166487 0.713099
0.213515 0.0732693 -0.123322 -0.0679352 0.989568 0.127046
0.268846 -0.446976 0.252637 -0.0143137 -0.98568 -0.168016
0.204254 -0.0971435 0.396224 0.780658 -0.0986545 0.617122
-0.0702002 -0.262812 -0.203339 -0.451272 0.883394 -0.126366
-0.275466 -0.343281 -0.339321 0.00068777 -0.987796 -0.155751
0.129961 -0.1358 0.335989 0.314481 0.774573 0.548761
0.350722 0.0511395 0.229512 0.909041 -0.0541738 0.41317
0.20759 -0.0727222 0.376519 -0.632026 -0.285762 -0.720335
0.157566 -0.132207 0.422181 -0.750767 0.533182 -0.389956
0.221179 -0.28637 0.337999 0.778528 0.0432725 0.626117
-0.330829 -0.020835 0.163909 -0.676714 -0.170609 0.716205
0.228171 -0.341786 -0.239075 0.192056 -0.951767 -0.23928
0.271532 0.0673618 -0.0495063 -0.068662 0.972507 0.222522
0.504745 -0.311028 -0.087067 0.603037 0.347414 -0.718088
0.132259 0.0945063 -0.225086 -0.00997876 0.996445 0.083658
-0.125167 -0.151234 -0.0039332 -0.670772 0.102097 -0.734603
0.0902105 0.287101 0.41887 -0.296184 -0.159989 0.941636
0.309474 -0.0374084 0.108996 0.837103 0.120385 0.533635
0.0688723 -0.476146 0.212619 -0.224485 -0.961167 0.160513
0.0192686 -0.29807 -0.481762 -0.032739 -0.994282 -0.101646
0.447852 -0.307952 0.0832895 0.744355 -0.105718 0.659363
0.366806 0.0682271 -0.0477606 -0.0386807 0.977025 0.209587
0.337005 -0.363046 -0.105552 0.0890097 -0.963449 -0.252672
0.499789 -0.369153 0.0205093 0.756896 -0.106074 0.644869
-0.33172 -0.0066993 -0.26005 -0.808178 0.0761298 -0.583997
-0.293368 -0.300534 -0.145016 0.229302 0.924525 0.304424
0.355303 0.0644906 0.214691 0.915349 -0.00584437 0.402619
-0.00010418 -0.125841 -0.141378 -0.800023 -0.0149601 -0.599783
-0.115773 -0.399341 -0.0514629 0.0153854 -0.982903 -0.18348
-0.366955 -0.180598 -0.253276 -0.713406 0.110113 -0.692045
-0.486364 -0.298788 -0.0497706 -0.751398 0.0223135 0.659472
0.23984 0.348997 0.0307125 0.529547 0.0798689 -0.844513
0.342078 -0.088275 0.199865 -0.507427 0.797953 -0.325253
0.551337 -0.332127 -0.0379757 0.747927 -0.108592 0.654838
0.0136717 -0.276151 0.411855 -0.592886 -0.223978 0.773512
0.0572731 -0.0572719 0.459336 -0.0536001 0.997486 0.0463544
-0.0923505 0.0522554 -0.358669 0.269953 -0.942819 0.195492
0.395081 0.0270583 0.0948527 0.142542 -0.976942 -0.158951
0.140549 0.0721042 -0.107416 -0.0712093 0.965855 0.249104
-0.2058 -0.136318 0.244692 -0.684606 -0.165313 0.70992
-0.171559 -0.0927081 0.0299879 -0.78624 -0.421245 -0.452084
0.228677 0.0335042 -0.254601 0.668487 0.18285 -0.720895
-0.0634737 0.0234716 0.0588392 -0.186195 0.906581 0.378737
0.350335 0.317088 0.226971 0.995237 0.0968027 0.0115414
0.386474 -0.366827 -0.0773843 0.222656 -0.933559 -0.280877
0.25584 -0.485408 0.0175527 0.453508 -0.850772 -0.265553
0.0673095 0.322377 0.419338 -0.42112 -0.178322 0.889302
0.0950761 0.466485 0.235837 0.00568038 0.986268 0.165057
0.308792 -0.312682 -0.270724 0.643437 0.216309 -0.734302
0.274916 -0.420771 0.261771 0.759809 -0.158411 0.630553
0.326461 0.407544 0.322373 0.878233 0.00971311 0.478135
-0.154785 -0.189229 0.0187828 -0.794754 0.216949 -0.566832
0.128578 -0.191876 0.464979 0.714162 -0.131852 0.68745
0.0842015 -0.369904 0.458746 -0.620812 -0.225768 0.750747
-0.186009 -0.268959 -0.472989 -0.792505 -0.0129599 -0.609728
-0.0321375 0.225321 0.311677 -0.843076 -0.0698426 0.533239
-0.0394832 0.182072 0.087503 -0.900807 0.0527959 -0.430999
-0.370679 -0.051461 -0.232417 -0.776506 0.132997 -0.615914
0.366438 -0.0044305 -0.135117 0.703874 0.122312 -0.699715
0.136532 0.258171 0.414647 0.121338 -0.270403 0.95507
0.047478 0.0613354 -0.0696452 -0.047828 0.975919 0.212827
0.0797996 -0.0542561 0.456329 0.000289447 0.992019 0.12609
-0.223278 -0.37549 0.171902 -0.658147 -0.241387 0.713145
-0.124657 0.0832868 -0.486323 -0.793524 0.0657049 -0.604982
0.529325 -0.0606135 0.00266472 0.619946 0.349147 -0.702683
-0.477408 0.0158684 0.0258992 -0.0436281 0.985744 0.162496
0.303635 0.379915 0.355106 0.84566 -0.0947908 0.525238
0.0639259 -0.193153 0.47909 -0.75577 0.0260726 0.654318
-0.0483942 0.0499359 -0.0578004 0.0656534 0.966143 0.249512
0.128787 0.0814021 -0.329414 0.664538 0.18864 -0.723052
0.026151 0.394455 0.411896 -0.479964 -0.259109 0.838151
0.4387 -0.0170295 0.125122 -0.753846 -0.0437077 -0.655596
-0.221091 -0.416632 0.0204206 0.0699225 -0.967608 -0.242579
0.204508 -0.0347005 0.342096 -0.280064 -0.855128 -0.436256
0.189495 0.149197 -0.0369923 0.1315 0.287284 -0.948776
-0.368481 -0.285136 -0.129157 0.401345 0.727342 0.556684
0.14519 0.333074 0.4299 0.0265559 -0.207252 0.977927
0.331231 -0.331407 -0.254332 0.713889 0.0656097 -0.697179
-0.256395 -0.331548 -0.390295 0.182012 -0.897708 -0.401237
0.15796 0.275181 0.207314 -0.926833 -0.0469839 -0.372522
0.0436524 -0.0950698 -0.188292 -0.805249 -0.0682276 -0.588999
0.162776 0.356446 0.434586 0.045499 -0.171731 0.984093
0.275792 -0.342983 -0.217734 0.0680599 -0.966393 -0.247896
0.156733 0.0482614 0.163518 -0.584339 0.160231 -0.795533
0.0767148 -0.0610199 0.412995 0.389187 -0.915572 0.101295
0.107304 -0.501859 0.0653886 -0.380685 -0.924699 0.00339709
-0.17858 -0.408398 -0.00475901 0.0722293 -0.969122 -0.235768
-0.516551 0.00243033 -0.0547364 -0.77468 0.0884912 -0.626132
-0.4029 -0.116281 -0.156652 0.749197 -0.297089 0.591982
0.27242 0.464159 0.282849 -0.0336767 0.981284 0.189599
0.112099 -0.0596395 0.483448 -0.0334875 0.980915 0.191532
-0.0935521 -0.116551 -0.498945 0.767697 0.087483 0.634813
-0.246553 -0.328504 -0.413163 0.00890086 -0.999436 0.0323676
0.184264 -0.0816039 0.252014 0.82703 0.208393 0.522106
0.349333 0.353679 0.220254 0.997604 0.0378338 0.0579158
-0.399315 -0.00437303 0.102429 -0.0555901 0.989608 0.132612
0.191984 -0.306452 0.374265 0.811971 -0.0456642 0.581909
-0.0698566 -0.433987 0.112033 0.0474466 -0.97587 -0.213135
0.349353 0.0795196 -0.0998689 -0.0992293 0.971344 0.215973
0.104846 0.241854 -0.0182255 -0.186907 0.192202 -0.963392
0.281881 -0.324714 0.269327 0.747986 -0.111604 0.654264
0.330111 0.267995 0.294326 0.851329 -0.0650066 0.520589
0.0563841 0.345158 0.420111 -0.357975 -0.270173 0.89379
-0.308194 -0.278176 -0.172531 0.347022 0.783402 0.515614
0.397449 0.0275677 0.163656 -0.0800356 0.972181 0.220134
0.418859 -0.36398 0.110664 0.801429 -0.101721 0.589377
0.265672 0.0741147 -0.109935 -0.0403362 0.97984 0.19567
-0.297651 -0.00481578 -0.308973 -0.808795 0.149284 -0.568828
0.197151 0.470616 0.239857 -0.0718268 0.968456 0.238607
0.0168745 -0.427453 0.374103 -0.588427 -0.271848 0.761481
0.324244 -0.461396 0.158991 0.42914 -0.902771 -0.0290395
0.101146 -0.346053 -0.22777 -0.053586 -0.988156 -0.143793
-0.204779 -0.299113 -0.0676225 -0.372169 0.920448 -0.11944
0.26127 -0.374311 0.280852 0.732454 -0.113837 0.671232
0.155907 -0.162159 -0.359334 -0.700907 0.594994 -0.393333
-0.122938 -0.117791 -0.465259 0.560386 0.093844 0.822898
0.145877 0.393365 0.234017 -0.871715 0.127241 -0.473204
0.344054 0.407423 0.266566 0.99033 -0.0194334 0.137364
0.349179 -0.41 -0.0540575 0.383439 -0.849392 -0.362641
-0.248748 0.0989212 -0.325365 -0.0908908 0.953502 0.287355
0.0188546 0.114132 -0.425745 0.666469 0.15259 -0.729751
0.0799508 -0.438568 -0.0710582 -0.200896 -0.856062 -0.476234
0.0977626 0.00389003 -0.280694 -0.604819 -0.502802 -0.617563
-0.0751319 -0.357901 -0.218726 0.0579289 -0.963079 -0.262913
-0.484273 -0.239034 -0.0619877 0.647134 0.328303 0.688065
0.22786 0.179222 0.378626 0.412493 -0.22547 0.882617
0.0145153 -0.227664 0.429211 -0.631089 -0.241207 0.737255
-0.00266132 -0.443315 0.353409 -0.701284 -0.145094 0.697961
-0.108275 -0.379001 -0.141876 0.0469893 -0.979871 -0.194024
0.184504 0.274071 -0.0115195 0.172396 0.153865 -0.972936
-0.157121 -0.235153 0.268557 -0.522381 -0.302442 0.797274
0.265697 0.0613558 -0.215031 0.711997 0.139556 -0.688175
0.298674 -0.056436 0.27767 -0.851352 -0.0327663 -0.523571
0.18707 -0.475636 0.028175 -0.584103 -0.284042 0.760358
-0.0595514 0.119589 0.177645 -0.99414 0.107596 -0.0104193
-0.365254 -0.410856 -0.0559285 0.138757 -0.96355 -0.228731
0.3857 -0.334234 0.146899 0.736068 -0.11884 0.666394
0.351592 0.303196 0.196266 0.995886 0.0623335 -0.0657651
-0.235123 -0.209448 0.204581 -0.855441 -0.0357743 0.516663
-0.16336 -0.069361 -0.427111 0.705428 -0.143025 0.694201
-0.0574751 0.258517 0.260141 -0.88361 -0.257891 0.3908
-0.18587 -0.116244 0.27012 -0.629371 -0.241833 0.738518
-0.101083 0.136998 -0.503079 -0.725663 0.094933 -0.681469
0.0305691 -0.122822 -0.175572 -0.716094 0.117097 -0.688112
0.061676 0.462651 0.249118 -0.0268518 0.986885 0.159178
-0.0774137 -0.0498167 -0.520059 0.789575 -0.163435 0.59149
0.484334 0.0250994 0.0939479 0.688045 -0.0957029 0.71933
0.466183 0.0699497 -0.0172677 -0.0899866 0.969423 0.228301
-0.223791 -0.442923 0.151391 -0.657543 -0.199022 0.726655
-0.1352 -0.193095 -0.519683 -0.789493 0.175656 -0.588087
0.19156 -0.457161 0.287973 0.104416 -0.959726 -0.260814
-0.348605 -0.33629 -0.0272376 0.0709016 0.996341 0.0477181
-0.0314449 -0.387047 -0.0818351 0.0467315 -0.972636 -0.227587
0.452204 -0.140068 -0.101186 0.669995 0.169158 -0.722837
0.393003 -0.191068 -0.16432 0.662556 0.197888 -0.722399
0.316677 -0.0958454 0.226274 -0.490413 0.86633 -0.0947012
-0.383803 -0.389961 -0.162588 0.0541584 -0.972091 -0.228266
-0.42758 -0.0522069 -0.165981 -0.837548 0.127944 -0.531172
0.181405 -0.131586 0.383219 -0.599843 0.654618 -0.460069
0.146829 0.108744 0.157433 0.441758 -0.130851 0.88754
-0.177756 0.0984981 -0.312029 -0.0736347 0.9723 0.221834
0.471339 -0.0331122 0.080226 -0.661324 0.401657 -0.6335
-0.255425 -0.0231118 0.229066 -0.247504 0.93215 0.26427
0.360993 -0.324123 -0.232126 0.6943 -0.0452813 -0.718259
0.0115494 -0.0835232 -0.154941 -0.745891 -0.165666 -0.645136
0.176974 -0.395559 0.377639 0.64708 -0.0283643 0.761895
0.300539 0.053162 0.0021113 0.680121 0.200525 -0.705142
0.221269 0.473908 0.209298 0.0285689 0.991462 0.127225
0.359723 0.13203 0.192493 0.996442 0.0515963 0.0666396
0.0864514 -0.0291674 -0.24711 -0.651335 -0.245146 -0.718099
-0.254344 -0.337659 -0.369099 -0.000171277 -0.981628 -0.190804
-0.0591492 0.0700694 -0.147662 -0.0366384 0.97979 0.196647
0.275174 0.230889 0.36132 0.602053 -0.134331 0.787075
0.0367896 0.264478 0.0159562 -0.474801 -0.0180995 -0.879907
0.461812 -0.0496326 4.56772e-05 0.0791544 0.964741 0.251018
0.0423551 0.380545 0.0332153 -0.414873 0.0638796 -0.907634
0.0391973 0.478684 0.0560323 -0.483434 0.195823 -0.853197
0.150593 -0.260455 -0.403629 0.679656 0.16632 -0.714427
0.370844 0.0297311 0.118965 -0.0623382 0.954816 0.290587
-0.443044 -0.16958 -0.123448 0.719298 -0.00959649 0.694636
-0.150438 -0.0629556 0.323733 -0.596567 -0.262398 0.758456
0.400717 -0.402149 0.0692303 -0.00830127 -0.991299 -0.13137
0.225768 -0.319423 -0.343406 0.0622215 -0.967089 -0.246713
-0.123414 -0.280071 -0.217705 -0.269066 0.950257 0.15689
0.371223 -0.224863 0.183387 0.656553 -0.0786864 0.750165
-0.000143652 0.210487 0.0363652 -0.689112 0.0500967 -0.722921
0.123703 -0.469807 0.329019 0.188926 -0.956813 -0.220942
-0.235641 -0.410935 0.146142 -0.645312 -0.250835 0.721564
-0.230156 -0.308656 -0.109426 -0.210288 0.967493 0.140486
-0.0504257 0.100509 -0.493879 0.638947 0.256693 -0.725159
-0.0526206 0.110981 -0.361042 -0.0372999 0.992704 0.114664
-0.35539 -0.0943515 -0.209981 0.696843 -0.364949 0.617432
-0.0613564 0.256251 0.245431 -0.982812 -0.0775704 0.167524
0.282133 0.0557907 0.324121 0.62662 -0.142814 0.766128
0.143347 -0.040889 0.418235 0.02432 0.991946 0.124307
0.0334869 -0.0293461 0.339431 -0.123903 0.960647 0.248606
-0.015884 -0.222971 -0.543379 0.631111 0.282504 -0.72242
0.0985613 -0.325942 -0.309828 0.0125144 -0.992691 -0.12003
-0.0628837 0.195538 0.194468 -0.998998 -0.044627 0.00333064
0.100742 -0.208975 -0.358583 -0.355432 0.877756 -0.321268
-0.130089 -0.247247 0.291078 -0.70688 -0.0629497 0.704527
0.341186 0.341754 0.278352 0.959108 -0.0120587 0.282783
0.290475 0.274868 0.0490143 0.690679 0.178811 -0.700706
-0.0475838 0.137479 -0.471172 -0.0499151 0.971407 0.232113
0.322748 0.17292 0.299731 0.737887 -0.0450349 0.67342
-0.159441 -0.0542845 -0.46658 -0.790671 0.0985595 -0.604256
-0.126366 -0.0130704 -0.440886 0.62763 -0.520926 0.578547
0.304618 0.0796954 0.0108234 0.743303 0.103696 -0.660869
-0.0582569 -0.260609 -0.299422 -0.0119041 0.9999 0.00767508
0.280914 -0.0844326 0.307237 0.683904 -0.0914224 0.723821
0.0354606 -0.0744392 0.453875 0.562191 -0.82664 0.0246448
0.329182 0.430317 0.146846 0.918768 0.112026 -0.378571
0.397008 -0.373389 0.126991 0.741747 -0.106617 0.662151
0.094228 -0.153877 -0.268792 -0.746149 0.432088 -0.50652
0.024422 -0.116595 0.423144 0.761009 -0.0474018 0.647008
0.0574538 0.115017 -0.313339 0.133773 0.98883 0.0657255
