ply
format ascii 1.0
comment Created by Open3D
element vertex 512
property double x
property double y
property double z
property double nx
property double ny
property double nz
end_header
0.281429 -0.176416 0.00899404 0.263421 -0.948563 0.175607
0.311555 0.356095 -0.335305 -0.158556 0.485386 -0.859803
0.401003 -0.17793 -0.178552 0.263421 -0.948563 0.175606
0.207976 -0.114399 -0.272034 0.0178337 -0.177216 -0.98401
0.388476 0.454204 -0.0670213 -0.263421 0.948563 -0.175607
0.429553 -0.119462 -0.265932 0.0626082 -0.336783 -0.939498
0.457086 0.249263 0.21025 0.964516 0.262341 -0.0297654
-0.15479 -0.120731 0.0865024 0.226275 -0.763251 0.605183
-0.141138 0.133163 0.269866 -0.0178338 0.177216 0.98401
0.00938524 0.374924 0.0733979 -0.263421 0.948563 -0.175607
0.266564 -0.170204 -0.237194 0.198877 -0.796046 -0.571628
-0.160574 -0.12014 -0.095393 0.192245 -0.775095 -0.601888
0.334204 -0.109068 0.251918 0.173656 -0.545424 0.819973
0.266044 0.356753 0.236978 -0.0178336 0.177216 0.98401
0.350471 0.477199 0.180278 -0.232092 0.896205 0.378088
-0.21218 0.136696 -0.071334 -0.964516 -0.262341 0.0297662
-0.202916 0.128936 0.160445 -0.964516 -0.262341 0.0297662
0.502999 0.0518306 -0.0420496 0.964516 0.262341 -0.0297662
-0.184151 -0.052821 -0.1335 -0.964516 -0.26234 0.0297659
0.258094 -0.107374 0.269163 0.173656 -0.545424 0.819973
0.0718576 -0.0321114 0.303492 -0.0178336 0.177216 0.98401
-0.182589 0.0109374 -0.220843 -0.964516 -0.262341 0.0297661
0.408293 -0.16179 -0.102305 0.263421 -0.948563 0.175607
-0.00763247 -0.232976 -0.193075 -0.209308 0.828475 0.519442
0.491549 0.0788468 -0.174991 0.964516 0.262341 -0.0297662
0.11941 0.349697 0.136699 0.122141 -0.343403 0.931212
0.239034 0.254471 -0.337903 0.0178337 -0.177216 -0.98401
0.251277 0.0108063 -0.293798 0.0178337 -0.177216 -0.98401
0.0104874 -0.055164 -0.286281 0.0178337 -0.177216 -0.98401
0.292478 0.0454476 -0.29929 0.0178337 -0.177216 -0.98401
0.0446317 0.168905 0.266796 -0.0178337 0.177216 0.98401
0.0991769 0.131135 0.274587 -0.0178337 0.177216 0.98401
0.37421 -0.0386177 0.290307 0.173656 -0.545424 0.819973
0.509879 -0.126592 0.222586 -0.0178337 0.177216 0.98401
-0.223365 0.150321 -0.313696 -0.964516 -0.26234 0.0297659
0.528862 -0.0143864 0.212386 0.964516 0.26234 -0.0297661
0.494258 0.10538 0.146659 0.964516 0.262341 -0.0297662
-0.100142 0.244308 0.250592 -0.0178338 0.177216 0.98401
0.332266 0.418423 -0.175979 -0.263421 0.948563 -0.175607
-0.140094 -0.0930031 0.24004 -0.964516 -0.262341 0.0297662
0.0973247 -0.191455 -0.260162 0.0178337 -0.177216 -0.98401
0.464436 -0.167423 -0.151977 0.0178337 -0.177216 -0.98401
-0.370941 -0.028338 0.0290753 -0.141644 0.609289 0.780195
0.0854675 -0.196693 0.193421 0.263421 -0.948563 0.175607
0.124114 0.0671477 0.286562 -0.0178336 0.177216 0.98401
0.0617251 -0.23587 -0.217014 0.198877 -0.796046 -0.571628
0.506539 0.00559451 -0.288233 0.0178337 -0.177216 -0.98401
0.265816 0.372385 -0.304503 -0.244531 0.845097 -0.475411
-0.0709766 0.115026 0.274404 -0.0178338 0.177216 0.98401
-0.219062 0.179775 0.0853418 -0.964515 -0.262344 0.029767
-0.150337 -0.0612704 0.187823 -0.964516 -0.262341 0.029766
0.439774 0.282077 -0.0614945 0.964516 0.262341 -0.0297662
0.391147 0.482495 0.129189 0.964516 0.262341 -0.0297661
-0.227254 0.1239 0.0273394 -0.964516 -0.262341 0.0297663
0.470787 0.14985 -0.221964 0.964516 0.262341 -0.0297656
0.523705 -0.00308217 0.144898 0.964523 0.262316 -0.0297556
-0.137508 -0.15152 -0.191886 -0.964516 -0.262341 0.0297661
0.343423 0.469133 0.0812 -0.263421 0.948563 -0.175607
0.332582 0.429555 -0.116323 -0.263421 0.948563 -0.175607
-0.160658 0.251092 -0.299686 -0.233596 0.795375 -0.559296
0.083157 0.301098 0.243687 -0.0178337 0.177216 0.98401
-0.0731996 0.365886 0.148459 -0.263421 0.948563 -0.175607
-0.147429 0.322456 0.0252134 -0.263421 0.948563 -0.175607
0.51727 0.0324805 0.249812 0.964516 0.262341 -0.0297654
0.429897 0.119196 0.282731 -0.0178337 0.177216 0.98401
0.313375 -0.0596506 0.2892 0.173656 -0.545424 0.819973
0.475743 -0.210754 0.0856652 0.263421 -0.948563 0.175607
-0.245481 0.252305 -0.131501 -0.964516 -0.262341 0.0297662
0.354919 -0.163162 -0.0296503 0.263421 -0.948563 0.175607
0.537402 -0.0645555 0.229249 0.263421 -0.948563 0.175607
0.40591 0.367161 -0.34485 -0.114321 0.313343 -0.942734
0.0394909 0.0979651 -0.313334 0.0178337 -0.177216 -0.98401
-0.0701163 -0.173898 0.237288 -0.242546 0.924945 0.292659
0.393909 0.200191 -0.325321 0.0178337 -0.177216 -0.98401
0.109806 -0.0786732 0.250071 0.217069 -0.852107 -0.47623
0.378483 -0.1163 -0.17039 -0.133655 0.387919 -0.911951
0.473847 0.167205 0.0301631 0.964516 0.262341 -0.0297662
0.0817577 0.222852 0.257753 -0.0178337 0.177216 0.98401
0.17479 -0.170027 0.203471 0.263421 -0.948563 0.175607
0.308627 0.080473 0.287507 -0.0178336 0.177216 0.98401
-0.0223246 -0.289524 -0.146326 0.263421 -0.948563 0.175607
-0.025607 0.340677 0.20389 -0.198877 0.796046 0.571628
-0.116397 -0.184185 0.204277 -0.964516 -0.262341 0.0297661
0.467185 0.0658078 0.293021 -0.0178337 0.177216 0.98401
0.0897993 0.34743 -0.19574 -0.263421 0.948563 -0.175607
0.15919 0.124698 0.276834 -0.0178336 0.177216 0.98401
0.19827 -0.205899 -0.0255162 0.263421 -0.948563 0.175607
-0.157237 -0.0298851 0.240836 -0.964516 -0.262341 0.0297662
0.508191 0.0477443 0.0901674 0.964516 0.262341 -0.0297662
0.417224 0.379163 0.0634688 0.964516 0.262341 -0.0297662
-0.474868 -0.11337 0.0178654 0.256322 -0.903378 0.343814
0.442061 -0.257459 -0.116093 0.263421 -0.948563 0.175607
-0.0983984 -0.288092 -0.128278 -0.964516 -0.262341 0.0297661
0.064192 0.399977 0.12651 -0.263421 0.948563 -0.175607
0.48474 -0.223289 0.00446219 0.263421 -0.948563 0.175607
0.202436 0.348758 0.237265 -0.0178337 0.177216 0.98401
0.458006 0.214063 -0.0701484 0.964516 0.262341 -0.0297662
0.530361 -0.103908 0.17185 0.964516 0.26234 -0.0297661
0.155658 -0.0801545 -0.27915 0.0178337 -0.177216 -0.98401
0.526044 -0.0187347 0.0827461 0.964516 0.262341 -0.0297662
0.239397 0.0673328 0.288618 -0.0178336 0.177216 0.98401
0.318019 0.447339 0.00158911 -0.263421 0.948563 -0.175607
-0.131064 -0.0907305 -0.282441 0.0178337 -0.177216 -0.98401
0.24135 0.299226 -0.243611 0.004681 -0.129714 -0.99154
0.194672 0.0111354 0.297929 -0.0178336 0.177216 0.98401
0.1098 0.400566 0.0612781 -0.263421 0.948563 -0.175607
0.165402 0.29765 -0.25483 0.224292 -0.873625 -0.431824
-0.223115 0.0968864 -0.114653 -0.203471 0.666726 -0.716991
0.542365 -0.10696 -0.165977 0.964516 0.26234 -0.0297654
0.109791 -0.0822881 0.313216 -0.0178336 0.177216 0.98401
-0.0164052 -0.252673 0.0438543 0.263421 -0.948563 0.175607
-0.195857 -0.00378912 -0.0806819 -0.964516 -0.262342 0.029766
0.156596 0.242826 0.255512 -0.0178337 0.177216 0.98401
0.129312 -0.159271 -0.204877 0.176119 -0.555295 0.812791
0.156996 0.222368 -0.333608 0.0178337 -0.177216 -0.98401
0.166763 0.0526299 -0.302862 0.0178337 -0.177216 -0.98401
0.113637 -0.0237599 -0.290068 0.0178337 -0.177216 -0.98401
0.371283 0.0619643 0.291976 -0.0178336 0.177216 0.98401
0.339102 -0.102879 -0.211806 0.166102 -0.515291 0.840765
0.196553 0.180097 -0.325279 0.0178337 -0.177216 -0.98401
0.416234 -0.0833762 0.272533 0.233596 -0.795374 0.559298
0.0676395 -0.266896 -0.159049 0.263421 -0.948563 0.175607
0.282177 -0.201832 -0.129412 0.263421 -0.948563 0.175607
0.405053 0.436908 0.178005 0.964516 0.26234 -0.0297655
0.0105587 0.291421 -0.287476 -0.173656 0.545424 -0.819973
-0.0219674 0.0481862 -0.305482 0.0178337 -0.177216 -0.98401
0.454374 -0.184586 0.0314886 -0.964516 -0.26234 0.029766
0.000651739 -0.250453 -0.245905 0.111443 -0.506726 -0.854874
0.234408 0.154093 0.272903 -0.0178336 0.177216 0.98401
0.167035 -0.193338 0.0891865 0.263421 -0.948563 0.175607
0.0941536 -0.246554 -0.0889396 0.263421 -0.948563 0.175607
0.289013 -0.134204 0.225635 0.263421 -0.948563 0.175607
0.335718 0.304113 -0.252694 -0.203472 0.666727 -0.71699
-0.144529 -0.0694551 0.303887 -0.964516 -0.262341 0.0297661
0.356108 0.397208 -0.30682 -0.244531 0.845097 -0.475411
0.036891 -0.103182 -0.277155 0.0178337 -0.177216 -0.98401
0.238886 0.391398 -0.181879 -0.263421 0.948563 -0.175607
0.402964 0.432731 0.0735049 0.964515 0.262346 -0.0297663
0.229224 0.446606 0.130828 -0.263421 0.948563 -0.175607
0.321875 -0.00239503 0.302671 -0.0178336 0.177216 0.98401
-0.0875722 -0.129493 0.31814 -0.0178337 0.177216 0.98401
-0.106342 0.251836 -0.293093 0.964516 0.262341 -0.029767
-0.0556687 -0.199253 -0.177772 0.258405 -0.961107 -0.0974666
0.32411 0.221936 0.26231 -0.0178336 0.177216 0.98401
0.0637564 0.266114 -0.315576 -0.173656 0.545424 -0.819973
0.225408 0.430048 0.0471069 -0.263421 0.948563 -0.175607
-0.000194606 -0.208431 0.258249 0.262904 -0.943928 0.199702
0.2843 0.411944 -0.139024 -0.263421 0.948563 -0.175607
0.356198 0.283429 0.251817 -0.0178336 0.177216 0.98401
-0.136231 -0.118302 0.142255 -0.964516 -0.26234 0.0297668
0.466252 0.221003 0.258206 0.964516 0.262341 -0.0297662
0.0592226 0.349356 -0.139469 -0.263421 0.948563 -0.175607
-0.224173 0.245822 -0.272454 -0.261395 0.932957 -0.247514
0.210319 -0.21832 -0.110687 0.263421 -0.948563 0.175607
0.457542 0.188646 -0.309205 0.964516 0.262341 -0.0297663
-0.113572 0.288819 -0.207265 -0.263421 0.948563 -0.175607
0.357413 0.0342479 -0.296096 0.0178337 -0.177216 -0.98401
0.0870272 -0.167114 -0.167376 0.17327 -0.714009 -0.678358
0.538623 -0.170479 -0.147141 0.964516 0.26234 -0.0297661
-0.00675747 -0.26504 -0.0374199 0.263421 -0.948563 0.175607
0.425265 0.334346 -0.0709781 0.964516 0.262341 -0.0297662
0.455081 0.210333 -0.19781 0.964516 0.262341 -0.0297662
-0.121518 0.11463 -0.319253 0.0178336 -0.177216 -0.98401
-0.251006 0.302314 0.130221 -0.964516 -0.262341 0.0297656
-0.00050386 -0.147952 0.224529 -0.152574 0.645832 0.748079
0.317592 -0.0905001 -0.274352 0.0178337 -0.177216 -0.98401
-0.112441 0.324009 -0.0188811 -0.263421 0.948563 -0.175607
0.509204 0.0513053 0.154378 0.964516 0.262341 -0.0297662
0.407463 0.397259 -0.0933483 0.964516 0.26234 -0.029766
-0.502654 -0.0519382 0.0135413 -0.251727 0.947737 0.196032
0.527817 -0.0417054 -0.0622547 0.964516 0.262341 -0.0297662
0.132347 -0.245258 -0.139231 0.263421 -0.948563 0.175607
0.158221 0.304882 0.244366 -0.0178337 0.177216 0.98401
-0.0257598 0.308136 -0.234648 -0.263421 0.948563 -0.175607
0.272536 0.451997 0.190921 -0.218639 0.856826 0.466954
0.457723 0.208239 -0.130651 0.964516 0.262341 -0.0297662
-0.11378 0.0715257 0.281463 -0.0178338 0.177216 0.98401
-0.152889 -0.0960034 -0.200984 -0.964516 -0.262341 0.0297661
-0.11139 0.260257 0.183947 -0.20347 0.666721 -0.716996
0.073757 -0.0612525 -0.284038 0.0178337 -0.177216 -0.98401
0.121173 0.241693 -0.250796 -0.238696 0.818249 -0.522965
0.538139 -0.0410199 0.278267 0.964516 0.262343 -0.0297646
0.411732 0.36645 -0.226548 0.964517 0.262338 -0.0297656
0.140728 -0.168369 0.253447 0.173656 -0.545424 0.819973
-0.241591 0.229728 -0.204418 -0.964516 -0.262341 0.0297662
0.241467 -0.0571754 -0.281733 0.0178337 -0.177216 -0.98401
-0.181764 0.0495387 0.146085 -0.964516 -0.262341 0.0297661
0.411388 0.375591 -0.157111 0.964515 0.262344 -0.0297667
-0.387392 -0.0551971 -0.0317039 -0.0347158 0.0142517 -0.999296
0.128633 0.376328 -0.0978994 -0.263421 0.948563 -0.175607
0.320453 0.389779 0.177044 -0.0858871 0.205149 -0.974955
0.538572 -0.109289 -0.0141411 0.263421 -0.948563 0.175607
0.140783 0.150259 -0.320916 0.0178337 -0.177216 -0.98401
0.284861 0.139485 0.276448 -0.0178336 0.177216 0.98401
0.496923 0.108881 0.263871 0.964516 0.262341 -0.0297654
-0.23171 0.206633 -0.0877884 -0.964516 -0.26234 0.0297661
-0.272289 0.0106315 0.00685601 -0.251727 0.947737 0.196033
0.384188 -0.107703 0.226012 0.263421 -0.948563 0.175607
0.220009 0.37226 -0.256943 -0.263421 0.948563 -0.175607
0.17396 0.291456 -0.322058 -0.173656 0.545424 -0.819973
-0.119989 -0.179561 0.128639 -0.964516 -0.26234 0.0297663
0.539984 -0.073289 0.0536293 0.964516 0.26234 -0.0297661
-0.313551 -0.0354669 0.0354769 0.0216261 0.033862 0.999193
0.17656 0.347821 0.135003 -0.0568951 0.316612 0.946847
0.227575 -0.150622 0.22911 0.263421 -0.948563 0.175607
-0.00453402 0.142463 -0.322145 0.0178337 -0.177216 -0.98401
-0.0621843 -0.0798552 -0.283151 0.0178336 -0.177216 -0.98401
0.446665 0.270496 0.0597247 0.964516 0.26234 -0.0297654
0.0613924 0.382396 0.0357422 -0.263421 0.948563 -0.175607
0.224626 -0.07025 0.211107 0.0216256 0.0338637 0.999192
0.0619996 -0.182777 0.260536 0.173656 -0.545424 0.819973
0.211711 0.27281 0.251111 -0.0178336 0.177216 0.98401
-0.239564 0.24924 0.033223 -0.964516 -0.26234 0.0297661
-0.019701 0.162984 0.266696 -0.0178337 0.177216 0.98401
-0.084041 -0.231161 0.261195 0.262904 -0.943928 0.199705
-0.220327 0.177321 0.0227229 -0.964516 -0.26234 0.029766
0.0156508 -0.115578 0.263643 0.094684 -0.44893 -0.888536
0.0473691 -0.0987561 0.31505 -0.0178336 0.177216 0.98401
0.333314 -0.194249 -0.180486 0.198877 -0.796046 -0.571628
0.482449 -0.154152 -0.216236 0.243312 -0.926957 -0.28557
0.0310779 0.369844 0.182994 -0.198877 0.796046 0.571628
-0.230822 0.00728819 -0.0305254 -0.176122 0.555305 -0.812784
-0.0805147 0.313178 0.223083 -0.198877 0.796046 0.571628
-0.184851 -0.0255018 0.0846002 -0.964516 -0.262341 0.0297659
0.541943 -0.232349 -0.130335 0.287009 -0.94184 0.174823
0.484422 0.134251 0.0823781 0.964516 0.262341 -0.0297662
0.0231256 0.224909 -0.282499 -0.0946907 0.448953 0.888524
0.428183 -0.0194359 0.252983 -0.0858845 0.205139 -0.974957
0.127427 -0.225339 -0.208821 0.198877 -0.796046 -0.571628
0.360224 0.330757 -0.347698 -0.0403135 0.0349129 -0.998577
0.426638 -0.167773 0.214161 -0.964516 -0.26234 0.0297663
0.478199 0.163182 0.135736 0.964516 0.262341 -0.0297662
0.447591 -0.169213 -0.0528111 -0.964516 -0.262341 0.0297662
-0.0616173 0.203417 -0.280604 -0.0822829 0.4058 0.91025
0.300141 -0.183827 -0.059104 0.263421 -0.948563 0.175607
0.527249 -0.0326275 -0.000665663 0.964516 0.262341 -0.0297662
-0.18077 0.200668 -0.328753 -0.0904434 0.222377 -0.970757
-8.90118e-05 -0.238403 0.096461 0.263421 -0.948563 0.175607
0.0257454 -0.16701 0.295514 0.964516 0.26234 -0.0297642
-0.0552141 0.334921 -0.0457833 -0.263421 0.948563 -0.175607
0.464686 -0.0620529 -0.276809 0.0178337 -0.177216 -0.98401
0.120478 0.391668 -0.00280454 -0.263421 0.948563 -0.175607
0.443402 0.242994 -0.28841 0.964516 0.262341 -0.0297663
0.316223 0.401211 0.229881 -0.0178336 0.177216 0.98401
-0.00672273 0.381615 0.133701 -0.263421 0.948563 -0.175607
-0.119169 -0.2 -0.0249166 -0.964516 -0.262341 0.0297661
-0.0835042 -0.234451 -0.255696 0.0178337 -0.177216 -0.98401
0.416912 -0.129324 0.0601337 0.263421 -0.948563 0.175607
0.328428 -0.019613 0.244045 0.217071 -0.852112 -0.47622
0.165529 0.393722 -0.0592872 -0.263421 0.948563 -0.175607
0.109497 0.097407 -0.311964 0.0178337 -0.177216 -0.98401
-0.104214 -0.00833325 0.296018 -0.0178337 0.177216 0.98401
0.462869 -0.0283387 0.301227 0.102509 -0.268196 0.957895
-0.0249584 -0.201806 -0.260514 0.0178337 -0.177216 -0.98401
0.211778 0.358538 0.17997 -0.110319 0.298015 -0.948165
-0.115157 -0.207172 0.0418844 -0.964516 -0.262341 0.0297661
0.0334158 0.26351 0.249555 -0.0178337 0.177216 0.98401
-0.13316 -0.160615 -0.131149 -0.964516 -0.262341 0.0297674
0.354602 0.397035 0.129244 -0.0568952 0.316613 0.946847
0.525674 -0.0528077 -0.229553 0.964516 0.262341 -0.0297661
-0.187243 0.0761521 0.203118 -0.964516 -0.262341 0.0297662
-0.169891 -0.0937779 -0.0323933 -0.964516 -0.262341 0.0297667
0.383475 0.441363 -0.128881 -0.263421 0.948563 -0.175607
-0.105804 -0.184646 0.318291 0.114322 -0.31335 0.942731
0.12906 -0.192289 0.151816 0.263421 -0.948563 0.175607
-0.213669 -0.0444627 -0.0035432 0.260785 -0.964215 -0.0477616
-0.395371 -0.0898311 0.0196068 0.244024 -0.842729 0.479854
-0.033704 -0.224883 0.219914 0.263421 -0.948563 0.175607
0.178597 -0.105243 0.287417 0.173656 -0.545424 0.819973
0.275949 -0.149443 -0.170155 -0.185709 0.593958 -0.782768
0.547779 -0.182125 0.0469203 0.964516 0.26234 -0.0297661
-0.216224 0.00274144 0.0304024 -0.0568949 0.316611 0.946847
0.387357 0.463806 -0.0134738 -0.263421 0.948563 -0.175607
0.0811418 0.147165 -0.321439 0.0178337 -0.177216 -0.98401
0.461013 -0.00526098 0.2038 0.0347168 -0.0142552 0.999296
0.336678 0.408532 -0.236024 -0.263421 0.948563 -0.175607
0.301495 -0.160412 0.0653445 0.263421 -0.948563 0.175607
-0.229292 0.293479 -0.00850893 -0.263421 0.948563 -0.175607
0.345732 0.356709 0.23843 -0.0178336 0.177216 0.98401
-0.273705 -0.0296626 -0.034863 0.00468095 -0.129714 -0.99154
-0.13303 -0.141877 0.0381826 -0.964516 -0.262341 0.0297661
0.532083 -0.0648859 -0.128321 0.964516 0.262341 -0.0297662
0.349236 -0.124069 0.190041 0.263421 -0.948563 0.175607
0.443282 -0.110961 0.218564 -0.0178337 0.177216 0.98401
0.428559 0.314436 -0.139722 0.964516 0.262341 -0.0297662
0.137323 0.381841 0.203252 -0.198877 0.796046 0.571628
-0.175588 -0.0649132 0.0374057 -0.964516 -0.262341 0.0297647
-0.21126 0.0540196 -0.070279 -0.964516 -0.262341 0.0297662
0.481655 -0.185429 0.213594 0.263421 -0.948563 0.175607
-0.039395 -0.177917 0.311701 0.148005 -0.443877 0.88378
0.288888 0.42524 -0.0740886 -0.263421 0.948563 -0.175607
0.211377 0.394667 -0.122958 -0.263421 0.948563 -0.175607
0.537735 -0.141109 0.0829474 0.964516 0.26234 -0.0297661
0.105735 0.0301919 -0.299927 0.0178337 -0.177216 -0.98401
0.20944 -0.142017 -0.209843 0.133659 -0.387936 0.911944
-0.0844817 0.304487 -0.166272 -0.263421 0.948563 -0.175607
-0.0849479 0.308368 0.155893 0.252848 -0.885348 0.390162
0.178041 0.415852 0.170055 -0.198877 0.796046 0.571628
0.435282 0.320828 0.13449 0.964516 0.262341 -0.0297662
-0.160249 0.30229 -0.0644846 -0.263421 0.948563 -0.175607
0.216004 0.41177 -0.0375148 -0.263421 0.948563 -0.175607
0.358581 -0.15099 0.0306053 0.263421 -0.948563 0.175607
0.335437 0.442301 -0.0517525 -0.263421 0.948563 -0.175607
-0.0532682 0.218209 0.256142 -0.0178337 0.177216 0.98401
-0.228803 0.192974 -0.253904 0.262515 -0.964926 0.00205865
0.389743 0.474764 0.042137 -0.263421 0.948563 -0.175607
0.0426279 0.299016 0.175505 -0.232776 0.791737 -0.564773
0.25347 0.406985 0.208645 -0.198877 0.796046 0.571628
0.493136 0.0631282 -0.262086 0.964516 0.262341 -0.0297661
0.349359 0.336918 -0.292522 0.144834 -0.431461 0.890429
0.432013 0.294992 -0.19915 0.964516 0.262341 -0.0297662
-0.171133 0.024031 0.265748 -0.964516 -0.262341 0.0297661
-0.43661 -0.0370804 0.0200238 -0.224292 0.873624 0.431827
0.43148 0.323803 0.0375029 0.964516 0.262341 -0.0297662
-0.218121 0.183871 0.151907 -0.964516 -0.262341 0.0297662
0.196415 0.261121 -0.277331 -0.217069 0.852106 0.476232
-0.194645 0.152271 -0.258174 -0.255383 0.955609 0.146936
0.45466 0.248116 0.121534 0.964516 0.262341 -0.0297662
0.0514526 0.0317056 -0.301184 0.0178337 -0.177216 -0.98401
-0.00658711 0.334961 -0.118511 -0.263421 0.948563 -0.175607
0.520071 -0.226377 -0.0652158 0.263421 -0.948563 0.175607
0.269061 0.198278 -0.327239 0.0178337 -0.177216 -0.98401
-0.0699293 0.319988 -0.104372 -0.263421 0.948563 -0.175607
0.287266 0.28868 0.249622 -0.0178336 0.177216 0.98401
0.435782 -0.0950342 -0.170563 -0.0733401 0.15791 -0.984726
0.316656 -0.0212317 -0.286843 0.0178337 -0.177216 -0.98401
0.378855 0.111175 -0.309562 0.0178337 -0.177216 -0.98401
-0.103112 -0.235436 0.183066 -0.964516 -0.262341 0.0297661
-0.213163 0.177644 0.257701 -0.964516 -0.262341 0.0297661
0.536589 -0.191302 0.0994695 0.263421 -0.948563 0.175607
-0.127502 0.300258 -0.124584 -0.263421 0.948563 -0.175607
-0.154873 -0.147204 -0.0166193 -0.964516 -0.262341 0.0297665
-0.223911 0.164981 -0.20216 -0.964518 -0.262333 0.0297654
0.254796 -0.0133741 0.303433 -0.0178336 0.177216 0.98401
-0.211859 0.0699398 0.050612 -0.964517 -0.262337 0.0297612
-0.104051 0.181578 0.261819 -0.0178338 0.177216 0.98401
-0.197887 0.0236641 0.0954905 -0.964516 -0.262341 0.0297661
0.288132 0.447632 0.0480016 -0.263421 0.948563 -0.175607
0.482197 -0.0753828 0.250344 0.259257 -0.919737 0.294735
-0.207849 0.268667 0.244183 -0.024294 0.200445 0.979404
0.177529 0.427884 0.107244 -0.263421 0.948563 -0.175607
0.152558 -0.114039 0.233064 -0.251726 0.947735 0.196042
-0.152681 0.284862 0.150767 0.203472 -0.666727 0.71699
0.51154 0.0283602 0.0278437 0.964516 0.262341 -0.0297662
0.357725 -0.134674 -0.254957 0.198877 -0.796046 -0.571628
0.0856706 0.370021 -0.0675218 -0.263421 0.948563 -0.175607
-0.130639 0.0343598 -0.304962 0.0178336 -0.177216 -0.98401
-0.177386 0.0781061 -0.313688 0.0178336 -0.177216 -0.98401
-0.170041 -0.0317463 -0.190455 -0.964516 -0.262341 0.0297661
-0.00529828 -0.0033604 -0.295897 0.0178337 -0.177216 -0.98401
-0.1026 0.190714 -0.332552 0.0113636 -0.153885 -0.988023
0.498998 -0.0708121 -0.172341 0.00468035 -0.129712 -0.991541
0.549474 -0.200105 -0.0132091 0.98852 -0.144557 0.0439496
-0.172175 -0.0348435 -0.286886 -0.964516 -0.262341 0.0297662
0.1629 -0.225216 -0.076806 0.263421 -0.948563 0.175607
0.103522 -0.207641 0.107203 0.263421 -0.948563 0.175607
-0.0237421 0.239931 -0.241115 0.15257 -0.645818 -0.748092
-0.207381 0.283199 -0.0969046 -0.263421 0.948563 -0.175607
0.413047 -0.00415444 -0.288172 0.0178337 -0.177216 -0.98401
-0.164373 0.227261 0.252498 -0.0178338 0.177216 0.98401
0.312712 0.0957323 -0.30798 0.0178337 -0.177216 -0.98401
-0.168422 0.00673064 0.201122 -0.964516 -0.262341 0.0297662
0.51401 0.0020715 -0.123833 0.964516 0.26234 -0.0297654
0.395382 0.419574 -0.264439 -0.263421 0.948563 -0.175607
-0.00045832 0.324182 -0.185926 -0.263421 0.948563 -0.175607
-0.0930307 -0.28792 -0.234205 0.155998 -0.657206 -0.73739
-0.0273444 0.296703 0.242476 -0.0178337 0.177216 0.98401
0.362298 -0.132617 0.124273 0.263421 -0.948563 0.175607
0.308064 -0.14802 0.122426 0.263421 -0.948563 0.175607
-0.0279684 0.225618 -0.323087 -0.173656 0.545424 -0.819973
-0.442148 -0.0785473 -0.0291087 0.0309423 -0.224279 -0.974034
0.0626696 0.326767 -0.266657 -0.263421 0.948563 -0.175607
-0.226781 0.22007 0.19035 -0.964516 -0.262341 0.0297662
0.271297 -0.126765 -0.268659 0.0178337 -0.177216 -0.98401
-0.18942 0.32057 0.0780159 -0.263421 0.948563 -0.175607
0.486218 -0.23688 -0.139074 0.0178337 -0.177216 -0.98401
0.408619 -0.111837 0.167032 0.263421 -0.948563 0.175607
-0.0457895 0.0246277 0.291141 -0.0178338 0.177216 0.98401
0.164307 0.363437 -0.221046 -0.263421 0.948563 -0.175607
0.458734 -0.240061 -0.0471237 0.263421 -0.948563 0.175607
0.0245972 -0.182629 -0.167124 0.192246 -0.775099 -0.601884
-0.161139 0.209223 -0.265262 0.252849 -0.88535 0.390157
0.260581 0.430625 -0.00253718 -0.263421 0.948563 -0.175607
-0.324539 -0.00456883 -0.0102415 -0.259159 0.919167 -0.296596
-0.0231073 0.320792 0.147472 0.211606 -0.700673 0.681381
0.253136 0.22161 0.261083 -0.0178336 0.177216 0.98401
0.168624 0.183377 0.266437 -0.0178336 0.177216 0.98401
-0.065407 -0.275884 -0.00801755 0.263421 -0.948563 0.175607
-0.115954 -0.146362 0.264553 0.141641 -0.609279 -0.780203
0.207259 0.100699 -0.310785 0.0178337 -0.177216 -0.98401
-0.204627 0.0912064 -0.227526 -0.964516 -0.26234 0.0297665
-0.119723 -0.213294 -0.160029 -0.964516 -0.262341 0.0297662
0.0372744 -0.163343 -0.266313 0.0178337 -0.177216 -0.98401
0.423864 0.30918 -0.338155 0.964516 0.262341 -0.0297663
0.102772 -0.124484 -0.272124 0.0178337 -0.177216 -0.98401
-0.235928 0.228796 -0.0291471 -0.964516 -0.26234 0.0297661
0.507795 0.0146567 -0.214297 0.964516 0.262342 -0.0297574
-0.226057 0.179971 -0.139596 -0.964516 -0.262339 0.0297661
0.1504 0.369999 -0.164735 -0.263421 0.948563 -0.175607
0.265408 -0.0364264 0.222545 0.244023 -0.842725 0.479862
0.42907 -0.210679 -0.08518 -0.964516 -0.262341 0.0297663
-0.207028 0.106275 -0.172492 -0.964516 -0.262341 0.0297661
-0.319466 -0.0697194 -0.0138653 0.224292 -0.873623 -0.431828
-0.0559761 -0.285884 -0.0761835 0.263421 -0.948563 0.175607
0.518162 -0.087844 -0.270965 0.0371624 -0.246511 -0.968427
0.235625 -0.172905 0.0966702 0.263421 -0.948563 0.175607
-0.148813 0.339888 0.121453 -0.263421 0.948563 -0.175607
0.0107086 -0.0419972 0.304164 -0.0178337 0.177216 0.98401
-0.24847 0.30155 0.0638565 -0.263421 0.948563 -0.175607
0.0821587 0.0301638 0.292463 -0.0178337 0.177216 0.98401
0.086312 0.358414 0.218129 -0.198877 0.796046 0.571628
0.170806 -0.17488 -0.164951 -0.155662 0.473968 -0.866674
0.313656 0.165555 -0.320537 0.0178337 -0.177216 -0.98401
-0.0629677 -0.250964 -0.17379 -0.262894 0.94385 -0.200085
0.436038 -0.210522 0.141984 -0.964516 -0.26234 0.029766
-0.174367 0.0825354 0.278382 -0.0178337 0.177216 0.98401
0.497895 0.0626408 -0.112174 0.964516 0.262341 -0.0297662
0.475829 0.12256 -0.299089 0.964516 0.262341 -0.0297663
-0.0519326 0.269281 0.167867 -0.264017 0.959152 -0.101597
-0.130551 -0.18411 -0.253687 -0.964516 -0.262341 0.0297662
-0.0405203 -0.124512 0.261077 0.163126 -0.680772 -0.7141
0.445611 -0.142232 0.12084 -0.964516 -0.26234 0.029766
-0.185667 -0.0159341 0.142475 -0.964516 -0.26234 0.0297662
0.431216 0.0604022 -0.299469 0.0178337 -0.177216 -0.98401
-0.19812 0.261371 -0.228703 -0.263421 0.948563 -0.175607
0.287946 0.323826 -0.288385 0.18571 -0.593961 0.782766
0.543461 -0.13975 -0.208115 0.25572 -0.956277 -0.141922
-0.0680195 -0.306583 -0.184922 0.258635 -0.961468 -0.0932033
0.348999 0.116481 0.281753 -0.0178336 0.177216 0.98401
-0.0552542 0.124092 -0.319756 0.0178337 -0.177216 -0.98401
0.182466 0.343758 -0.28907 -0.173656 0.545424 -0.819973
-0.191333 0.275193 -0.164222 -0.263421 0.948563 -0.175607
-0.243148 0.307049 0.214164 -0.194556 0.782423 0.591577
0.458617 0.190726 -0.256043 0.964516 0.262341 -0.0297661
0.412091 0.391188 0.00311813 0.964516 0.262341 -0.0297662
0.14591 -0.0283728 0.30416 -0.0178336 0.177216 0.98401
0.0323562 0.322617 0.238891 -0.0178337 0.177216 0.98401
0.471237 0.163591 -0.0862506 0.964516 0.262341 -0.0297662
0.4811 0.167693 0.274924 -0.0178337 0.177216 0.98401
0.0630765 0.262964 -0.24333 0.141645 -0.609292 -0.780192
-0.0882308 0.341607 0.0398587 -0.263421 0.948563 -0.175607
0.219729 -0.0598513 0.308899 0.173656 -0.545424 0.819973
0.189481 -0.174348 -0.258242 0.198877 -0.796046 -0.571628
0.0892224 -0.224381 0.0382278 0.263421 -0.948563 0.175607
0.0109751 0.352945 -0.0477118 -0.263421 0.948563 -0.175607
0.0218522 0.189465 -0.330132 0.0178337 -0.177216 -0.98401
0.18613 -0.228573 -0.183894 0.198877 -0.796046 -0.571628
0.279328 0.391226 -0.243476 -0.263421 0.948563 -0.175607
-0.0980806 0.218986 -0.238243 0.141645 -0.609292 -0.780192
0.224749 0.31019 -0.320353 -0.173656 0.545424 -0.819973
0.0538552 -0.224135 0.0926119 0.263421 -0.948563 0.175607
-0.189461 0.0293517 -0.281225 -0.964516 -0.262341 0.0297661
-0.0756249 -0.261249 0.0863589 0.263421 -0.948563 0.175607
0.290012 0.300749 -0.345082 -0.00159253 -0.106957 -0.994262
-0.148822 0.296041 0.239034 -0.0626057 0.336774 0.939502
-0.0864631 -0.139113 -0.272919 0.0178337 -0.177216 -0.98401
0.474665 0.184865 0.212309 0.964516 0.262341 -0.0297654
0.489808 0.127734 0.199488 0.964516 0.262343 -0.0297555
-0.121268 0.17219 -0.26019 -0.255383 0.955609 0.146939
-0.0797699 -0.00234626 -0.297429 0.0178336 -0.177216 -0.98401
0.0195645 -0.28247 -0.190432 0.25572 -0.956277 -0.141925
0.435598 0.329128 0.21786 0.964516 0.262341 -0.0297662
0.403843 -0.08809 -0.215371 0.144836 -0.431472 0.890424
0.45028 0.248294 -0.0188203 0.964516 0.262341 -0.0297662
0.170786 -0.202889 0.0319683 0.263421 -0.948563 0.175607
0.194053 -0.0080363 -0.291442 0.0178337 -0.177216 -0.98401
-0.0448343 -0.237711 0.167318 0.263421 -0.948563 0.175607
-0.171369 -0.0708777 0.121553 -0.964516 -0.262341 0.0297656
0.0440134 -0.241992 0.0109177 0.263421 -0.948563 0.175607
-0.129987 0.350641 0.18175 -0.252188 0.948782 0.190298
0.286651 0.381161 0.130642 -0.0309408 0.224274 0.974035
0.418274 0.263293 0.256569 -0.0178337 0.177216 0.98401
0.0987598 0.207641 -0.332012 0.0178337 -0.177216 -0.98401
0.470881 0.156299 -0.162069 0.964516 0.262341 -0.0297662
0.0806471 -0.136357 0.287465 0.173656 -0.545424 0.819973
0.248224 -0.201167 -0.0748942 0.263421 -0.948563 0.175607
0.29135 0.462193 0.12183 -0.263421 0.948563 -0.175607
-0.201586 0.117143 0.0996159 -0.964516 -0.262341 0.0297662
0.127543 0.31948 -0.293587 -0.173656 0.545424 -0.819973
-0.192044 0.269366 0.189775 0.118754 -0.53175 -0.838534
0.4173 -0.148525 -0.00461875 -0.263421 0.948563 -0.175607
0.376135 0.441808 0.221641 -0.0751147 0.380737 0.921628
-0.188108 0.333924 0.187388 -0.248049 0.939002 0.238215
-0.0636435 0.287096 -0.274638 -0.173656 0.545424 -0.819973
0.39026 0.428292 -0.209662 -0.263421 0.948563 -0.175607
0.0154022 -0.217416 0.186584 0.263421 -0.948563 0.175607
0.403637 0.390608 0.233374 -0.0178336 0.177216 0.98401
-0.116737 -0.217676 -0.101896 -0.964516 -0.262341 0.0297661
0.178027 0.074169 0.286275 -0.0178336 0.177216 0.98401
0.547751 -0.117225 -0.0819136 0.964516 0.26234 -0.0297661
0.35031 -0.179258 -0.109682 0.263421 -0.948563 0.175607
0.392029 -0.0627429 -0.278001 0.0178337 -0.177216 -0.98401
0.00838518 -0.270581 -0.090068 0.263421 -0.948563 0.175607
-0.0571959 -0.0525317 0.30483 -0.0178337 0.177216 0.98401
0.464099 0.209167 0.0841332 0.964516 0.262341 -0.0297662
0.410525 -0.159756 -0.23732 -0.96452 -0.262326 0.02977
0.27787 -0.147605 0.169957 0.263421 -0.948563 0.175607
0.38637 -0.03823 0.209399 -0.106855 0.490961 0.864604
0.255536 -0.207355 -0.189295 0.198877 -0.796046 -0.571628
-0.200557 0.00616616 -0.145217 -0.964516 -0.26234 0.0297662
0.540022 -0.0648928 0.128855 0.964516 0.26234 -0.0297661
0.252699 0.14802 -0.318484 0.0178337 -0.177216 -0.98401
0.00915451 0.0735382 0.283328 -0.0178337 0.177216 0.98401
-0.0235616 0.357822 0.0304415 -0.263421 0.948563 -0.175607
0.337297 0.238741 -0.333289 0.0178337 -0.177216 -0.98401
0.115227 -0.226692 -0.0132637 0.263421 -0.948563 0.175607
0.423338 0.317379 -0.282939 0.964516 0.26234 -0.029784
0.543013 -0.169163 0.193625 0.801067 -0.586397 0.120126
0.443943 0.256313 -0.153474 0.964516 0.262341 -0.0297662
-0.234354 0.240036 0.120939 -0.964516 -0.26234 0.0297661
0.488306 0.110182 -0.00389087 0.964516 0.262341 -0.0297662
0.419827 0.377026 0.128982 0.964516 0.26234 -0.0297654
