ply
format ascii 1.0
comment Created by Open3D
element vertex 128
property double x
property double y
property double z
property double nx
property double ny
property double nz
end_header
0.237639 0.0909564 -0.230971 0.664185 0.189699 -0.723099
0.307884 0.414142 0.107242 0.813546 0.16117 -0.558719
-0.211609 -0.0191403 0.226456 -0.047427 0.976012 0.212486
0.436646 0.000683924 -0.0718601 0.664187 0.189695 -0.723099
0.182684 -0.390891 -0.153418 0.0448148 -0.79451 -0.605596
0.0903817 -0.126653 0.517446 0.746062 -0.106836 0.65725
0.0749051 -0.0313413 -0.2377 -0.632526 -0.372955 -0.678834
0.0271818 0.106968 -0.42008 0.664185 0.189699 -0.723099
0.33904 -0.369881 -0.0830588 0.0474274 -0.976012 -0.212489
-0.425213 -0.14479 -0.141166 0.747499 -0.155357 0.64584
-0.150161 -0.283139 -0.5162 -0.746062 0.106836 -0.65725
-0.0699705 -0.143657 -0.0643756 -0.742771 0.0580529 -0.667024
0.315192 -0.157338 0.257269 0.746062 -0.106836 0.65725
0.179941 -0.510715 0.11034 0.0411505 -0.974527 0.220461
-0.417006 -0.417018 -0.0193218 -0.664185 -0.189699 0.723099
0.490894 -0.2715 0.0392685 0.746062 -0.106836 0.65725
0.264858 -0.182694 -0.277759 0.664185 0.189699 -0.723099
0.178806 0.370231 0.434746 0.193673 -0.199704 0.960526
-0.0535508 0.34222 0.306486 -0.912255 -0.128972 0.38879
0.169651 -0.106221 0.275335 0.566075 0.504157 0.652216
0.064416 -0.416186 -0.102369 -0.210514 -0.824363 -0.525462
0.11413 0.0920424 0.375684 -0.15316 -0.217316 0.96401
0.340843 -0.324529 0.200976 0.746062 -0.106836 0.65725
0.129712 0.509095 0.0386903 0.00433599 0.212925 -0.977059
0.0167957 -0.28966 -0.52346 0.047427 -0.976012 -0.212486
0.0376272 0.40716 0.0425821 -0.473904 0.165274 -0.864928
0.312204 0.32776 0.337087 0.808486 -0.0874172 0.581987
-0.384179 -0.0285876 -0.0418763 0.382565 -0.917266 0.110758
0.130488 0.373326 0.235778 0.545576 0.203503 -0.812978
-0.462364 0.040856 -0.105093 -0.047427 0.976012 0.212486
0.0727109 0.259247 0.403412 -0.345708 -0.215618 0.913233
-0.0133113 0.166522 0.319943 -0.751799 -0.174943 0.635762
-0.12279 -0.424401 0.0642884 0.047426 -0.976013 -0.212484
0.312859 -0.00730029 0.284307 0.746062 -0.106836 0.65725
-0.118311 -0.164217 -0.448014 0.58971 0.461534 0.662743
0.0145183 0.459899 0.24388 -0.047427 0.976012 0.212488
0.530489 0.0399823 0.0246467 0.664187 0.189698 -0.723098
0.0594689 0.0594417 -0.0739894 -0.0474271 0.976012 0.212486
-0.338851 -0.00411857 -0.256658 -0.746062 0.106836 -0.65725
-0.0227832 0.146998 0.0520447 -0.808486 0.0874172 -0.581987
-0.141706 0.0429189 -0.251613 0.212252 -0.975315 -0.0609077
-0.00964213 -0.0255498 0.300976 -0.047427 0.976012 0.212486
-0.0287776 -0.365685 -0.184427 0.047427 -0.976012 -0.212486
-0.442871 0.000926446 0.0665642 -0.664185 -0.189694 0.7231
0.406842 -0.182022 0.149223 0.746062 -0.106836 0.65725
0.305242 0.476466 0.232673 -0.0474269 0.976012 0.212488
0.490922 -0.127182 0.0626956 0.746062 -0.106836 0.65725
-0.248917 -0.0495015 0.0472193 -0.364934 -0.761912 -0.535083
0.145118 -0.262331 -0.408636 0.664185 0.189699 -0.723099
-0.00582119 -0.282368 0.393686 -0.664185 -0.189699 0.723099
-0.143159 0.00994431 0.10814 -0.047427 0.976012 0.212486
0.0314291 -0.173441 -0.199221 -0.71729 0.434209 -0.544938
0.178133 0.186365 0.396532 0.144585 -0.203778 0.968282
0.0941067 0.0888158 -0.201182 -0.047427 0.976012 0.212486
0.270159 -0.472279 0.217896 0.243313 -0.954384 0.17306
-0.128687 -0.128246 0.321263 -0.664186 -0.189694 0.723099
0.14259 0.0187838 0.151812 0.955766 0.106161 -0.274302
-0.0841233 0.146885 -0.511845 0.664185 0.189699 -0.723099
0.36365 0.0416983 0.171236 0.995748 0.0293787 0.0873063
-0.527811 -0.155811 -0.0525737 -0.664185 -0.189699 0.723099
0.25236 -0.0399281 0.17637 0.744798 -0.251112 0.618239
-0.0531953 0.307612 0.128736 -0.928234 0.0355117 -0.370298
-0.157666 0.117776 -0.3904 -0.047427 0.976012 0.212486
0.451261 -0.386358 0.065587 0.746062 -0.106836 0.65725
-0.26515 -0.320143 -0.0499962 -0.247718 0.968469 0.0265349
0.189084 -0.332982 -0.286014 0.047427 -0.976012 -0.212486
-0.242383 -0.157921 0.209046 -0.664185 -0.189701 0.723099
-0.118279 -0.263315 -0.105938 -0.529219 0.802487 -0.275576
0.134603 0.104673 -0.322014 0.664185 0.189699 -0.723099
0.298661 -0.0559523 -0.213461 0.664186 0.189697 -0.723099
-0.323419 -0.154073 -0.253741 0.721872 0.0886748 0.686322
-0.0397857 0.102517 -0.294 -0.047427 0.976012 0.212486
-0.539996 -0.0348186 -0.0333236 -0.746062 0.106836 -0.65725
-0.266655 -0.379998 -0.171778 0.047427 -0.976012 -0.212486
-0.260855 0.0896236 -0.28412 -0.047427 0.976012 0.212486
0.515666 -0.362728 -0.0764927 0.047427 -0.976012 -0.212486
0.146352 0.1871 0.17056 0.0205653 -0.211727 0.977113
0.285852 0.275927 0.0438772 0.68258 0.186977 -0.706487
-0.0393025 0.461216 0.122263 -0.836721 0.0773692 -0.542136
0.0411449 -0.478076 0.0713686 -0.369087 -0.923265 -0.106567
-0.150327 -0.391966 -0.0908411 0.047427 -0.976012 -0.212486
0.43459 -0.324303 -0.159006 0.664185 0.189699 -0.723099
0.27124 0.439327 0.395673 -0.0474289 0.976012 0.212488
-0.0312381 -0.099352 0.418353 -0.664185 -0.1897 0.723099
-0.477333 -0.275476 -0.0503672 0.541032 0.545527 0.640066
0.292967 -0.344034 -0.212063 0.047427 -0.976012 -0.212486
0.129619 -0.383564 0.431146 0.746062 -0.106836 0.65725
0.169469 -0.483245 -0.0326275 -0.0181399 -0.798376 -0.601885
0.158745 0.484192 0.164486 -0.0474251 0.976012 0.212487
-0.493189 -0.390094 -0.144206 -0.746062 0.106836 -0.65725
0.289894 0.113709 0.32803 0.676226 -0.125192 0.725979
0.222491 -0.199483 0.355647 0.746062 -0.106836 0.65725
0.227594 -0.384438 0.31979 0.746062 -0.106836 0.65725
-0.129983 -0.00336927 -0.493628 -0.746062 0.106836 -0.65725
0.323532 -0.454749 0.0366047 0.464184 -0.858647 -0.217391
-0.233585 -0.0819279 -0.347575 0.747077 -0.203487 0.632826
0.022857 0.394717 0.411586 -0.524545 -0.205369 0.826242
-0.0483711 -0.0231859 -0.135229 -0.514642 -0.585543 -0.626325
-0.0442727 -0.418992 0.322525 -0.664185 -0.189699 0.723099
0.162841 -0.102846 -0.323438 -0.747077 0.203488 -0.632826
0.350832 0.304885 0.185994 0.991652 0.0715411 -0.107272
-0.259724 -0.22881 -0.383001 -0.746062 0.106836 -0.65725
-0.130758 -0.328134 -0.379672 0.047427 -0.976012 -0.212486
-0.0625285 0.176693 0.203154 -0.991652 -0.0715414 0.107274
0.158167 -0.0608907 0.409156 -0.42808 -0.696469 -0.575916
0.372926 -0.177586 -0.177156 0.664185 0.189699 -0.723099
0.121983 0.235188 -0.0194888 -0.0951421 0.207345 -0.97363
-0.295803 -0.434839 0.0736173 0.047427 -0.976012 -0.212486
0.190339 0.0758728 -0.120252 -0.047427 0.976012 0.212486
-0.160234 -0.303593 0.246286 -0.664185 -0.189699 0.723099
-0.160412 -0.211696 0.0209438 -0.734695 0.34437 -0.584494
0.375971 -0.046184 0.0498568 0.566071 0.504162 0.652214
-0.338845 -0.00987744 0.15551 -0.047427 0.976012 0.212486
0.0167728 -0.336093 -0.310185 0.0474278 -0.976012 -0.212487
-0.276393 -0.293169 0.0984282 -0.623347 0.674483 -0.395615
0.0988941 -0.478984 0.237293 -0.122724 -0.974917 0.185675
-0.00521493 -0.238713 -0.39065 -0.066011 0.978372 0.196036
0.341452 0.0600699 -0.143718 0.664185 0.189698 -0.723099
0.476906 -0.157328 -0.0763333 0.664185 0.189699 -0.723099
-0.0897346 0.0379473 -0.00856142 -0.047427 0.976012 0.212486
-0.284815 -0.345617 -0.333753 0.047427 -0.976012 -0.212486
0.137768 -0.230312 0.446806 0.746062 -0.106836 0.65725
-0.365284 -0.263126 -0.154082 0.486975 0.6241 0.611027
0.307575 0.115262 0.0232162 0.751799 0.174943 -0.635762
-0.116585 -0.270685 -0.268583 -0.066011 0.978372 0.196036
-0.158088 -0.455943 0.208289 -0.664185 -0.189699 0.723099
-0.232139 0.0529559 -0.109285 -0.047427 0.976012 0.212486
-0.386291 -0.356835 -0.260143 -0.746062 0.106836 -0.65725
