ply
format ascii 1.0
comment Created by Open3D
element vertex 829
property double x
property double y
property double z
property double nx
property double ny
property double nz
end_header
-0.14748 0.0706724 -0.171766 -0.047427 0.976012 0.212486
0.281438 0.0778508 -0.194178 0.664185 0.189699 -0.723099
0.100533 -0.0761871 0.470494 -0.42808 -0.696469 -0.575916
-0.247972 -0.0821996 -0.330677 0.747077 -0.203487 0.632826
0.229772 -0.149661 -0.301321 0.664187 0.189696 -0.723099
0.260367 0.0248929 -0.227426 0.664185 0.189699 -0.723099
-0.237163 -0.232885 -0.409274 -0.746062 0.106836 -0.65725
-0.185593 -0.305441 -0.479606 -0.746062 0.106836 -0.65725
0.0469857 -0.321672 -0.369681 0.0474264 -0.976013 -0.212486
-0.0621383 0.261557 0.250533 -0.974786 -0.0916596 0.203447
0.0973442 0.0712229 -0.365012 0.664185 0.189699 -0.723099
0.141932 -0.171734 0.451601 0.746062 -0.106836 0.65725
-0.00154627 0.0538038 -0.0617111 -0.0474272 0.976012 0.212486
0.0617168 0.264101 0.00295438 -0.383999 0.178563 -0.905903
-0.395407 -0.0400483 0.0946197 -0.00846004 -0.965299 -0.26101
0.0622312 -0.353129 -0.221789 0.0474275 -0.976012 -0.212487
-0.213688 0.0217615 -0.163662 0.212252 -0.975315 -0.0609078
0.460241 -0.0479946 -0.00887323 0.19265 0.891165 0.410744
0.274 -0.263345 -0.29052 0.664185 0.189699 -0.723099
0.120836 -0.490471 0.191192 -0.103158 -0.975666 0.193481
0.122235 -0.479527 0.245396 -0.0629885 -0.976482 0.206194
0.0897859 -0.057838 0.392934 0.444613 -0.877839 0.178094
-0.157418 0.0471681 -0.0660221 -0.047427 0.976012 0.212486
-0.485667 -0.210635 -0.0753665 0.711289 0.137306 0.689358
0.333581 -0.0953724 0.18618 -0.350081 0.933579 -0.0766409
-0.174058 0.000135921 0.146296 -0.0474271 0.976012 0.212487
-0.443848 -0.396113 -0.0384929 -0.664185 -0.189699 0.723099
0.102083 0.0515361 -0.336036 -0.364934 -0.761912 -0.535083
0.144933 0.0971362 -0.228055 -0.047427 0.976012 0.212486
-0.304675 -0.321663 0.0811179 -0.502241 0.829689 -0.243659
0.311274 0.285997 0.332107 0.808486 -0.0874172 0.581987
-0.179477 -0.152283 -0.398862 0.651601 0.32722 0.684356
0.0665119 -0.327404 -0.338995 0.0474264 -0.976013 -0.212486
-0.246348 0.0590104 -0.140267 -0.047427 0.976012 0.212486
-0.19464 -0.141152 0.0683726 -0.698937 -0.185597 -0.690682
-0.119672 -0.406562 -0.0169569 0.0474271 -0.976012 -0.212487
0.204728 0.37342 0.428105 0.337559 -0.18455 0.923036
-0.0704255 0.331541 0.231296 -0.996396 -0.0612027 0.0587262
0.196562 -0.362137 -0.150428 0.0474253 -0.976013 -0.212485
-0.218536 0.0282487 0.00723884 -0.047427 0.976012 0.212486
0.305284 0.160962 0.0330832 0.751799 0.174943 -0.635762
-0.333711 -0.348468 -0.318467 -0.746062 0.106836 -0.65725
0.153868 -0.51755 0.0685897 -0.196389 -0.969703 0.145284
0.0683529 0.0805696 -0.0360347 -0.383999 0.178563 -0.905903
0.24305 0.366265 0.408724 0.517144 -0.158004 0.841188
-0.303723 -0.101795 0.167428 -0.664185 -0.189701 0.723099
-0.335071 -0.0556655 -0.198484 0.677892 -0.560602 0.475592
-0.444573 -0.294272 -0.183815 -0.746062 0.106836 -0.65725
-0.267813 -0.108757 -0.354305 -0.746062 0.106836 -0.65725
-0.293962 -0.0196688 -0.202845 0.579161 -0.742174 0.337271
-0.102508 -0.00595453 0.190242 -0.047427 0.976012 0.212486
0.278555 -0.192991 -0.267879 0.664185 0.189699 -0.723099
-0.262839 -0.343276 -0.3396 0.047427 -0.976012 -0.212486
0.315993 -0.355294 -0.155202 0.047427 -0.976012 -0.212486
-0.114267 -0.229409 -0.54821 -0.746062 0.106836 -0.65725
0.19326 -0.132106 0.357831 -0.502247 0.829683 -0.243666
-0.31209 0.0443123 -0.0874273 -0.047427 0.976012 0.212486
0.336516 0.308195 0.127847 0.931401 0.120068 -0.343621
0.179666 -0.513409 0.098483 0.0411425 -0.974528 0.220461
0.553907 -0.359176 -0.058559 0.664185 0.189699 -0.723099
0.133269 -0.110854 -0.291103 -0.747077 0.203488 -0.632826
-0.257337 0.00465212 -0.0798106 0.103049 -0.981267 -0.162774
0.142486 0.0560309 0.16332 0.827743 0.157471 -0.538558
-0.492819 -0.292957 -0.128836 -0.746062 0.106836 -0.65725
-0.325475 0.0367444 -0.0556532 -0.047427 0.976012 0.212486
-0.381024 -0.376908 -0.211501 0.047427 -0.976012 -0.212486
-0.187503 -0.0898642 -0.442395 -0.746062 0.106836 -0.65725
-0.0228635 0.431992 0.363722 -0.0474273 0.976012 0.212486
-0.50796 -0.153854 -0.0466104 0.744798 -0.251113 0.618239
0.126088 -0.464603 0.304498 0.0474278 -0.976012 -0.212486
0.276332 0.333596 0.0504262 0.645379 0.192304 -0.73926
-0.0201716 -0.0378016 0.354902 -0.047427 0.976012 0.212486
0.0901283 0.166621 -0.0269888 -0.290278 0.190078 -0.937875
-0.129152 -0.325768 -0.390181 0.047427 -0.976012 -0.212486
0.167162 0.395318 0.0158408 0.15316 0.217316 -0.96401
0.00692671 0.0533351 0.311276 -0.682577 -0.186977 0.70649
-0.295797 -0.0842064 -0.318548 -0.746062 0.106836 -0.65725
0.122953 0.0245992 -0.320677 -0.514642 -0.585543 -0.626325
-0.215656 -0.382271 -0.149954 0.047427 -0.976012 -0.212486
0.460484 -0.116576 -0.0807261 0.664185 0.189699 -0.723099
-0.359036 0.0391056 -0.0739897 -0.047427 0.976012 0.212486
-0.0231111 -0.471541 0.328177 -0.664185 -0.189699 0.723099
0.276655 -0.0397154 0.292398 -0.566074 -0.504159 -0.652215
-0.000430268 -0.256057 -0.54068 0.664185 0.189699 -0.723099
0.0879131 0.476889 0.182221 -0.0474275 0.976012 0.212487
0.0149901 0.385429 0.0530173 -0.599664 0.142306 -0.787497
-0.0393951 -0.168098 0.392825 -0.664186 -0.189697 0.723099
0.0522367 -0.0504479 -0.207099 -0.669057 -0.280667 -0.688177
0.428163 0.0283844 0.0964835 -0.228418 -0.869513 -0.437918
-0.352189 -0.00113044 0.112354 -0.047427 0.976012 0.212486
-0.0890243 -0.395348 -0.061627 0.0474269 -0.976013 -0.212485
-0.0706628 0.384099 0.194096 -0.990574 -0.0185894 -0.13571
-0.38083 -0.128942 -0.229297 -0.746062 0.106836 -0.65725
0.27921 -0.352508 -0.176211 0.047427 -0.976012 -0.212486
-0.217095 -7.0764e-05 0.13764 -0.0474271 0.976012 0.212486
-0.231576 -0.0446134 -0.385011 -0.746062 0.106836 -0.65725
-0.411837 -0.0344545 0.046016 0.212252 -0.975315 -0.0609077
0.207133 -0.0984987 -0.308693 0.664187 0.189695 -0.723099
0.152663 -0.129526 0.446282 0.746062 -0.106836 0.65725
-0.257824 0.0904467 -0.287224 -0.047427 0.976012 0.212486
0.438633 -0.378464 -0.0214031 0.0474272 -0.976013 -0.212486
0.231486 -0.193128 0.346469 0.746062 -0.106836 0.65725
0.170368 0.387229 0.439964 0.144585 -0.203778 0.968282
-0.218553 0.00854895 -0.0908414 -0.00845972 -0.965299 -0.261009
-0.479284 -0.355984 -0.154444 -0.746062 0.106836 -0.65725
0.409099 -0.0681648 0.0606669 0.0828317 0.942638 0.323377
-0.219015 -0.156475 0.230889 -0.664185 -0.189701 0.723099
0.33969 0.380059 0.163029 0.948232 0.110867 -0.297599
0.0425956 -0.480813 0.104993 -0.333607 -0.942664 -0.00954353
0.092336 0.152718 0.384683 -0.250677 -0.217548 0.94331
-0.213519 -0.248267 0.211856 -0.664185 -0.1897 0.723099
-0.219786 -0.330354 -0.389348 0.047427 -0.976012 -0.212486
0.0920751 -0.216157 -0.390006 -0.382566 0.917265 -0.11076
-0.193622 -0.161077 0.253006 -0.664185 -0.189699 0.723099
0.552206 -0.277124 -0.0385959 0.664188 0.189699 -0.723096
0.421456 0.0386396 0.0596805 0.212259 -0.975314 -0.060901
-0.0982603 -0.146838 -0.552958 -0.746062 0.106836 -0.65725
-0.0608711 -0.24296 -0.37232 0.082846 0.942633 0.323389
-0.125141 0.0209038 0.061822 -0.047427 0.976012 0.212486
0.277105 0.0685516 0.330665 0.599665 -0.142306 0.787497
0.130576 0.260219 -0.0149979 -0.0951421 0.207345 -0.97363
-0.064632 -0.163609 0.370822 -0.664185 -0.1897 0.723099
0.0124794 -0.459169 0.254178 0.047427 -0.976012 -0.212486
0.214178 0.222 0.394375 0.337559 -0.18455 0.923036
0.164086 -0.0479537 0.28599 0.661335 -0.600096 0.450023
-0.272622 -0.32221 -0.0160037 -0.316716 0.947576 -0.0423229
0.122866 0.402202 0.445904 -0.0541187 -0.214924 0.97513
-0.0324306 0.0589317 -0.477893 0.554879 -0.773292 0.306803
0.0628467 0.0700061 -0.121761 -0.0474271 0.976012 0.212486
0.307348 0.157395 0.317247 0.754285 -0.104462 0.648183
0.212086 -0.129386 0.325085 -0.414102 0.898671 -0.144604
0.354095 0.11745 0.221403 0.972857 -0.00310159 0.231388
-0.371294 0.0536593 -0.143575 -0.047427 0.976012 0.212486
-0.131187 -0.316368 -0.433812 0.047427 -0.976012 -0.212486
0.0394118 -0.032883 0.345608 -0.0474269 0.976012 0.212486
-0.0199671 -0.22 0.397054 -0.664185 -0.189699 0.723099
0.0727973 0.122568 0.371174 -0.345705 -0.215618 0.913234
0.0283687 -0.473843 0.374858 -0.664185 -0.189699 0.723099
0.433071 -0.354952 -0.130643 0.047427 -0.976012 -0.212486
0.0805835 0.112867 -0.314674 -0.047427 0.976012 0.212486
-0.056411 0.224632 0.131185 -0.960358 0.0139483 -0.278421
0.504497 -0.153336 0.0430348 0.746062 -0.106836 0.65725
0.0997669 -0.498166 0.120827 -0.245562 -0.963559 0.106085
-0.163432 -0.157475 0.0378543 -0.730661 -0.0398202 -0.681578
0.234231 0.0194186 -0.252869 0.664185 0.189699 -0.723099
0.246686 0.317024 0.39724 0.517144 -0.158004 0.841188
0.00474962 0.471669 0.187637 -0.0474269 0.976012 0.212486
-0.133363 -0.281363 -0.210867 -0.176258 0.979736 0.0951284
0.0501241 -0.213576 -0.285082 -0.554879 0.773292 -0.306803
-0.0606663 -0.17316 -0.488746 0.486975 0.624101 0.611027
-0.221543 -0.104553 0.242188 -0.664185 -0.189699 0.723099
-0.148648 0.0797784 -0.458926 -0.746062 0.106836 -0.65725
-0.130564 -0.0842588 -0.506118 -0.746062 0.106836 -0.65725
0.373535 -0.0836756 0.146003 -0.382562 0.917267 -0.110755
-0.239469 -0.377998 -0.174898 0.047427 -0.976012 -0.212486
0.373212 0.0148559 -0.126407 0.664185 0.189701 -0.723099
-0.0656082 0.438354 0.307747 -0.948232 -0.110867 0.297597
-0.359238 -0.409574 -0.0565922 0.0474267 -0.976013 -0.212485
-0.482948 0.0285004 -0.0529341 -0.047427 0.976012 0.212486
0.223797 0.293583 0.404706 0.384 -0.178563 0.905903
0.3526 0.288753 0.197783 0.998663 0.0507123 -0.0100343
0.268566 -0.385146 -0.134397 0.437297 0.211545 -0.874082
0.435228 -0.0214255 0.143107 0.746062 -0.106836 0.65725
0.373378 -0.231103 -0.19078 0.664185 0.189699 -0.723099
0.103173 -0.168133 -0.291926 -0.67789 0.560606 -0.475589
-0.0771833 0.0906671 -0.247917 -0.047427 0.976012 0.212486
-0.00665778 -0.214832 -0.193021 -0.623347 0.674483 -0.395615
-0.152287 -0.251121 -0.315619 0.228418 0.869513 0.437918
0.318198 0.0886811 0.0288616 0.783647 0.168266 -0.597984
-0.466316 -0.29329 -0.158975 -0.746062 0.106836 -0.65725
-0.285204 0.0520007 -0.116741 -0.047427 0.976012 0.212486
-0.19723 -0.0329122 -0.011654 -0.364934 -0.761912 -0.535083
0.152399 0.0899523 -0.193392 -0.047427 0.976012 0.212486
0.0768616 0.105209 -0.280328 -0.047427 0.976012 0.212486
-0.0407112 0.225703 0.0926158 -0.886884 0.0567225 -0.458496
-0.00259175 0.205563 0.342368 -0.682577 -0.186977 0.70649
-0.137605 -0.269571 -0.274108 0.0457081 0.955154 0.292561
0.330366 -0.343792 0.209738 0.746062 -0.106836 0.65725
-0.0547597 0.0389082 0.183031 -0.984443 -0.0817018 0.155553
-0.0281206 0.0916361 -0.241418 -0.047427 0.976012 0.212486
-0.145659 -0.439693 0.129425 0.047427 -0.976012 -0.212486
0.188936 0.07815 -0.131025 -0.0474266 0.976012 0.212486
-0.117529 -0.361222 0.270392 -0.664185 -0.189699 0.723099
0.176982 -0.248858 -0.375833 0.664185 0.189699 -0.723099
-0.230547 -0.309268 -0.047767 -0.350076 0.933581 -0.0766357
0.244338 0.27576 0.0136212 0.481517 0.208717 -0.851222
0.0208686 0.0488912 -0.280894 -0.263616 -0.8457 -0.464001
0.324504 0.079173 -0.154274 0.664185 0.189699 -0.723099
-0.0754553 -0.25687 -0.170733 -0.502241 0.829689 -0.243659
-0.333924 0.0750181 -0.249387 -0.746062 0.106836 -0.65725
-0.244492 0.0493942 -0.0956821 -0.047427 0.976012 0.212486
-0.283233 -0.0895536 0.1198 -0.514642 -0.585543 -0.626325
-0.395795 -0.295927 -0.0917063 0.364935 0.761911 0.535083
-0.058214 -0.0208651 -0.129597 -0.486976 -0.624099 -0.611028
-0.208023 -0.286183 0.206957 -0.664185 -0.189699 0.723099
-0.163116 -0.411422 -0.00433105 0.0474268 -0.976013 -0.212486
-0.0654541 0.345123 0.169308 -0.972857 0.00310112 -0.231386
-0.284794 -0.412183 -0.0279928 0.0474277 -0.976012 -0.212488
0.208896 -0.212258 0.369002 0.746062 -0.106836 0.65725
0.0722428 0.0570505 -0.325239 -0.298157 -0.819787 -0.48893
-0.0722884 -0.210766 -0.433282 0.331954 0.791837 0.512641
-0.275417 -0.278429 0.147089 -0.664185 -0.1897 0.723099
-0.046166 -0.334051 -0.333616 0.047427 -0.976012 -0.212486
-0.0797001 0.0584473 -0.372768 0.382566 -0.917265 0.110759
0.153227 -0.460913 -0.0613459 -0.0594357 -0.802031 -0.594318
0.528114 -0.168152 0.0138184 0.746062 -0.106836 0.65725
0.425054 -0.1818 0.128586 0.746062 -0.106836 0.65725
-0.00195187 -0.188113 -0.167319 -0.705901 0.477562 -0.523104
0.306779 0.307215 0.0753901 0.783647 0.168266 -0.597984
0.0923433 0.199012 0.395361 -0.250678 -0.217548 0.94331
-0.362336 -0.420016 -0.00932257 0.047427 -0.976012 -0.212486
0.0649482 0.283742 0.406257 -0.345705 -0.215618 0.913234
-0.031168 0.182226 0.0699047 -0.862875 0.0671294 -0.500939
-0.513094 -0.189883 -0.0481232 0.737633 -0.00912598 0.675141
0.143707 0.0706078 -0.322588 0.664185 0.189697 -0.723099
0.327304 -0.457997 0.192225 0.343973 -0.933622 0.100161
0.353156 0.224207 0.155947 0.984443 0.0817018 -0.155552
-0.0470533 -0.155006 -0.556994 0.664186 0.189699 -0.723098
-0.0662009 -0.328044 -0.365678 0.047427 -0.976012 -0.212486
-0.261004 -0.316944 -0.0806279 -0.139827 0.981722 0.129113
-0.186018 -0.42793 0.066384 0.0474258 -0.976013 -0.212484
0.200044 -0.308546 0.363399 0.746062 -0.106836 0.65725
0.338408 -0.0876782 0.135656 0.0828356 0.942637 0.32338
-0.0947827 -0.271394 -0.209108 -0.316716 0.947576 -0.0423226
-0.38233 -0.0475706 -0.1125 0.579161 -0.742174 0.33727
0.297233 -0.430728 -0.0547228 0.360787 -0.810566 -0.46132
-0.41891 -0.379868 -0.0113255 -0.664185 -0.189699 0.723099
0.222976 -0.508565 0.0351371 0.46391 -0.8721 -0.155657
0.305294 -0.348229 0.237476 0.746062 -0.106836 0.65725
-0.240525 -0.169563 -0.395163 -0.746062 0.106836 -0.65725
-0.0552874 0.328944 0.136026 -0.928234 0.0355117 -0.370298
-0.12769 0.135593 -0.465547 -0.047427 0.976012 0.212486
0.390638 -0.299604 0.148503 0.746062 -0.106836 0.65725
-0.274001 0.0453587 -0.0837323 -0.047427 0.976012 0.212486
0.0959985 -0.27303 -0.45656 0.664185 0.189699 -0.723099
-0.273185 -0.227828 -0.367562 -0.746062 0.106836 -0.65725
0.0993024 0.0773386 -0.147304 -0.047427 0.976012 0.212486
-0.253054 -0.105047 0.213115 -0.664185 -0.189699 0.723099
0.226259 -0.347948 0.327237 0.746062 -0.106836 0.65725
0.340916 -0.18482 0.223603 0.746062 -0.106836 0.65725
0.416391 0.0233006 0.171683 -0.047428 0.976013 0.212486
0.405983 -0.386915 0.0101271 0.0474262 -0.976012 -0.212488
-0.0444129 -0.209554 -0.452765 0.298161 0.819784 0.488932
-0.0634051 0.10397 -0.305947 -0.047427 0.976012 0.212486
-0.401681 -0.14024 -0.167307 0.747499 -0.155357 0.64584
0.1579 0.11575 -0.0469042 0.00433516 0.212925 -0.977059
0.431131 0.0190922 -0.072096 0.664182 0.189706 -0.7231
-0.178029 -0.391236 -0.100377 0.047427 -0.976012 -0.212486
0.248867 0.448542 0.348353 -0.047427 0.976012 0.212486
-0.179363 -0.303274 0.228799 -0.664185 -0.189699 0.723099
0.115525 -0.177573 -0.322434 -0.643141 0.638081 -0.423346
0.0987272 -0.0592427 -0.250557 -0.711289 -0.137307 -0.689359
0.0576491 0.453371 0.283494 -0.047431 0.976014 0.212479
-0.101944 -0.0211005 -0.480366 0.734695 -0.344371 0.584493
-0.224285 0.0675547 -0.174588 -0.047427 0.976012 0.212486
0.365139 -0.179869 -0.184908 0.664185 0.189699 -0.723099
-0.267353 -0.370894 -0.213752 0.047427 -0.976012 -0.212486
-0.43919 -0.132182 -0.163578 -0.746062 0.106836 -0.65725
-0.250602 -0.296771 0.16507 -0.664187 -0.189695 0.723099
0.2413 0.0818996 -0.13656 -0.047427 0.976012 0.212486
0.238595 -0.206677 -0.308174 0.664185 0.189699 -0.723099
0.0277063 -0.186003 -0.205812 -0.692756 0.519733 -0.499966
-0.0243243 0.282515 0.338436 -0.783647 -0.168266 0.597984
-0.136853 -0.0629276 -0.455222 0.747499 -0.15535 0.645842
-0.116425 -0.292053 0.289552 -0.664185 -0.189699 0.723099
0.192761 0.434847 0.398736 -0.0474262 0.976012 0.212486
-0.42055 -0.0456527 -0.035815 0.502242 -0.829689 0.24366
-0.0652851 0.275588 0.169846 -0.982938 -0.00775395 -0.183776
-0.345093 -0.0653547 0.138987 -0.664185 -0.189702 0.723099
-0.209633 -0.194861 0.229436 -0.664185 -0.1897 0.723099
0.046775 -0.451974 0.397502 -0.664185 -0.189699 0.723099
-0.190804 -0.429244 0.185243 -0.664185 -0.189699 0.723099
0.169162 0.0819008 0.375579 0.0951397 -0.207345 0.973631
-0.198683 -0.410295 -0.0174457 0.0474268 -0.976013 -0.212486
-0.0227153 -0.310804 -0.435161 0.0474261 -0.976012 -0.212486
-0.212411 -0.288044 -0.202083 0.0828451 0.942633 0.323388
-0.195232 -0.182394 -0.448663 -0.746062 0.106836 -0.65725
0.510957 -0.211224 -0.0591956 0.664185 0.189699 -0.723099
-0.481193 -0.106003 -0.111643 -0.746062 0.106836 -0.65725
0.241465 0.311518 0.0207633 0.481517 0.208717 -0.851222
-0.0429734 0.108942 -0.484002 0.664184 0.189698 -0.7231
0.165756 -0.270169 0.408558 0.746062 -0.106836 0.65725
-0.151866 -0.0875811 -0.441404 0.737633 -0.009126 0.675141
-0.530456 -0.168896 -0.0659472 -0.746062 0.106836 -0.65725
-0.214189 -0.030811 -0.340738 0.692757 -0.519731 0.499968
0.521202 -0.27573 -0.0667081 0.664185 0.189699 -0.723099
0.238407 -0.117312 0.247738 0.0457207 0.95515 0.292572
0.333522 -0.272396 -0.238222 0.664185 0.189699 -0.723099
-0.450856 -0.047188 0.0343868 0.382565 -0.917266 0.110758
0.220309 -0.35532 -0.176444 0.0474273 -0.976012 -0.212487
-0.190403 0.0913178 -0.276177 -0.047427 0.976012 0.212486
0.241018 -0.117476 0.347946 0.746062 -0.106836 0.65725
-0.263339 -0.296754 0.070802 -0.602003 0.709209 -0.3669
-0.0514976 -0.396057 -0.0499909 0.0474273 -0.976012 -0.212488
-0.0532561 0.0648266 -0.313387 0.139825 -0.981722 -0.129114
0.229457 -0.2769 0.335155 0.746062 -0.106836 0.65725
0.537489 -0.153237 -0.0196127 0.664183 0.1897 -0.723101
-0.15324 -0.0269048 0.275149 -0.047427 0.976012 0.212486
0.410297 -0.276918 0.129876 0.746062 -0.106836 0.65725
-0.0349298 0.447317 0.290637 -0.0474269 0.976012 0.212487
-0.0862468 -0.239722 -0.110052 -0.623347 0.674483 -0.395615
0.382582 -0.0269566 0.201967 0.746062 -0.106836 0.65725
-0.0397081 0.366299 0.340347 -0.841425 -0.153674 0.518063
-0.0473382 0.0446485 0.21929 -0.948232 -0.110867 0.297597
0.510029 -0.308682 0.0115044 0.746062 -0.106836 0.65725
0.353382 -0.355833 0.181654 0.746062 -0.106836 0.65725
0.0147887 -0.315996 -0.402941 0.0474283 -0.976012 -0.212487
0.0477695 -0.00951624 -0.227731 -0.566073 -0.50416 -0.652215
0.261886 0.486545 0.176702 -0.0474273 0.976012 0.212486
-0.355491 -0.0328349 -0.1248 0.529219 -0.802487 0.275575
-0.253804 0.0248199 -0.348493 -0.746062 0.106836 -0.65725
-0.272691 0.0770786 -0.31856 -0.746062 0.106836 -0.65725
-0.153824 0.123303 -0.445975 -0.746062 0.106836 -0.65725
-0.260974 -0.398188 -0.0869598 0.047427 -0.976013 -0.212486
0.322582 0.316417 0.318814 0.862875 -0.0671295 0.500939
0.212997 -0.450776 0.260383 0.0474283 -0.976013 -0.212486
0.1621 -0.380944 -0.154606 -0.0454598 0.210396 -0.976559
-0.370987 -0.327096 -0.27268 -0.746062 0.106836 -0.65725
0.127889 0.390711 0.218707 0.694336 -0.120715 0.709455
-0.106032 0.13823 -0.497799 -0.746062 0.106836 -0.65725
-0.0628001 -0.205832 -0.101384 -0.705901 0.477562 -0.523104
-0.116377 0.04739 -0.337093 0.414105 -0.898669 0.144608
-0.0906725 -0.116964 -0.499767 0.669055 0.280674 0.688177
0.192211 0.458211 0.291294 -0.0474262 0.976013 0.212485
0.0199461 0.176123 0.0114205 -0.599664 0.142306 -0.787497
0.339759 0.0470666 0.252609 0.886885 -0.0567224 0.458496
-0.059496 -0.185945 -0.57654 0.664187 0.189699 -0.723098
0.106509 0.462647 0.0306614 -0.144586 0.203777 -0.968282
-0.0601225 0.119298 -0.375619 -0.0474272 0.976012 0.212486
0.0982745 -0.0945498 0.34171 0.74277 -0.0580494 0.667025
0.203525 -0.217037 -0.343105 0.664185 0.189699 -0.723099
-0.431931 -0.215078 -0.127976 0.669055 0.280674 0.688177
-0.245502 -0.000767811 -0.242643 0.529219 -0.802487 0.275575
0.353201 -0.152257 0.214951 0.746062 -0.106836 0.65725
0.321025 0.00635389 0.190472 -0.00845974 -0.965299 -0.261009
0.248621 -0.161709 0.332126 0.746062 -0.106836 0.65725
-0.224204 -0.257098 0.0693313 -0.692756 0.519734 -0.499966
0.178212 -0.453308 0.264251 0.047426 -0.976012 -0.212487
0.267245 -0.481867 0.166328 0.279329 -0.948072 0.152104
-0.12157 0.119696 -0.391164 -0.047427 0.976012 0.212486
0.0238869 0.0868795 -0.397525 0.139825 -0.981722 -0.129114
0.37049 -0.433093 0.132351 0.928234 -0.0355109 0.370297
-0.245787 -0.413058 -0.0152692 0.0474267 -0.976013 -0.212485
-0.00636555 -0.363227 -0.190717 0.047427 -0.976012 -0.212486
0.346488 0.354632 0.254525 0.982937 0.00775357 0.183777
0.0324694 0.0715217 0.337129 -0.566263 -0.201512 0.799212
0.113424 -0.161722 0.485589 0.746062 -0.106836 0.65725
-0.019671 0.215441 0.0581305 -0.778242 0.097247 -0.620388
0.0661796 -0.0072079 0.337377 -0.437297 -0.211545 0.874083
0.238157 0.0869701 -0.0351574 0.391988 0.213847 -0.894771
0.153635 -0.438067 -0.0920248 -0.0388886 -0.800098 -0.598607
-0.148572 0.113173 -0.367226 -0.047427 0.976012 0.212486
0.290278 -0.470197 0.196227 0.296473 -0.944675 0.14033
-0.152706 -0.403937 -0.0363888 0.0474269 -0.976012 -0.212486
-0.466366 -0.0357107 -0.117048 -0.746062 0.106836 -0.65725
0.492629 0.0546716 0.044603 -0.047427 0.976012 0.212486
-0.0342741 0.43629 0.111461 -0.808486 0.0874172 -0.581987
-0.356893 -0.301149 -0.108633 0.298158 0.819786 0.488931
0.0733872 -0.447554 0.423106 -0.664185 -0.189699 0.723099
-0.247382 -0.0630388 0.0634366 -0.42808 -0.696469 -0.575916
-0.215665 -0.133007 -0.36942 0.711289 0.137306 0.689358
0.163688 -0.492286 0.193645 -0.000885916 -0.975992 0.217805
0.380828 -0.42861 0.0580509 0.465051 -0.867569 -0.176214
-0.127057 -0.417168 0.0301135 0.0474277 -0.976012 -0.212488
-0.348739 -0.359569 -0.283937 0.047427 -0.976012 -0.212486
-0.353628 -0.107469 -0.256685 -0.746062 0.106836 -0.65725
0.279864 -0.023123 -0.222114 0.664186 0.189698 -0.723099
0.288145 -0.000418479 0.213684 0.10305 -0.981267 -0.162774
-0.383418 -0.365581 -0.264064 0.047427 -0.976012 -0.212486
-0.0377563 -0.413353 0.032519 0.0474268 -0.976013 -0.212486
0.150003 0.0686508 -0.0960822 -0.047427 0.976012 0.212486
0.0484016 0.428038 0.397792 -0.0474285 0.976013 0.212486
0.270953 -0.144707 0.30954 0.746062 -0.106836 0.65725
0.131831 0.499056 0.090205 -0.0474234 0.976013 0.212486
-0.388798 -0.388208 -0.161331 0.047427 -0.976012 -0.212486
0.259873 -0.266248 0.30236 0.746062 -0.106836 0.65725
0.525059 -0.261039 0.00218789 0.746062 -0.106836 0.65725
-0.177911 -0.010605 0.194773 -0.047427 0.976012 0.212486
0.29555 0.407813 0.0894979 0.751799 0.174943 -0.635762
-0.136966 -0.323776 0.262363 -0.664185 -0.189699 0.723099
-0.214355 -0.0149821 -0.399743 -0.746062 0.106836 -0.65725
0.051414 0.482565 0.148005 -0.0474268 0.976013 0.212486
0.316021 -0.183746 0.252036 0.746062 -0.106836 0.65725
0.185663 -0.484453 0.224953 0.0621986 -0.973459 0.22025
0.0499795 0.0763396 -0.355407 -0.119776 -0.927769 -0.35341
-0.127324 0.0541381 -0.487298 -0.746062 0.106836 -0.65725
0.410116 -0.232123 -0.157303 0.664185 0.189699 -0.723099
0.137393 0.256447 0.211066 0.459542 0.210196 -0.862924
-0.00240931 0.284761 0.363504 -0.682579 -0.186977 0.706488
-0.415972 -0.0217512 -0.171982 -0.746062 0.106836 -0.65725
0.00563651 -0.0490109 0.41215 -0.047427 0.976012 0.212486
-0.106263 0.00371662 -0.126959 -0.298157 -0.819787 -0.48893
0.534914 -0.289809 -0.0136763 0.746062 -0.106836 0.65725
-0.123696 0.101821 -0.483666 -0.746062 0.106836 -0.65725
0.120166 -0.293282 -0.439675 0.664185 0.189699 -0.723099
0.358963 0.0664881 0.199955 0.982938 0.00775424 0.183775
-0.340322 -0.162924 -0.280802 -0.746062 0.106836 -0.65725
0.108303 -0.120951 -0.265033 -0.744798 0.251107 -0.61824
-0.175487 0.099851 -0.312043 -0.047427 0.976012 0.212486
0.139713 0.301001 0.424191 -0.00433409 -0.212925 0.977059
0.355285 0.171697 0.141842 0.984443 0.0817018 -0.155552
0.35423 0.249695 0.207885 0.998447 0.0400958 0.0386818
0.0697202 -0.344428 -0.260084 0.0474283 -0.976012 -0.212487
-0.345517 -0.0266797 0.0435611 -0.00846004 -0.965299 -0.26101
-0.180737 -0.0255368 -0.439619 -0.746062 0.106836 -0.65725
0.207101 0.188026 -0.0228824 0.298563 0.216852 -0.929427
0.139373 -0.252476 0.441382 0.746062 -0.106836 0.65725
0.0580593 -0.4838 0.153489 -0.260572 -0.96111 0.0914863
0.27432 -0.0754957 0.160739 0.566071 0.504162 0.652214
0.412446 -0.406122 0.0997905 0.0474298 -0.976013 -0.212484
-0.429875 -0.325719 -0.20561 -0.746062 0.106836 -0.65725
-0.321295 -0.245498 -0.315823 -0.746062 0.106836 -0.65725
-0.0698285 -0.101315 -0.0686353 -0.698937 -0.185597 -0.690682
0.435838 0.00100691 -0.0258551 0.737632 -0.00912139 0.675141
-0.487187 -0.120839 -0.0539803 0.717292 -0.434202 0.544942
-0.106214 -0.441463 0.146357 0.047427 -0.976012 -0.212486
0.335102 0.183669 0.278516 0.886884 -0.0567227 0.458497
0.121167 -0.0628165 0.492877 0.746062 -0.106836 0.65725
0.16286 -0.208709 -0.378272 0.664185 0.189699 -0.723099
0.491067 -0.237788 0.0445521 0.746062 -0.106836 0.65725
-0.0885456 0.0265543 0.0440353 -0.047427 0.976012 0.212486
-0.21054 -0.00743436 0.172926 -0.047427 0.976012 0.212486
0.256243 0.212591 0.371748 0.517144 -0.158004 0.841188
-0.38978 -0.0285928 -0.0205502 0.350077 -0.933581 0.0766373
-0.0744391 0.404964 0.230017 -0.998447 -0.0400955 -0.0386832
0.211771 0.467423 0.0442913 0.345706 0.215618 -0.913234
-0.188581 0.0298285 -0.215729 0.282564 -0.959216 0.0078996
-0.0359006 0.454654 0.25672 -0.0474272 0.976013 0.212485
-0.335247 -0.219495 -0.295759 -0.746062 0.106836 -0.65725
-0.422285 -0.253626 -0.202508 -0.746062 0.106836 -0.65725
0.46266 -0.372482 -0.0435214 0.047427 -0.976012 -0.212487
-0.426841 -0.184221 -0.141067 0.721872 0.0886748 0.686322
0.403581 -0.0545875 0.173639 0.746062 -0.106836 0.65725
-0.302813 0.0662646 -0.18619 -0.047427 0.976012 0.212486
-0.0939848 -0.0667115 0.369281 -0.664185 -0.189696 0.7231
-0.167554 -0.245922 0.00226452 -0.677891 0.560605 -0.47559
0.193679 -0.0943108 0.245573 0.61188 0.41776 0.671624
-0.0945652 -0.025911 0.28368 -0.047427 0.976012 0.212486
0.0204966 -0.236831 -0.313982 -0.382566 0.917265 -0.11076
-0.122028 -0.356738 -0.24634 0.047427 -0.976012 -0.212486
0.076474 0.0844587 -0.185104 -0.0474268 0.976012 0.212486
0.54241 -0.120552 -0.00651772 0.664169 0.189701 -0.723113
0.195485 0.442668 0.363419 -0.0474269 0.976012 0.212486
0.285403 -0.0776536 0.291433 -0.747077 0.203486 -0.632827
-0.101951 0.0685617 -0.513756 -0.746062 0.106836 -0.65725
0.175765 -0.0279672 0.353463 -0.0474275 0.976012 0.212486
-0.233037 -0.362507 0.163959 -0.664185 -0.189699 0.723099
-0.0956685 -0.0906671 -0.0468997 -0.669058 -0.280666 -0.688177
0.25986 0.138829 -0.0109948 0.524544 0.205369 -0.826243
-0.00653349 -0.055993 0.441505 -0.047427 0.976012 0.212486
0.213221 -0.254259 -0.343964 0.664185 0.1897 -0.723099
-0.235319 0.0146749 -0.130115 0.17626 -0.979736 -0.0951265
-0.280034 -0.0513704 0.0708484 -0.33196 -0.791832 -0.512645
-0.233598 -0.304986 -0.0105801 -0.444615 0.877838 -0.178097
-0.291726 -0.0755304 -0.273883 0.734695 -0.344371 0.584493
0.162649 0.210719 -0.0257492 0.0541187 0.214924 -0.97513
-0.00403088 -0.296749 0.391558 -0.664185 -0.189699 0.723099
-0.480163 -0.243124 -0.0691324 0.651602 0.327218 0.684356
0.36823 -0.385707 0.159943 0.746062 -0.106836 0.65725
0.124107 -0.347975 -0.231652 0.0474248 -0.976013 -0.212485
0.0191878 -0.0697421 0.472438 -0.664186 -0.189674 0.723105
0.116508 0.34039 0.0034501 -0.0951421 0.207345 -0.97363
0.00690653 0.107875 -0.308192 -0.0474272 0.976012 0.212486
-0.474433 -0.188698 -0.132759 -0.746062 0.106836 -0.65725
0.0440088 0.144329 0.362564 -0.481517 -0.208717 0.851222
0.463161 -0.358668 0.0565799 0.746062 -0.106836 0.65725
0.554249 -0.319182 -0.0403983 0.746062 -0.106836 0.65725
0.21769 0.0855234 0.365803 0.337559 -0.18455 0.923036
0.127084 -0.507423 0.0992386 -0.229838 -0.96581 0.119937
-0.186032 0.014503 -0.312075 0.554879 -0.773292 0.306803
0.01164 0.492955 0.0914045 -0.0474275 0.976012 0.212487
0.190492 0.283078 -0.00529847 0.20217 0.217702 -0.954847
-0.016437 0.13755 -0.452122 0.664185 0.189702 -0.723098
-0.200741 -0.105649 0.0599684 -0.632526 -0.372956 -0.678834
0.162725 0.0424374 0.142408 -0.626169 -0.194789 0.754964
-0.400954 0.0449952 -0.110399 -0.047427 0.976012 0.212486
0.158994 -0.0382757 0.316605 0.474019 -0.854824 0.211142
-0.0084907 -0.427628 -0.0345519 -0.341146 -0.864999 -0.367961
0.059364 0.443949 0.327153 -0.0474264 0.976012 0.212487
-0.0367238 -0.252566 -0.24665 -0.382565 0.917266 -0.110758
-0.222014 -0.0133131 -0.307778 0.643143 -0.638077 0.423349
-0.142275 -0.285129 -0.161211 -0.316716 0.947576 -0.0423226
-0.0514187 -0.317302 0.342639 -0.664185 -0.189699 0.723099
-0.257261 -0.270407 -0.392559 -0.746062 0.106836 -0.65725
0.00459174 -0.335396 -0.316109 0.0474261 -0.976012 -0.212486
0.102776 -0.392403 0.460179 0.746062 -0.106836 0.65725
0.514662 -5.36859e-05 0.0564129 0.746062 -0.106836 0.65725
0.0738974 -0.0359768 0.367516 -0.0474273 0.976012 0.212486
-0.121462 -0.1105 0.332555 -0.664185 -0.1897 0.723099
-0.00328491 0.0238369 0.292537 -0.751799 -0.174943 0.635762
0.0720744 -0.299036 -0.468057 0.047427 -0.976012 -0.212486
0.155048 -0.351701 -0.207632 0.0474266 -0.976012 -0.212486
0.263958 0.465423 0.274182 -0.047427 0.976012 0.212486
-0.411765 0.0184781 -0.170219 -0.746062 0.106836 -0.65725
0.195721 -0.326388 -0.314823 0.047427 -0.976012 -0.212486
0.107646 -0.467185 0.442495 0.746062 -0.106836 0.65725
-0.414408 -0.0537341 -0.178957 -0.746062 0.106836 -0.65725
0.00853801 -0.425845 0.369235 -0.664185 -0.189699 0.723099
0.360666 -0.42094 -0.00745426 0.443824 -0.837653 -0.318368
0.166876 -0.468159 0.329934 0.0474258 -0.976012 -0.212487
0.182609 0.142659 -0.0386616 0.153159 0.217316 -0.96401
-0.203981 -0.241115 -0.448277 -0.746062 0.106836 -0.65725
-0.0383422 0.0519208 -0.0612749 -0.047427 0.976012 0.212486
0.119975 0.473708 0.203988 -0.0474257 0.976013 0.212486
0.153191 0.284333 0.197725 -0.827743 -0.157471 0.538558
0.0406248 -0.213127 -0.485279 0.082846 0.942633 0.323389
0.282299 -0.406995 0.254026 0.746062 -0.106836 0.65725
0.222724 -0.0129374 -0.271927 0.664185 0.1897 -0.723099
0.346058 0.312331 0.257806 0.972857 -0.00310085 0.231385
0.134333 0.450034 0.315935 -0.0474287 0.976012 0.212486
0.276039 -0.105946 0.310067 0.746062 -0.106836 0.65725
0.342397 -0.26221 0.209342 0.746062 -0.106836 0.65725
0.0750572 0.467356 0.223143 -0.0474268 0.976012 0.212486
0.0262959 -0.122058 0.420259 0.721872 0.0886782 0.686322
0.329728 0.488616 0.172489 0.931401 0.120068 -0.343621
0.345372 -0.114481 0.229978 0.746062 -0.106836 0.65725
0.355699 0.202238 0.207897 0.995748 0.0293787 0.0873063
-0.451207 -0.358291 -0.18669 -0.746062 0.106836 -0.65725
-0.135154 -0.03531 -0.49295 -0.746062 0.106836 -0.65725
0.329697 0.0758582 0.274175 0.836722 -0.077369 0.542135
0.156845 0.162422 0.188567 -0.657688 0.129594 -0.742059
-0.1147 -0.261163 -0.305138 0.0457086 0.955154 0.292562
0.421851 -0.0631698 -0.102201 0.664185 0.189699 -0.723099
-0.338883 -0.135785 -0.237523 0.742771 -0.0580559 0.667024
-0.106468 -0.436083 0.260913 -0.664185 -0.189699 0.723099
0.275626 0.478575 0.216376 -0.0474267 0.976012 0.212488
0.190379 -0.0608505 0.24273 0.747077 -0.20348 0.632828
-0.106212 -0.369863 -0.182523 0.047427 -0.976012 -0.212486
-0.00201486 -0.0966637 0.4459 -0.664185 -0.189699 0.723099
-0.0157484 -0.436137 0.142086 0.0474269 -0.976012 -0.212486
0.266234 -0.191737 0.307251 0.746062 -0.106836 0.65725
0.346393 0.395033 0.249157 0.995748 0.0293787 0.0873062
0.269015 -0.0169559 0.323698 -0.0474282 0.976013 0.212485
-0.294431 -0.304787 -0.355955 -0.746062 0.106836 -0.65725
-0.321 -0.112065 -0.253911 0.747499 -0.15535 0.645842
-0.453092 -0.0903933 -0.141005 -0.746062 0.106836 -0.65725
-0.168439 0.0610062 -0.439512 -0.746062 0.106836 -0.65725
-0.321915 -0.00925724 -0.0441066 0.212252 -0.975315 -0.0609078
0.223119 0.431475 0.420999 -0.047426 0.976013 0.212486
-0.0885011 -0.186215 0.342967 -0.664186 -0.189697 0.723099
-0.162925 -0.0903958 0.299745 -0.664185 -0.189702 0.723098
0.296613 -0.00228304 -0.201262 0.664185 0.189699 -0.723099
-0.0975084 -0.26916 0.312934 -0.664185 -0.189699 0.723099
0.0384801 0.490049 0.0579536 -0.473904 0.165274 -0.864928
-0.367899 -0.232358 -0.260786 -0.746062 0.106836 -0.65725
-0.132575 -0.127424 -0.454695 0.684849 0.23342 0.690288
0.0591668 -0.485136 0.383873 0.047427 -0.976012 -0.212486
0.270467 0.0616481 -0.037029 -0.047427 0.976012 0.212486
-0.240183 -0.116355 -0.386903 -0.746062 0.106836 -0.65725
0.0735388 -0.13009 -0.226864 -0.744798 0.251107 -0.61824
-0.0937911 -0.0235133 -0.537985 -0.746062 0.106836 -0.65725
0.168074 -0.0782316 0.265644 0.730661 0.0398217 0.681578
0.279138 -0.0701501 -0.235118 0.664185 0.189701 -0.723099
0.285296 0.137998 0.336404 0.638739 -0.133916 0.75768
0.238952 0.509073 0.0681066 -0.0474285 0.976013 0.212486
-0.298873 0.0137839 0.0557486 -0.047427 0.976012 0.212486
0.177653 0.442332 0.0282928 0.20217 0.217702 -0.954847
0.221357 0.463881 0.271757 -0.0474269 0.976012 0.212486
0.489339 -0.366024 -0.0672296 0.0474273 -0.976012 -0.212488
0.33689 0.256826 0.28274 0.928233 -0.0355121 0.370299
0.37858 -0.0394368 0.0429923 0.632523 0.372961 0.678833
-0.420767 -0.339881 -0.00254108 -0.664185 -0.1897 0.723099
0.0210944 -0.0503299 -0.177285 -0.6516 -0.327222 -0.684356
0.222947 -0.0359792 0.329911 -0.331957 -0.791834 -0.512643
0.356525 -0.447236 0.100926 0.448949 -0.890415 -0.0748705
-0.121053 -0.0986634 -0.0189597 -0.669058 -0.280666 -0.688177
-0.00166436 0.110329 0.019935 -0.712027 0.116159 -0.692478
0.112405 0.00314768 -0.293619 -0.566074 -0.504158 -0.652216
0.0920277 -0.497263 0.0622783 -0.357866 -0.931382 -0.0667788
0.310196 -0.294918 -0.265556 0.664185 0.189699 -0.723099
-0.0531855 0.0667372 -0.132644 -0.047427 0.976012 0.212486
-0.259412 -0.130103 -0.32403 0.73066 0.0398291 0.681579
0.0736937 -0.48461 0.0313939 -0.377948 -0.896938 -0.229473
-0.268234 -0.123438 0.13263 -0.632526 -0.372956 -0.678834
0.313802 -0.206519 -0.239053 0.664185 0.189699 -0.723099
-0.316353 -0.0117981 -0.131447 0.444614 -0.877838 0.178095
-0.219099 -0.139337 0.0925086 -0.684848 -0.233424 -0.690287
-0.0112314 -0.159959 -0.136873 -0.744798 0.251107 -0.61824
0.168081 -0.470141 0.0332517 0.82286 -0.0824184 0.562235
0.133801 0.354958 0.208118 0.360887 -0.181614 0.914755
-0.450976 -0.259174 -0.170841 -0.746062 0.106836 -0.65725
0.00148088 0.0883651 -0.219786 -0.0474268 0.976012 0.212486
0.176947 0.155269 0.390165 0.144588 -0.203777 0.968281
-0.276847 0.0427745 -0.319418 -0.746062 0.106836 -0.65725
-0.127938 -0.0148529 -0.442402 0.717291 -0.434207 0.544939
-0.119564 0.060645 -0.119477 -0.047427 0.976012 0.212486
0.129669 -0.128937 0.32991 0.428087 0.696461 0.57592
0.206729 0.0924803 -0.0450278 0.250679 0.217548 -0.94331
0.348949 0.176846 0.242402 0.960358 -0.013948 0.27842
0.336876 -0.375981 -0.0773093 0.751799 0.174943 -0.635762
-0.433321 -0.297523 -0.0629424 0.428083 0.696466 0.575917
-0.302396 -0.026773 0.188327 -0.664185 -0.189696 0.7231
-0.360757 0.0461096 -0.106545 -0.047427 0.976012 0.212486
-0.509322 -0.0254884 -0.00140216 -0.664185 -0.189699 0.723099
0.300087 0.339716 0.0761249 0.751799 0.174943 -0.635762
-0.0369046 0.26084 0.090321 -0.862875 0.0671294 -0.500939
-0.0311474 0.0250543 0.252148 -0.867211 -0.145795 0.476119
-0.157132 -0.0933398 -0.477436 -0.746062 0.106836 -0.65725
-0.512182 -0.052482 -0.0677671 -0.746062 0.106836 -0.65725
0.111771 -0.455057 -0.0601836 -0.193364 -0.820965 -0.53724
-0.287455 0.00146597 -0.0990719 0.247719 -0.968468 -0.0265335
0.37677 -0.376616 -0.0437026 0.0474271 -0.976013 -0.212486
-0.0523887 0.0531964 0.110463 -0.972857 0.00310112 -0.231386
-0.493689 -0.394694 -0.144385 -0.746062 0.106836 -0.65725
0.536698 -0.20881 -0.0349184 0.664187 0.1897 -0.723097
0.0647685 0.0342124 0.346696 -0.437297 -0.211545 0.874082
-0.0666566 0.312625 0.175619 -0.982938 -0.00775395 -0.183776
-0.413494 0.0148033 0.0254827 -0.0474271 0.976012 0.212486
0.137441 0.11071 0.167049 0.998865 0.0454169 0.0143337
-0.27173 -0.194014 0.172621 -0.664185 -0.189698 0.723099
0.227715 -0.302733 -0.343367 0.664185 0.189699 -0.723099
0.453477 -0.173552 -0.10211 0.664185 0.189699 -0.723099
-0.183351 -0.20461 0.0523446 -0.744798 0.251107 -0.61824
0.149547 0.293815 -0.00813653 0.00433516 0.212925 -0.977059
0.185079 0.0697389 -0.0932511 -0.0474269 0.976012 0.212486
-0.053973 -0.341072 -0.303109 0.047427 -0.976012 -0.212486
-0.049861 0.250983 0.284878 -0.912255 -0.128972 0.38879
-0.155282 -0.272908 0.258884 -0.664185 -0.189699 0.723099
0.219431 -0.479876 0.230098 0.145408 -0.967005 0.209182
-0.185316 -0.335604 -0.35754 0.047427 -0.976012 -0.212486
0.201769 -0.51634 0.0710619 0.24331 -0.954385 0.173062
-0.0874792 0.129129 -0.426881 -0.047427 0.976012 0.212486
0.0298417 -0.3724 -0.140503 0.0474265 -0.976012 -0.212486
-0.481998 -0.0648064 -0.104033 -0.746062 0.106836 -0.65725
0.420782 -0.150251 -0.126028 0.664185 0.189699 -0.723099
0.234229 0.222929 -0.00438489 0.391988 0.213847 -0.894771
-0.0570113 0.292762 0.137594 -0.945471 0.0247608 -0.324763
-0.207352 -0.358881 0.188502 -0.664185 -0.189699 0.723099
-0.0256504 -0.438362 0.334549 -0.664185 -0.189699 0.723099
-0.0116313 0.408494 0.0801987 -0.712027 0.116159 -0.692478
0.276967 -0.485057 0.0757323 0.43537 -0.89953 -0.0360338
0.0577761 -0.171475 -0.232729 -0.705901 0.477562 -0.523104
0.532673 -0.02001 0.0327242 0.746062 -0.106836 0.65725
-0.233531 -0.179414 -0.334002 0.632527 0.372953 0.678834
0.0184513 -0.388841 0.388048 -0.664185 -0.189699 0.723099
0.338582 -0.03199 -0.170506 0.664183 0.189706 -0.7231
-0.367724 -0.196763 -0.197868 0.669055 0.280674 0.688177
-0.45506 -0.27217 -0.0720114 0.541032 0.545527 0.640066
-0.511376 -0.223714 -0.055292 -0.664186 -0.189699 0.723098
0.102489 -0.0224462 -0.268289 -0.632526 -0.372955 -0.678834
0.317185 0.460761 0.307475 -0.0474269 0.976013 0.212486
0.0949278 0.100374 -0.0419004 -0.290278 0.190078 -0.937875
0.527655 -0.0678562 0.0306424 0.746062 -0.106836 0.65725
-0.176882 0.0293366 -0.276021 0.414105 -0.898669 0.144608
-0.0720626 0.415792 0.271479 -0.984443 -0.0817018 0.155552
-0.456892 -0.220116 -0.157777 -0.746062 0.106836 -0.65725
-0.306307 -0.373276 0.0938327 -0.664185 -0.189699 0.723099
-0.0766329 -0.19002 -0.458076 0.428082 0.696466 0.575917
0.108916 0.460271 0.263243 -0.0474273 0.976012 0.212486
0.193648 -0.350172 -0.206041 0.0474281 -0.976012 -0.212487
-0.293662 -0.117167 -0.32633 -0.746062 0.106836 -0.65725
0.379709 -0.105898 -0.152118 0.664185 0.189699 -0.723099
0.302885 0.439179 0.107419 0.783647 0.168266 -0.597984
-0.185844 -0.0195603 0.234136 -0.047427 0.976012 0.212486
-0.236718 -0.042838 -0.321384 0.705899 -0.477568 0.523101
0.342893 -0.210466 -0.213368 0.664185 0.189699 -0.723099
-0.137913 0.019143 -0.480967 -0.746062 0.106836 -0.65725
0.00395684 0.483511 0.133068 -0.0474271 0.976012 0.212486
0.351577 0.0166592 0.106661 0.474019 -0.854824 0.211142
-0.143939 -0.159885 -0.427926 0.611876 0.417769 0.671622
-0.182991 -0.367177 -0.211996 0.047427 -0.976012 -0.212486
0.430193 -0.284895 0.105995 0.746062 -0.106836 0.65725
0.339385 0.0108167 0.248848 0.886885 -0.0567224 0.458496
0.14551 -0.260996 -0.407925 0.664185 0.189699 -0.723099
-0.216469 -0.441198 0.158533 -0.664185 -0.189699 0.723099
0.223379 0.0935864 -0.194241 -0.047427 0.976012 0.212486
-0.33901 0.0702992 -0.212801 -0.047427 0.976012 0.212486
-0.228887 -0.0213467 -0.0110047 -0.228417 -0.869514 -0.437917
0.0597871 -0.479548 0.194154 -0.213434 -0.96786 0.133014
0.0482641 -0.307343 -0.435215 0.0474273 -0.976012 -0.212487
0.0154982 0.11632 -0.345062 -0.047427 0.976012 0.212486
0.286037 -0.0421462 0.137229 0.737632 -0.00912139 0.675141
0.172876 -0.460468 0.295947 0.047428 -0.976012 -0.212486
-0.476581 -0.0204285 0.0299985 -0.664185 -0.189698 0.7231
0.226361 0.429111 0.0415538 0.437297 0.211545 -0.874082
0.350862 -0.112784 -0.180422 0.664185 0.189699 -0.723099
-0.0325538 0.0733956 -0.35926 0.212252 -0.975315 -0.0609078
0.0509921 0.183929 -0.00739668 -0.473904 0.165274 -0.864927
0.00572304 -0.467493 0.163035 -0.300926 -0.952649 0.043617
0.0971171 0.0684744 -0.107076 -0.0474272 0.976012 0.212486
0.015356 0.459376 0.246469 -0.047427 0.976012 0.212488
0.194809 0.425825 0.440634 -0.0474286 0.976012 0.212487
0.136951 0.0927887 0.378489 -0.0541186 -0.214924 0.97513
-0.0531165 0.140204 -0.470083 -0.047427 0.976012 0.212486
0.36444 -0.356076 -0.140801 0.047427 -0.976012 -0.212486
0.304142 -0.0878113 -0.216784 0.664186 0.189697 -0.723099
-0.454892 -0.351387 -0.036904 -0.664185 -0.1897 0.723099
-0.0316577 -0.400727 0.338904 -0.664185 -0.189699 0.723099
-0.407654 -0.129164 -0.198884 -0.746062 0.106836 -0.65725
0.156868 0.33739 0.00184873 0.0541187 0.214924 -0.97513
0.337759 -0.0733276 -0.182106 0.664186 0.189697 -0.723099
-0.11264 0.0384526 -0.383581 0.52922 -0.802487 0.275576
-0.365584 -0.0350656 -0.231344 -0.746062 0.106836 -0.65725
-0.388927 -0.199047 -0.231501 -0.746062 0.106836 -0.65725
0.299813 -0.471436 0.161373 0.343973 -0.933622 0.100161
-0.50218 -0.36047 -0.0827219 -0.664185 -0.1897 0.723099
0.318932 -0.0132075 0.108098 0.726895 -0.389779 0.565417
0.291469 -0.478551 0.107758 0.407742 -0.912895 0.0191914
-0.44646 0.0266209 -0.0361572 -0.047427 0.976012 0.212486
-0.0843698 0.0482948 -0.537007 -0.746062 0.106836 -0.65725
-0.388392 -0.0243773 -0.203716 -0.746062 0.106836 -0.65725
-0.0426137 0.0705442 -0.398731 0.350077 -0.933581 0.0766372
0.173441 -0.225488 0.407097 0.746062 -0.106836 0.65725
-0.309675 -0.0305043 0.046841 -0.156409 -0.910598 -0.382554
0.466268 -0.270172 -0.115708 0.664185 0.189699 -0.723099
0.0373421 0.0235712 -0.252939 -0.428079 -0.696469 -0.575915
-0.0615572 0.225531 0.237087 -0.974786 -0.0916594 0.203446
-0.30151 -0.0143922 -0.00330849 -0.00846004 -0.965299 -0.26101
-0.0586945 -0.424509 0.307831 -0.664185 -0.189699 0.723099
0.142413 -0.0152509 0.35498 -0.0541186 -0.214924 0.97513
-0.089445 -0.250378 -0.343376 0.082846 0.942633 0.323389
0.0476836 0.0498649 -0.0326304 -0.0474271 0.976012 0.212486
-0.486892 -0.393746 -0.0774091 -0.664185 -0.189699 0.723099
0.00633207 -0.222537 -0.449066 0.082846 0.942633 0.323389
-0.0266203 0.110349 -0.327035 -0.0474269 0.976012 0.212486
-0.178086 -0.344464 -0.315229 0.047427 -0.976012 -0.212486
-0.333746 0.0280501 -0.0175639 -0.047427 0.976012 0.212486
-0.147878 -0.166614 0.29357 -0.664185 -0.189698 0.723099
0.0644359 -0.169284 0.445377 -0.0288074 0.973045 0.22881
0.230501 -0.406669 0.312876 0.746062 -0.106836 0.65725
0.405722 -0.312417 -0.182404 0.664185 0.1897 -0.723099
0.199978 -0.144392 -0.327305 0.664183 0.189705 -0.7231
0.509407 -0.0456855 0.0549597 0.746062 -0.106836 0.65725
0.319934 -0.251646 0.236557 0.746062 -0.106836 0.65725
-0.239936 0.085497 -0.260496 -0.047427 0.976012 0.212486
0.339442 0.419667 0.178012 0.962707 0.101389 -0.250831
0.084898 -0.120535 0.519469 -0.664184 -0.1897 0.7231
0.125806 -0.488474 0.414081 0.0474231 -0.976012 -0.212489
0.189857 -0.495705 0.0442294 -0.729267 0.111533 -0.675078
-0.0719129 0.36648 0.242472 -0.996396 -0.0612027 0.0587262
-0.0587169 0.458576 0.233614 -0.0474269 0.976012 0.212486
0.22585 -0.230624 0.346771 0.746062 -0.106836 0.65725
-0.0488067 0.403125 0.335754 -0.86721 -0.145795 0.47612
0.490772 -0.00127019 0.0833333 0.746062 -0.106836 0.65725
0.283514 -0.29651 -0.290482 0.664185 0.189699 -0.723099
0.349217 0.0571208 0.0745414 0.931401 0.120068 -0.343621
-0.00177727 -0.355087 -0.227082 0.0474266 -0.976012 -0.212486
0.0135363 -0.147262 -0.161554 -0.744798 0.251107 -0.61824
-0.0430778 -0.363091 0.338288 -0.664185 -0.189699 0.723099
-0.00677262 -0.380806 -0.110062 0.047427 -0.976012 -0.212486
-0.3137 -0.393179 -0.121737 0.047427 -0.976012 -0.212486
-0.332014 -0.403948 -0.0763597 0.0474269 -0.976012 -0.212486
-0.185128 0.0607801 -0.134731 -0.047427 0.976012 0.212486
0.152561 0.491053 0.131594 -0.0474246 0.976012 0.212487
0.359913 0.0334571 0.195817 0.972857 -0.00310159 0.231388
0.178477 -0.0422107 0.419493 -0.0474269 0.976012 0.212486
0.0228077 0.301739 0.388329 -0.566263 -0.201512 0.799212
-0.434209 -0.215625 -0.182796 -0.746062 0.106836 -0.65725
-0.431962 -0.147139 -0.133919 0.747499 -0.155357 0.64584
0.0643725 -0.46365 -0.0172982 -0.331928 -0.860541 -0.386385
-0.277981 -0.436982 0.087439 0.047427 -0.976012 -0.212486
0.146732 0.243644 0.4117 0.0454616 -0.210396 0.976559
0.338828 0.112895 0.262554 0.886884 -0.0567227 0.458497
-0.0204601 -0.106383 -0.118579 -0.721872 -0.0886767 -0.686322
0.0541 -0.223264 -0.326008 -0.444614 0.877838 -0.178096
0.226397 -0.0707852 0.372132 0.746062 -0.106836 0.65725
-0.269472 0.0793132 -0.238685 -0.047427 0.976012 0.212486
0.0513162 0.38083 0.423645 -0.391986 -0.213847 0.894771
-0.194271 -0.120796 0.262977 -0.664185 -0.189699 0.723099
-0.163433 0.0369722 -0.237165 0.247719 -0.968468 -0.0265335
0.193061 0.363464 0.0138347 0.250678 0.217548 -0.94331
-0.258999 -0.00459949 -0.0411593 -0.0457074 -0.955154 -0.292561
-0.077601 -0.174886 -0.0629799 -0.744798 0.251107 -0.61824
0.161927 -0.330257 -0.304594 0.047427 -0.976012 -0.212486
-0.0951328 -0.34961 -0.273077 0.047427 -0.976012 -0.212486
-0.153055 -0.219787 -0.365113 0.397001 0.730097 0.556191
0.232744 -0.0930542 -0.283741 0.664185 0.189701 -0.723099
0.170266 0.0666146 -0.29924 0.664185 0.189699 -0.723099
-0.248394 -0.00783749 0.166329 -0.047427 0.976012 0.212486
0.336385 -0.22377 0.222415 0.746062 -0.106836 0.65725
0.535439 -0.34667 -0.0235149 0.746062 -0.106836 0.65725
-0.0331318 -0.0929336 0.418297 -0.664185 -0.1897 0.723099
0.356558 0.137786 0.132086 0.984443 0.0817018 -0.155552
0.422499 -0.346759 -0.170636 0.047427 -0.976012 -0.212486
0.0931808 0.384773 0.438111 -0.202173 -0.217702 0.954847
-0.12929 -0.0308889 0.298795 -0.047427 0.976012 0.212486
0.0417023 -0.333092 -0.318408 0.0474262 -0.976013 -0.212486
0.00206435 -0.46781 0.35228 -0.664185 -0.189699 0.723099
-0.329974 -0.081273 -0.22894 0.726896 -0.389774 0.565419
-0.0516035 0.0847052 -0.214823 -0.047427 0.976012 0.212486
-0.257346 -0.195783 0.139742 -0.742771 0.0580541 -0.667024
-0.0669956 -0.0415708 -0.103355 -0.541032 -0.545527 -0.640066
-0.0707893 -0.274201 -0.604844 -0.746062 0.106836 -0.65725
0.488708 -0.203082 0.0528717 0.746062 -0.106836 0.65725
-0.241658 -0.363815 -0.240534 0.047427 -0.976012 -0.212486
0.130845 -0.214681 0.457206 0.746062 -0.106836 0.65725
-0.00748241 -0.340591 0.376886 -0.664185 -0.189699 0.723099
-0.0666471 -0.462509 0.251858 0.047427 -0.976012 -0.212486
-0.291358 -0.00188354 -0.0640101 0.139825 -0.981722 -0.129114
0.193754 -0.31584 -0.363711 0.047427 -0.976012 -0.212486
0.167346 0.252835 -0.015958 0.103768 0.216389 -0.970777
0.534999 -0.206341 -0.000204855 0.746062 -0.106836 0.65725
-0.158777 -0.0102693 -0.071485 -0.298156 -0.819787 -0.488929
0.503383 -0.109797 -0.0395443 0.664186 0.1897 -0.723098
0.034634 -0.154441 -0.190507 -0.740667 0.298113 -0.602114
0.0744414 -0.210957 0.486143 -0.66418 -0.1897 0.723104
0.344164 0.256327 0.131189 0.948232 0.110867 -0.297599
0.533112 0.0587186 0.0350493 -0.047427 0.976012 0.212486
-0.36284 -0.10381 -0.200807 0.740667 -0.298111 0.602115
0.215259 0.258586 -0.003696 0.345706 0.215618 -0.913234
0.406475 -0.0486557 0.0271214 0.458093 0.661111 0.594208
-0.26879 -0.275417 -0.205504 0.298158 0.819786 0.488931
-0.0422803 -0.246137 -0.202568 -0.502241 0.829689 -0.243659
0.0339328 -0.0766465 0.443651 0.529221 -0.802486 0.275577
-0.151129 -0.301812 -0.505123 0.047427 -0.976012 -0.212486
0.0722713 0.499698 0.073961 -0.047429 0.976012 0.212487
0.190566 0.106382 -0.26034 -0.047427 0.976012 0.212486
-0.110073 -0.273846 -0.244868 -0.139827 0.981722 0.129113
0.425181 0.0551677 0.0272694 -0.047427 0.976012 0.212486
-0.170132 0.0829464 -0.2332 -0.047427 0.976012 0.212486
0.3466 0.280513 0.255102 0.972857 -0.00310159 0.231388
0.250678 0.265741 0.385153 0.517144 -0.158004 0.841188
-0.0949813 0.10437 -0.314833 -0.047427 0.976012 0.212486
-0.279346 -0.00474411 0.145212 -0.047427 0.976012 0.212486
0.0964013 -0.322794 -0.353499 0.0474256 -0.976013 -0.212486
0.327916 0.213276 0.0797202 0.867211 0.145795 -0.476119
-0.171267 0.121814 -0.411984 -0.047427 0.976012 0.212486
0.113161 0.395648 0.0155679 -0.144586 0.203777 -0.968282
0.427511 -0.0607635 0.145471 0.746062 -0.106836 0.65725
0.134324 -0.195853 -0.39537 -0.502241 0.829689 -0.243659
0.12373 0.130982 -0.04171 -0.144586 0.203777 -0.968282
-0.243019 0.0401109 -0.0527123 -0.047427 0.976012 0.212486
0.0721534 0.084683 -0.384619 0.664186 0.189691 -0.7231
0.281148 -0.350446 0.264525 0.746062 -0.106836 0.65725
-0.00987711 0.244743 0.345228 -0.718083 -0.181185 0.671959
0.271843 0.34717 0.384714 0.638739 -0.133916 0.75768
-0.408144 -0.412009 -0.0563227 0.0474286 -0.976012 -0.212489
0.127412 -0.509568 0.0454332 -0.369087 -0.923265 -0.106567
0.0786112 -0.46818 0.231953 -0.481518 -0.208717 0.851222
