ply
format ascii 1.0
comment Created by Open3D
element vertex 512
property double x
property double y
property double z
property double nx
property double ny
property double nz
end_header
0.0692081 -0.431753 -0.0795715 -0.227028 -0.827908 -0.51286
0.113758 0.0537977 -0.347219 -0.364934 -0.761912 -0.535083
-0.19017 -0.156588 -0.450214 -0.746062 0.106836 -0.65725
-0.201811 0.0229247 -0.244481 0.414105 -0.898669 0.144608
-0.435387 0.0325245 -0.0608027 -0.047427 0.976012 0.212486
0.191388 0.372299 0.432126 0.242278 -0.195133 0.950381
-0.315461 -0.0593947 0.167769 -0.664185 -0.189701 0.723099
0.326118 0.441878 0.147752 0.912254 0.128972 -0.388791
0.260841 -0.259877 -0.301697 0.664185 0.189699 -0.723099
-0.0946661 -0.184169 0.337841 -0.664185 -0.189698 0.723099
-0.294436 -0.327704 0.0195039 -0.350076 0.933581 -0.0766357
-0.325563 0.0557934 -0.143171 -0.047427 0.976012 0.212486
0.421006 -0.335073 0.108267 0.746062 -0.106836 0.65725
-0.0985394 -0.462257 0.261329 -0.664185 -0.189699 0.723099
-0.378026 -0.394063 -0.132031 0.047427 -0.976012 -0.212486
-0.264099 0.00609843 -0.339851 -0.746062 0.106836 -0.65725
-0.068441 0.374195 0.182565 -0.982938 -0.00775406 -0.183775
-0.0372235 0.0727092 -0.156512 -0.047427 0.976012 0.212486
-0.247859 -0.0140004 0.194756 -0.047427 0.976012 0.212486
0.218453 -0.307253 -0.35306 0.664185 0.189699 -0.723099
-0.209112 -0.14641 0.0844305 -0.698937 -0.185597 -0.690682
-0.0547104 0.27049 0.129198 -0.945471 0.0247608 -0.324763
-0.0514642 0.0195397 0.19264 -0.974786 -0.0916594 0.203446
0.304947 0.237807 0.332902 0.778243 -0.097247 0.620388
-0.125691 -0.359761 -0.233271 0.047427 -0.976012 -0.212486
0.221757 -0.431322 -0.0930101 0.169192 -0.792849 -0.58546
0.30001 0.477311 0.227624 -0.0474272 0.976013 0.212485
-0.276229 -0.250296 0.153723 -0.664186 -0.189697 0.723099
0.462778 -0.243472 -0.111909 0.664185 0.189699 -0.723099
0.468923 -0.0892323 -0.0658014 0.664185 0.189699 -0.723099
0.46124 -0.151897 -0.0892979 0.664185 0.189699 -0.723099
-0.149802 0.0112627 0.100602 -0.047427 0.976012 0.212486
0.0269072 -0.466424 0.290725 0.047427 -0.976012 -0.212486
-0.00131283 0.0405469 0.00818067 -0.746062 0.106836 -0.65725
-0.300928 -0.363124 0.101437 -0.664185 -0.189701 0.723099
-0.409146 -0.284468 -0.0966906 0.458099 0.661104 0.594211
0.140404 0.0894598 0.377947 -0.0541186 -0.214924 0.97513
0.124739 -0.467826 0.318999 0.0474278 -0.976012 -0.212486
-0.130485 -0.178658 -0.521552 -0.746062 0.106836 -0.65725
-0.071523 0.384995 0.258718 -0.984443 -0.0817018 0.155553
0.0865319 -0.165086 0.43245 -0.13984 0.981722 0.129101
-0.0996544 0.0378959 -0.0105392 -0.047427 0.976012 0.212486
-0.11109 -0.00665526 0.191545 -0.0474271 0.976012 0.212486
0.14788 0.110702 -0.308237 0.664185 0.189699 -0.723099
0.425008 -0.00979144 -0.0136118 0.721872 0.0886782 0.686322
0.350988 0.322465 0.207726 0.998663 0.0507123 -0.0100343
-0.121946 0.0279498 -0.17014 -0.0828473 -0.942632 -0.32339
0.0829693 0.082034 -0.172517 -0.0474268 0.976012 0.212486
0.0427507 -0.304882 0.432394 -0.664185 -0.189699 0.723099
-0.373534 0.0234648 -0.00538301 -0.047427 0.976012 0.212486
-0.0321294 0.484998 0.118184 -0.0474277 0.976012 0.212487
0.192764 -0.246757 -0.360786 0.664185 0.1897 -0.723099
0.336798 0.276596 0.284869 0.928233 -0.0355121 0.370299
0.111212 -0.204822 -0.378956 -0.474017 0.854826 -0.21114
0.212892 0.48845 0.157016 -0.0474244 0.976012 0.212489
-0.108981 -0.111497 -0.483351 0.698938 0.185594 0.690682
-0.0688095 0.0638976 -0.336518 0.247719 -0.968468 -0.0265336
0.248469 0.394165 0.410634 0.517144 -0.158004 0.841188
0.200781 -0.50102 0.145052 0.124853 -0.968938 0.213472
-0.516007 -0.0818706 -0.0682022 -0.746062 0.106836 -0.65725
-0.0251531 0.100294 -0.280523 -0.0474271 0.976012 0.212486
0.306176 -0.471726 0.119973 0.407742 -0.912895 0.0191914
0.133451 0.279118 -0.0110643 -0.0454601 0.210396 -0.976559
0.128042 -0.0379069 0.388467 -0.0474272 0.976012 0.212486
0.300767 0.12033 0.0172388 0.718083 0.181185 -0.671959
0.108829 0.440205 0.025592 -0.144586 0.203777 -0.968282
0.351001 -0.0804281 0.112732 0.192645 0.891168 0.410741
0.0192248 -0.482773 0.364104 0.047427 -0.976012 -0.212486
0.174158 -0.518128 0.065695 0.0474202 -0.976012 -0.212488
-0.0805148 0.0540747 -0.266869 0.0660114 -0.978372 -0.196035
-0.286095 -0.246032 -0.234319 0.458099 0.661104 0.594211
0.502127 -0.300351 -0.090688 0.664185 0.189699 -0.723099
-0.12223 -0.0405896 -0.508479 -0.746062 0.106836 -0.65725
0.344992 -0.017206 -0.16074 0.664185 0.1897 -0.723099
0.0889864 0.490397 0.120416 -0.047429 0.976012 0.212487
-0.351941 -0.24408 -0.280805 -0.746062 0.106836 -0.65725
-0.138143 -0.282959 -0.14937 -0.350076 0.933581 -0.0766357
-0.307458 -0.0128921 -0.00969648 0.0288138 -0.973046 -0.228805
0.21773 -0.113616 0.353277 -0.677888 0.560613 -0.475585
-0.190049 -0.0800638 0.0332105 -0.566073 -0.50416 -0.652215
0.294515 0.317415 0.0636983 0.718083 0.181185 -0.671959
-0.243075 -0.0541844 0.0493548 -0.397002 -0.730096 -0.556192
-0.206822 -0.244555 -0.445612 -0.746062 0.106836 -0.65725
0.312576 0.053594 0.294434 0.754285 -0.104462 0.648183
-0.285693 -0.136711 0.156122 -0.6516 -0.327222 -0.684356
0.167298 -0.457766 0.258828 -0.0541181 -0.214924 0.97513
0.386274 -0.422291 0.0693315 0.995748 0.0293798 0.0873035
-0.242435 -0.0752359 0.230689 -0.664185 -0.189702 0.723099
0.298514 0.0905519 -0.163533 -0.047427 0.976012 0.212486
0.403504 -0.0868853 -0.125275 0.664185 0.189699 -0.723099
0.379079 -0.0148543 0.0359548 0.74277 -0.0580494 0.667025
-0.194045 -0.318007 0.211448 -0.664185 -0.189699 0.723099
0.0781336 -0.454659 0.234998 -0.481518 -0.208717 0.851222
-0.00129118 -0.465426 0.125761 -0.342652 -0.939038 -0.0282151
0.076134 -0.369388 -0.144001 0.0474269 -0.976012 -0.212486
-0.236057 -0.117161 -0.391718 -0.746062 0.106836 -0.65725
0.144388 -0.450629 -0.0742596 -0.0797281 -0.804168 -0.589031
-0.290339 -0.409713 -0.0405735 0.0474268 -0.976013 -0.212486
0.178291 -0.390711 0.374735 0.746062 -0.106836 0.65725
0.349957 0.269878 0.159824 0.974786 0.0916594 -0.203446
-0.48363 -0.404376 -0.108231 0.0474269 -0.976013 -0.212485
-0.0529895 0.199737 0.25906 -0.948232 -0.110867 0.297597
-0.0684797 -0.0571674 -0.551008 0.664185 0.189699 -0.723099
-0.221493 0.0944075 -0.297308 -0.047427 0.976012 0.212486
-0.16726 0.0271269 0.0238365 -0.047427 0.976012 0.212486
0.0373137 -0.341538 -0.280592 0.0474262 -0.976012 -0.212486
-0.291798 -0.117814 -0.32855 -0.746062 0.106836 -0.65725
-0.0402929 -0.294142 -0.515618 0.0474269 -0.976012 -0.212486
-0.457629 -0.0448669 0.040995 -0.664185 -0.1897 0.723099
0.052916 0.361031 0.419614 -0.391986 -0.213847 0.894771
0.257005 -0.481803 0.183868 0.243313 -0.954384 0.17306
-0.209565 -0.306837 -0.452621 -0.746062 0.106836 -0.65725
-0.094389 0.0803135 -0.2042 -0.047427 0.976012 0.212486
-0.328884 0.0179431 -0.264387 -0.746062 0.106836 -0.65725
-0.0241558 -0.231111 -0.195422 -0.57916 0.742174 -0.33727
0.549603 -0.170414 -0.0109415 0.746062 -0.106836 0.65725
-0.227766 -0.244196 -0.279745 0.397 0.730098 0.55619
-0.262467 -0.287176 0.0866075 -0.643142 0.63808 -0.423347
0.163593 0.0245524 0.138513 -0.626169 -0.194789 0.754964
-0.365774 -0.00553053 0.129533 -0.047427 0.976012 0.212486
-0.0523232 -0.448186 0.189267 0.047427 -0.976012 -0.212486
-0.413393 -0.320327 -0.0415947 0.263616 0.845701 0.464001
-0.361941 -0.0237267 -0.0758409 0.414105 -0.898669 0.144608
0.261483 0.460657 0.295524 -0.0474272 0.976012 0.212487
0.219529 0.47581 0.216556 -0.0474263 0.976012 0.212489
0.231033 0.274951 0.00664842 0.391988 0.213847 -0.894771
-0.31307 -0.290803 -0.332523 -0.746062 0.106836 -0.65725
-0.445946 -0.382761 -0.196641 -0.746062 0.106836 -0.65725
-0.144166 -0.407891 -0.0163206 0.047427 -0.976012 -0.212486
-0.15763 0.103734 -0.325892 -0.047427 0.976012 0.212486
-0.440343 -0.37802 -0.0305269 -0.664185 -0.189699 0.723099
0.0105652 -0.327493 -0.351074 0.0474269 -0.976012 -0.212486
0.273504 -0.115363 -0.252154 0.664186 0.189698 -0.723099
-0.0945288 -0.303806 0.306582 -0.664185 -0.189699 0.723099
0.0175839 -0.449492 -0.00585496 -0.36299 -0.878624 -0.310255
0.349774 -0.0301974 0.219581 -0.651597 -0.327231 -0.684355
0.0824344 0.103641 -0.271883 -0.047427 0.976012 0.212486
0.546805 -0.335009 -0.0345209 0.746062 -0.106836 0.65725
0.155661 -0.0705403 -0.309572 -0.737632 0.0091218 -0.675141
0.13172 0.204287 -0.0270209 -0.0951421 0.207345 -0.97363
0.291117 -0.229018 0.272947 0.746062 -0.106836 0.65725
0.405004 0.0118037 0.182816 0.746062 -0.106836 0.65725
-0.417985 -0.0592854 -0.175798 -0.746062 0.106836 -0.65725
-0.354453 0.0665829 -0.199178 -0.047427 0.976012 0.212486
-0.149888 -0.391125 -0.0946052 0.047427 -0.976012 -0.212486
-0.471175 -0.00818036 -0.107114 -0.746062 0.106836 -0.65725
-0.0713816 -0.435992 0.129002 0.0474268 -0.976013 -0.212486
0.0240426 0.301706 0.389196 -0.566263 -0.201512 0.799212
0.120144 -0.131153 0.482931 0.746062 -0.106836 0.65725
-0.134792 -0.0176417 -0.435603 0.717291 -0.434207 0.544939
-0.0989829 -0.150183 -0.0326365 -0.742771 0.0580541 -0.667024
-0.0401207 -0.470582 0.294865 0.047427 -0.976012 -0.212486
0.178513 0.416516 0.0225888 0.20217 0.217702 -0.954847
-0.139559 -0.0648564 -0.0223664 -0.566073 -0.50416 -0.652215
0.318124 -0.0823627 -0.202512 0.664186 0.189697 -0.723099
0.0458761 0.0598016 -0.315446 -0.228417 -0.869514 -0.437917
-0.122108 -0.165899 -0.443437 0.566073 0.50416 0.652215
0.0981948 -0.131564 -0.257367 -0.740667 0.298113 -0.602114
-0.0659858 0.233217 0.204153 -0.996396 -0.0612028 0.0587264
0.0521049 -0.0872799 0.400223 0.717291 -0.434206 0.54494
-0.220823 -0.177071 -0.34713 0.632527 0.372953 0.678834
0.489346 -0.322178 0.0327884 0.746062 -0.106836 0.65725
-0.124183 0.0361041 -0.368253 0.52922 -0.802487 0.275576
-0.29665 -0.00133808 -0.11124 0.316716 -0.947576 0.0423223
-0.173431 0.0542459 -0.102107 -0.047427 0.976012 0.212486
0.0328277 -0.0721164 0.471721 0.316721 -0.947574 0.0423274
0.0545239 -0.427451 0.411053 -0.664185 -0.189699 0.723099
-0.0198119 -0.0720114 -0.128257 -0.669057 -0.280667 -0.688177
0.153101 -0.477982 0.389142 0.746062 -0.106836 0.65725
0.326121 -0.348562 -0.183866 0.047427 -0.976012 -0.212486
0.237387 -0.44022 0.299606 0.746062 -0.106836 0.65725
-0.00713853 -0.367387 -0.171782 0.047427 -0.976012 -0.212486
-0.0255293 -0.316354 -0.410294 0.0474265 -0.976012 -0.212486
-0.246929 0.00276481 -0.0686588 0.028813 -0.973046 -0.228805
-0.0448564 0.189178 0.0969072 -0.908689 0.0461746 -0.414913
-0.0629488 -0.251476 0.349317 -0.664185 -0.189699 0.723099
-0.117573 -0.209997 -0.0324034 -0.726896 0.389774 -0.565419
-0.0823156 0.0223912 -0.542845 0.664185 0.189699 -0.723099
-0.158624 -0.245674 -0.500504 -0.746062 0.106836 -0.65725
-0.086197 0.0100682 -0.475589 0.692757 -0.519732 0.499967
0.225034 -0.0738684 -0.285789 0.664185 0.189701 -0.723099
-0.17691 -0.399287 0.205863 -0.664185 -0.189701 0.723099
0.00500673 0.199928 0.0284624 -0.676224 0.125193 -0.72598
0.321202 -0.0892163 0.261521 0.746062 -0.106836 0.65725
0.180295 -0.094358 0.407878 -0.730662 -0.0398172 -0.681578
0.00438462 0.430603 0.376185 -0.0474279 0.976013 0.212485
-0.11419 -0.2894 -0.553891 0.047427 -0.976012 -0.212486
0.0231869 0.0669218 -0.116446 -0.0474271 0.976012 0.212486
-0.17217 -0.265924 -0.0193385 -0.623348 0.674481 -0.395616
0.0183379 -0.151493 0.441757 0.541033 0.545525 0.640067
0.327646 -0.150748 0.244204 0.746062 -0.106836 0.65725
-0.498724 0.0268028 -0.048658 -0.047427 0.976012 0.212486
0.0896328 0.121375 -0.351734 -0.047427 0.976012 0.212486
-0.376299 -0.301844 -0.262545 -0.746062 0.106836 -0.65725
-0.50949 -0.136617 -0.0361501 0.734694 -0.344373 0.584492
0.0467338 -0.222066 -0.488441 0.664185 0.1897 -0.723099
0.310301 -0.368491 0.228499 0.746062 -0.106836 0.65725
-0.109869 -0.0188697 -0.0921923 -0.428079 -0.696469 -0.575915
0.448376 -0.388138 0.0685725 0.746062 -0.106836 0.65725
0.341459 -0.363629 -0.111238 0.047427 -0.976012 -0.212486
-0.0209383 -0.409806 0.346368 -0.664185 -0.189699 0.723099
-0.0701526 0.0539101 -0.0775125 -0.047427 0.976012 0.212486
-0.47244 -0.186291 -0.13463 -0.746062 0.106836 -0.65725
-0.311674 0.0838749 -0.269057 -0.047427 0.976012 0.212486
0.336651 0.456382 0.298824 0.960357 -0.0139487 0.278423
-0.256671 -0.0299819 -0.27966 0.661337 -0.600093 0.450025
0.241267 0.115297 -0.0269379 0.437297 0.211545 -0.874082
-0.0389609 0.114057 0.0756357 -0.908689 0.0461745 -0.414913
-0.165908 -0.145811 0.282467 -0.664185 -0.189701 0.723099
-0.156453 0.0833762 -0.232121 -0.047427 0.976012 0.212486
0.315272 -0.321664 -0.267911 0.664185 0.189699 -0.723099
0.526119 0.0363729 0.0493284 0.746062 -0.106836 0.65725
-0.360466 -0.37145 -0.231983 0.047427 -0.976012 -0.212486
-0.095331 0.11755 -0.375447 -0.047427 0.976012 0.212486
0.18902 0.305742 0.419065 0.242278 -0.195133 0.950381
-0.207638 0.104693 -0.387915 -0.746062 0.106836 -0.65725
0.0275126 -0.301726 -0.465645 0.0474273 -0.976012 -0.212487
0.314903 -0.261313 -0.252417 0.664185 0.189699 -0.723099
-0.255664 -0.442988 0.120003 0.047427 -0.976012 -0.212486
0.273665 -0.03742 -0.231558 0.664185 0.1897 -0.723099
0.0628522 -0.218436 -0.325504 -0.474017 0.854826 -0.21114
0.451089 -0.00882319 0.12715 0.746062 -0.106836 0.65725
0.151429 -0.239311 0.429837 0.746062 -0.106836 0.65725
0.363137 0.0612768 0.138281 0.996396 0.0612032 -0.0587282
0.296044 -0.410936 -0.0886323 0.3158 -0.803227 -0.505072
-0.246765 0.0707291 -0.194187 -0.047427 0.976012 0.212486
0.169829 0.508963 0.0531812 -0.0474278 0.976012 0.212486
0.322623 -0.455893 0.0393835 0.465142 -0.863081 -0.196811
0.36914 -0.400819 -0.0308467 0.912254 0.128972 -0.388791
0.369164 -0.295837 -0.211634 0.664185 0.189699 -0.723099
-0.329012 0.0396644 -0.0698553 -0.047427 0.976012 0.212486
-0.0620059 0.148762 0.174926 -0.998663 -0.0507121 0.0100339
-0.173586 -0.0901452 -0.41762 0.742771 -0.0580559 0.667024
-0.0256135 0.244137 0.325948 -0.783646 -0.168266 0.597984
0.0953356 -0.0884519 0.346072 0.747499 -0.155348 0.645843
-0.427769 -0.141608 -0.178074 -0.746062 0.106836 -0.65725
0.0987749 0.507814 0.0425977 -0.0474257 0.976013 0.212486
-0.290911 -0.209956 -0.344535 -0.746062 0.106836 -0.65725
0.132763 0.356965 0.233086 0.459542 0.210196 -0.862924
-0.1446 -0.254376 -0.312604 0.192651 0.891164 0.410745
0.200178 -0.0304038 0.259458 0.554878 -0.773294 0.306802
-0.216845 0.0173359 -0.130639 0.103048 -0.981267 -0.162775
-0.237375 -0.423378 0.034013 0.0474267 -0.976013 -0.212486
0.454755 -0.188398 0.0937992 0.746062 -0.106836 0.65725
0.235864 0.498119 0.0633488 0.481517 0.208717 -0.851222
-0.0549275 -0.33116 -0.348849 0.047427 -0.976012 -0.212486
0.336836 0.203293 0.277027 0.908689 -0.0461745 0.414913
0.18421 -0.490328 -0.0227751 0.0658521 -0.793665 -0.604781
0.0415965 -0.0853588 -0.186567 -0.721872 -0.0886755 -0.686322
0.0958658 0.475793 0.189031 -0.0474286 0.976012 0.212487
0.0126125 0.12343 -0.429144 0.664185 0.189699 -0.723099
-0.0656063 -0.183365 -0.474023 0.458099 0.661103 0.594212
0.0804932 0.060896 -0.0449657 -0.337559 0.18455 -0.923036
0.0940035 0.339389 0.00729752 -0.242277 0.195133 -0.950381
-0.0327078 0.386809 0.101852 -0.808486 0.0874172 -0.581987
0.319099 -0.00481485 0.115776 0.677892 -0.560601 0.475592
0.3047 0.313659 0.345103 0.778242 -0.0972474 0.620389
0.148821 -0.394248 -0.150056 -0.0181399 -0.798376 -0.601885
0.292464 0.0266282 -0.197489 0.664185 0.189698 -0.723099
0.208598 0.440871 0.374603 -0.0474269 0.976012 0.212486
-0.34855 -0.233088 -0.194965 0.566074 0.504158 0.652216
-0.149115 -0.376881 -0.159861 0.047427 -0.976012 -0.212486
0.342387 0.377672 0.27412 0.972857 -0.00310085 0.231385
0.536927 -0.0875977 -0.00290897 0.664189 0.189699 -0.723095
0.3585 0.144204 0.195471 0.995748 0.0293787 0.0873063
-0.0282658 0.13221 0.289493 -0.841425 -0.153674 0.518063
-0.146506 -0.275073 0.266377 -0.664185 -0.189699 0.723099
0.365023 0.0806836 -0.10336 -0.047427 0.976012 0.212486
0.285195 -0.00772864 0.241435 -0.119784 -0.927765 -0.353417
0.360032 -0.35369 0.174454 0.746062 -0.106836 0.65725
0.0379684 0.425823 0.0459612 -0.473904 0.165274 -0.864928
0.0618296 0.131746 -0.0229472 -0.429485 0.172133 -0.886517
-0.0338009 -0.332069 0.354947 -0.664185 -0.189699 0.723099
0.141027 -0.140322 0.341162 0.192645 0.891168 0.410741
-0.180747 -0.00363043 0.162103 -0.0474271 0.976012 0.212487
0.12958 -0.491739 0.189226 -0.0832285 -0.976188 0.200326
0.482159 -0.36725 -0.0631993 0.0474269 -0.976013 -0.212484
0.310421 0.383816 0.347876 0.83672 -0.0773699 0.542138
0.0984022 0.196688 0.396333 -0.20217 -0.217702 0.954847
0.165837 -0.159218 0.4265 0.746062 -0.106836 0.65725
-0.356322 -0.282995 -0.13704 0.364935 0.761911 0.535084
-0.0553633 0.048662 0.12837 -0.990574 -0.0185894 -0.13571
-0.350078 -0.356298 -0.299262 0.047427 -0.976012 -0.212486
-0.48475 -0.317347 -0.14196 -0.746062 0.106836 -0.65725
-0.351128 -0.0310779 0.0596812 -0.0457074 -0.955154 -0.292561
-0.052116 -0.0177715 0.255768 -0.047427 0.976012 0.212486
0.43056 -0.0674722 0.0635175 -0.176248 0.979737 0.0951383
-0.0782975 -0.25336 -0.153732 -0.529219 0.802487 -0.275575
0.425977 0.0557519 -0.0672133 0.664185 0.1897 -0.723099
-0.173179 -0.0116417 -0.0604015 -0.298156 -0.819787 -0.488929
-0.140478 0.0424705 -0.293676 0.350077 -0.933581 0.0766372
-0.288506 -0.368571 -0.229146 0.047427 -0.976012 -0.212486
0.13937 0.283652 0.191912 0.218051 -0.197479 0.955749
0.290488 -0.191259 -0.256464 0.664185 0.189699 -0.723099
0.0923257 0.431073 0.393652 -0.0474256 0.976012 0.212487
0.272834 -0.0196681 0.164235 0.692757 -0.51973 0.499968
0.087306 -0.496038 0.0710283 -0.350747 -0.935275 -0.0473102
-0.265894 -0.353902 -0.291474 0.047427 -0.976012 -0.212486
-0.198126 -0.027863 0.269532 -0.047427 0.976012 0.212486
-0.285335 0.00959481 0.0780119 -0.0474271 0.976012 0.212487
0.0130566 0.0424489 -0.264714 -0.263616 -0.8457 -0.464001
0.234251 0.0793538 -0.12644 -0.047427 0.976012 0.212486
-0.253598 -0.192387 0.135863 -0.742771 0.0580541 -0.667024
0.169803 0.190048 0.398547 0.0951429 -0.207344 0.97363
-0.259058 -0.295347 -0.168192 0.119778 0.927768 0.353412
-0.261295 -0.0993274 0.109937 -0.566073 -0.50416 -0.652215
-0.158175 -0.322899 -0.409839 0.047427 -0.976012 -0.212486
-0.122598 -0.103057 0.333464 -0.664185 -0.189699 0.723099
0.0848724 0.126469 0.376374 -0.298564 -0.216852 0.929427
0.106918 0.299546 0.421316 -0.153157 -0.217316 0.964011
0.0335622 0.496757 0.06193 -0.473904 0.165274 -0.864928
-0.122191 -0.02438 0.270482 -0.047427 0.976012 0.212486
-0.0135752 -0.452678 0.0527926 -0.37918 -0.905956 -0.188327
0.0173559 0.0731051 0.32596 -0.645378 -0.192304 0.73926
0.329641 0.234757 0.0894402 0.86721 0.145796 -0.476121
-0.0921596 0.0201164 0.0727999 -0.047427 0.976012 0.212486
-0.103739 -0.377836 0.2787 -0.664185 -0.189699 0.723099
0.172657 0.0993325 -0.231956 -0.047427 0.976012 0.212486
-0.0813139 -0.378468 -0.13744 0.047427 -0.976012 -0.212486
-0.369223 -0.411674 -0.0491756 0.0474267 -0.976013 -0.212486
0.420856 -0.273178 -0.158209 0.664185 0.189699 -0.723099
-0.174858 -0.431382 0.08473 0.047427 -0.976012 -0.212486
-0.308261 -0.0904444 -0.261328 0.740667 -0.298111 0.602115
0.279136 0.102624 0.335276 0.599663 -0.142306 0.787498
-0.11211 -0.275662 -0.230151 -0.212253 0.975315 0.0609069
0.267234 -0.444262 0.240504 0.429486 -0.172132 0.886517
-0.0141589 -0.393388 -0.0539173 0.0474269 -0.976013 -0.212485
0.338949 0.381142 0.161069 0.948232 0.110867 -0.297599
-0.260902 -0.332458 -0.388862 0.047427 -0.976012 -0.212486
-0.241851 -0.173815 0.205365 -0.664185 -0.189698 0.723099
0.504584 -0.208135 0.0340282 0.746062 -0.106836 0.65725
0.506341 -0.197538 -0.0598453 0.664185 0.189699 -0.723099
0.300205 -0.0974489 0.174124 0.119785 0.927765 0.353417
0.325841 0.139917 0.289269 0.836722 -0.077369 0.542135
-0.244295 -0.394634 -0.099563 0.047427 -0.976012 -0.212486
0.150084 0.419413 0.44932 0.0951429 -0.207344 0.97363
-0.0302828 -0.352888 -0.243543 0.047427 -0.976012 -0.212486
0.395782 -0.157912 -0.151001 0.664185 0.189699 -0.723099
-0.0152864 -0.0966432 0.433715 -0.664185 -0.1897 0.723099
-0.0630082 -0.157901 -0.572409 0.664186 0.189699 -0.723098
0.0126646 0.00136963 -0.208796 -0.486976 -0.624099 -0.611028
-0.10037 -0.307674 -0.466871 0.047427 -0.976012 -0.212486
-0.440663 -0.104129 -0.101906 0.717292 -0.434202 0.544942
0.132249 -0.258202 -0.419373 0.664185 0.189699 -0.723099
-0.506045 -0.246461 -0.106265 -0.746062 0.106836 -0.65725
0.125666 -0.350023 -0.221899 0.0474248 -0.976013 -0.212485
0.112893 -0.329646 -0.318346 0.0474281 -0.976012 -0.212487
0.330554 -0.154404 -0.209994 0.664185 0.189699 -0.723099
0.223421 -0.369966 0.326879 0.746062 -0.106836 0.65725
-0.0199854 -0.249687 -0.325046 -0.212253 0.975315 0.0609069
0.266813 -0.381807 -0.134466 0.437297 0.211545 -0.874082
0.163865 0.00375015 -0.321611 0.664185 0.189698 -0.723099
-0.175822 -0.286126 -0.21087 -0.0288143 0.973046 0.228804
0.0671043 0.218671 -0.00828419 -0.384 0.178563 -0.905902
-0.407542 -0.215136 -0.15166 0.651601 0.32722 0.684356
-0.0289079 0.0485261 0.263414 -0.867211 -0.145795 0.476119
0.226146 0.157906 0.376966 0.384 -0.178563 0.905903
0.119383 -0.168162 -0.315067 -0.67789 0.560606 -0.475589
0.0325167 0.4608 0.243761 -0.047427 0.976012 0.212488
0.336062 0.0781187 0.0531696 0.86721 0.145796 -0.476121
-0.054719 0.0788279 -0.502691 0.664186 0.1897 -0.723098
0.490561 -0.12082 0.0641392 0.746062 -0.106836 0.65725
0.0888246 -0.371125 0.457336 -0.664186 -0.189699 0.723098
0.191026 -0.343378 -0.237833 0.0474231 -0.976013 -0.212484
0.0662797 -0.48589 0.154816 -0.245581 -0.963556 0.106066
0.439796 -0.0758682 0.129072 0.746062 -0.106836 0.65725
0.134706 0.18202 0.17858 0.953211 -0.0193605 0.301686
0.0886613 -0.31736 -0.380189 0.0474289 -0.976012 -0.212488
0.00524167 0.125556 0.0154183 -0.676224 0.125193 -0.725981
0.289005 0.470212 0.0990099 0.718081 0.181185 -0.671961
0.0153997 -0.037307 0.36057 -0.047427 0.976012 0.212486
-0.325703 -0.426723 0.0296625 0.047427 -0.976012 -0.212486
-0.371106 -0.035925 -0.225215 -0.746062 0.106836 -0.65725
0.393245 -0.0742411 0.182177 0.746062 -0.106836 0.65725
-0.247378 0.0270522 0.00629702 -0.047427 0.976012 0.212486
-0.421663 -0.324512 -0.214737 -0.746062 0.106836 -0.65725
0.288077 0.448217 0.3586 -0.0474276 0.976012 0.212487
0.498782 -0.0492066 0.066449 0.746062 -0.106836 0.65725
0.371487 -0.22056 -0.189752 0.664185 0.189699 -0.723099
0.480883 -0.0495562 -0.011103 0.008446 0.965303 0.260997
0.201568 0.204859 -0.0204822 0.250679 0.217548 -0.94331
0.278034 0.201122 0.0176217 0.606574 0.197153 -0.770194
-0.0686251 0.457436 0.184979 -0.960358 0.0139484 -0.278421
0.212114 -0.118685 0.260893 0.228426 0.869508 0.437924
-0.161183 -0.197441 0.0285509 -0.744798 0.251107 -0.61824
0.260389 0.410552 0.0574267 0.566263 0.201512 -0.799212
-0.533137 -0.1876 -0.0659441 -0.746062 0.106836 -0.65725
-0.13259 -0.45026 0.18088 0.047427 -0.976012 -0.212486
0.225955 -0.186376 0.353844 0.746062 -0.106836 0.65725
-0.0638185 -0.0606818 0.398572 -0.664186 -0.189686 0.723102
0.105927 -0.0543701 -0.259106 -0.698937 -0.185597 -0.690682
-0.0852527 -0.227581 -0.0935624 -0.661338 0.600089 -0.450027
0.243178 0.269717 0.390351 0.473903 -0.165274 0.864928
0.162874 0.107834 0.171815 -0.937144 0.0301455 -0.347638
-0.0344622 -0.181052 0.393958 -0.664188 -0.189692 0.723098
0.164255 0.454339 0.302841 -0.0474269 0.976012 0.212486
-0.0299337 0.44219 0.315304 -0.0474273 0.976013 0.212486
-0.334625 -0.0319324 -0.160006 0.579161 -0.742174 0.337271
-0.228729 -0.0561503 -0.341651 0.734695 -0.344371 0.584493
-0.469241 -0.272187 -0.0599919 0.566074 0.504158 0.652216
-0.217882 0.0073492 0.103382 -0.0474271 0.976012 0.212487
-0.486757 0.0103163 0.0287171 -0.664185 -0.189698 0.723099
-0.539964 -0.0238288 -0.0315736 -0.746062 0.106836 -0.65725
0.130041 -0.41461 0.425621 0.746062 -0.106836 0.65725
0.019829 -0.236276 -0.389852 -0.139827 0.981722 0.129113
0.353954 0.237861 0.21581 0.995748 0.0293787 0.0873063
-0.29326 -0.168667 -0.281329 0.684849 0.233421 0.690288
-0.0695858 0.305911 0.214752 -0.998663 -0.0507122 0.0100342
0.0896633 0.0147065 -0.284075 -0.514642 -0.585543 -0.626325
-0.113451 0.140457 -0.484712 -0.047427 0.976012 0.212486
-0.448485 -0.268195 -0.175135 -0.746062 0.106836 -0.65725
0.041017 -0.210784 -0.262607 -0.57916 0.742174 -0.33727
-0.219269 -0.28314 0.0248073 -0.602003 0.709209 -0.3669
0.122912 0.423693 0.239958 0.955768 0.10616 -0.274295
-0.218239 -0.00668011 -0.393984 -0.746062 0.106836 -0.65725
-0.155116 0.120341 -0.44499 -0.746062 0.106836 -0.65725
-0.25921 0.00180057 -0.205981 0.474016 -0.854827 0.211139
-0.140541 -0.26941 -0.0809751 -0.554879 0.773292 -0.306803
0.390592 0.0550986 0.0198669 -0.047427 0.976012 0.212486
0.142911 -0.0656626 0.467732 0.746062 -0.106836 0.65725
-0.215087 -0.233926 0.0764635 -0.726896 0.389776 -0.565418
-0.252659 -0.243743 -0.393448 -0.746062 0.106836 -0.65725
0.0828133 0.448202 0.312853 -0.0474271 0.976012 0.212486
0.00669952 0.361575 0.0552414 -0.638737 0.133916 -0.757682
0.485722 0.0657467 -0.00971368 0.664185 0.189702 -0.723098
0.0105184 -0.00655527 0.298896 -0.682577 -0.186977 0.70649
0.0260553 -0.168918 -0.188733 -0.726896 0.389774 -0.565419
-0.0813005 -0.243708 -0.363999 0.119778 0.927768 0.353412
-0.117452 -0.341827 -0.313809 0.047427 -0.976012 -0.212486
-0.041809 0.334392 0.327452 -0.86721 -0.145795 0.47612
0.0942736 -0.291608 -0.463018 0.664185 0.189699 -0.723099
0.0809128 0.0106404 0.34782 -0.345705 -0.215618 0.913234
-0.205488 -0.249612 0.21888 -0.664185 -0.189699 0.723099
-0.200544 -0.368473 -0.209961 0.047427 -0.976012 -0.212486
-0.0757067 0.0504255 -0.419464 0.502242 -0.829689 0.24366
0.0729616 -0.250373 0.474444 -0.664183 -0.189699 0.723101
0.203471 0.0482532 0.362513 0.242279 -0.195133 0.950381
0.415473 -0.343482 -0.181597 0.664185 0.189699 -0.723099
0.422547 -0.359863 -0.110437 0.047427 -0.976012 -0.212486
0.349631 0.0534611 0.2313 0.928233 -0.0355121 0.370299
0.41986 0.0434894 0.0797238 -0.047427 0.976012 0.212486
0.291242 0.0579559 -0.0154325 -0.047427 0.976012 0.212486
0.438287 -0.380799 -0.0107549 0.0474274 -0.976013 -0.212485
0.536752 -0.0196541 0.0147549 0.664185 0.189699 -0.723099
0.180359 -0.424086 0.0637825 -0.314015 0.187372 -0.930745
0.235004 -0.17816 -0.303991 0.664185 0.189699 -0.723099
0.000414068 -0.242291 0.409927 -0.664185 -0.189699 0.723099
0.256597 -0.319455 0.297431 0.746062 -0.106836 0.65725
0.150705 -0.0636065 0.289705 0.734695 -0.344372 0.584493
-0.153395 -0.195577 -0.391804 0.514644 0.585541 0.626326
0.169482 0.335915 0.00281809 0.15316 0.217316 -0.96401
-0.400642 -0.194736 -0.217502 -0.746062 0.106836 -0.65725
-0.024534 0.292728 0.0763662 -0.808486 0.0874172 -0.581987
0.548933 -0.254391 -0.0356386 0.664179 0.1897 -0.723105
-0.37217 -0.346349 0.0240193 -0.103048 0.981267 0.162776
0.225837 -0.0631383 0.202839 0.730661 0.0398231 0.681578
-0.235199 -0.364799 0.161371 -0.664185 -0.189699 0.723099
0.303273 -0.292606 0.248811 0.746062 -0.106836 0.65725
-0.21411 -0.305771 -0.0980508 -0.247716 0.968469 0.0265366
-0.505603 -0.330152 -0.0779129 -0.664185 -0.1897 0.723099
-0.0579365 0.131875 -0.432901 -0.047427 0.976012 0.212486
0.179578 -0.296713 0.388554 0.746062 -0.106836 0.65725
0.380987 0.0156872 -0.119048 0.664186 0.189698 -0.723099
0.0126641 0.118448 -0.355469 -0.0474269 0.976012 0.212486
0.420046 -0.25251 0.122777 0.746062 -0.106836 0.65725
-0.357315 -0.107213 -0.20915 0.744798 -0.25111 0.618239
-0.337815 -0.331281 -0.0392376 -0.0288143 0.973046 0.228804
-0.0665193 -0.00731259 -0.13839 -0.428079 -0.696469 -0.575915
0.224039 -0.25696 0.344547 0.746062 -0.106836 0.65725
0.350201 0.0647717 -0.0335797 -0.047427 0.976012 0.212486
0.0194736 0.0875214 -0.211894 -0.0474271 0.976012 0.212486
-0.180684 0.0276634 -0.431032 -0.746062 0.106836 -0.65725
0.0774794 -0.0726046 0.525229 -0.664185 -0.189702 0.723099
0.333741 0.150764 0.0711864 0.86721 0.145796 -0.476121
0.206101 -0.356422 -0.174549 0.0474256 -0.976013 -0.212486
0.345077 0.427919 0.214843 0.991652 0.0715411 -0.107272
-0.0579772 -0.124395 -0.0771276 -0.730661 -0.0398202 -0.681578
0.00913031 0.171244 0.344308 -0.64538 -0.192304 0.739259
0.0228315 -0.447847 0.193434 -0.718082 -0.181185 0.671961
0.140064 -0.341548 0.426119 0.746062 -0.106836 0.65725
0.0239991 -0.367568 0.398725 -0.664185 -0.189699 0.723099
-0.0831101 -0.0354443 0.330026 -0.047427 0.976012 0.212486
0.121699 -0.498374 0.0111579 -0.349408 -0.869507 -0.349103
-0.418135 0.0406341 -0.159387 -0.746062 0.106836 -0.65725
0.0147386 -0.259635 -0.527685 0.664185 0.189699 -0.723099
0.275507 -0.131912 0.30645 0.746062 -0.106836 0.65725
0.228253 0.0225569 -0.257536 0.664185 0.189699 -0.723099
0.235273 -0.504427 0.0555197 0.435367 -0.899532 -0.0360263
-0.196919 -0.343013 -0.326099 0.047427 -0.976012 -0.212486
0.223148 -0.0384513 0.381076 0.746062 -0.106836 0.65725
0.350965 -0.424806 0.173186 0.746062 -0.106836 0.65725
0.01605 0.474338 0.177902 -0.0474278 0.976012 0.212488
0.158847 0.0680181 -0.0912018 -0.047427 0.976012 0.212486
-0.0499969 -0.237471 -0.581332 0.664183 0.189701 -0.7231
0.262008 -0.468552 -0.0150455 0.398672 -0.819556 -0.411568
0.246377 0.0893018 -0.223379 0.664185 0.189699 -0.723099
0.349019 -0.248392 0.204071 0.746062 -0.106836 0.65725
0.14753 0.131095 -0.0436061 0.00433599 0.212925 -0.977059
-0.4116 -0.0390604 -0.0280408 0.444614 -0.877838 0.178095
-0.284568 -0.317958 -0.0891915 -0.0288143 0.973046 0.228804
-0.0206516 -0.14923 -0.121733 -0.747077 0.203486 -0.632827
-0.0522342 0.0879973 0.218776 -0.962706 -0.101389 0.250833
0.185267 0.0632628 -0.286341 0.664185 0.189698 -0.723099
0.373595 -0.174226 0.18823 0.746062 -0.106836 0.65725
0.180453 0.0858145 -0.168124 -0.047427 0.976012 0.212486
-0.202852 -0.405993 -0.0381345 0.0474271 -0.976012 -0.212487
0.181021 -0.122646 -0.339013 0.664186 0.189697 -0.723099
-0.294819 -0.386409 -0.14862 0.047427 -0.976012 -0.212486
-0.0696185 -0.410827 0.0138066 0.0474273 -0.976012 -0.212487
0.270518 -0.0144064 0.320185 0.559098 -0.150342 0.815357
0.354169 0.188778 0.14375 0.984443 0.0817018 -0.155552
0.158427 -0.311407 -0.391957 0.047427 -0.976012 -0.212486
