ply
format ascii 1.0
comment Created by Open3D
element vertex 832
property double x
property double y
property double z
property double nx
property double ny
property double nz
end_header
0.324261 0.448172 -0.00327831 -0.263421 0.948563 -0.175607
0.273483 0.287685 -0.250342 -0.194835 0.631138 -0.750802
-0.127957 0.148375 -0.325447 0.0178336 -0.177216 -0.98401
0.0129887 0.214581 -0.244474 -0.219212 0.732871 -0.644086
0.368625 0.176953 -0.321594 0.0178337 -0.177216 -0.98401
0.190786 0.397611 -0.0761656 -0.263421 0.948563 -0.175607
0.0407655 -0.143658 0.24892 -0.259159 0.919165 -0.296603
-0.0578578 0.164483 0.265735 -0.0178337 0.177216 0.98401
-0.130658 -0.163369 -0.0743654 -0.964516 -0.262341 0.0297666
0.144738 0.246491 -0.274601 -0.224292 0.873625 0.431824
0.464927 -0.198421 0.168512 0.263421 -0.948563 0.175607
0.349045 -0.119474 0.215149 0.263421 -0.948563 0.175607
-0.172616 0.261397 -0.266819 -0.263421 0.948563 -0.175607
-0.119117 -0.19937 -0.0176794 -0.964516 -0.262341 0.0297661
-0.000655043 0.228787 -0.284464 0.0216224 0.0338756 0.999192
0.422745 -0.159761 0.156408 0.0178338 -0.177216 -0.98401
0.00684039 -0.284099 -0.199425 0.248049 -0.939002 -0.238215
0.000995579 0.277454 0.246456 -0.0178337 0.177216 0.98401
0.240431 -0.172336 0.0925355 0.263421 -0.948563 0.175607
0.0303592 0.135861 0.272488 -0.0178337 0.177216 0.98401
0.541289 -0.172998 -0.0829435 0.964516 0.26234 -0.0297661
-0.373156 -0.0196587 -0.0130683 -0.248745 0.865112 -0.435553
0.12068 -0.187563 0.189914 0.263421 -0.948563 0.175607
-0.0234461 -0.124437 0.222017 0.155662 -0.473968 0.866674
-0.0960256 -0.259879 0.124364 0.263421 -0.948563 0.175607
0.522029 0.00657443 0.1757 0.964515 0.262345 -0.0297678
0.0960996 0.244896 0.254043 -0.0178337 0.177216 0.98401
0.243268 0.320905 -0.272583 0.262894 -0.943849 0.200087
-0.376417 -0.0535923 0.0374095 0.0347158 -0.0142517 0.999296
-0.159241 -0.124797 0.0392966 -0.964516 -0.262341 0.0297656
0.371909 -0.132396 -0.186084 -0.261352 0.932671 -0.248636
0.400195 0.43174 -0.0249471 0.964516 0.262341 -0.0297661
0.263325 0.235834 0.258706 -0.0178336 0.177216 0.98401
-0.201644 0.0425323 0.140065 -0.964516 -0.26234 0.0297661
0.518241 0.0110662 0.0925553 0.964516 0.262341 -0.0297662
0.242974 -0.0610615 0.303171 0.173656 -0.545424 0.819973
0.197796 0.188192 0.266098 -0.0178336 0.177216 0.98401
-0.0853803 0.256399 -0.290453 -0.173656 0.545424 -0.819973
0.426837 -0.172147 0.182067 -0.964516 -0.262341 0.0297659
0.51752 -0.177773 0.201151 0.263421 -0.948563 0.175607
-0.0916188 0.22997 -0.253705 0.255384 -0.95561 -0.146934
-0.120644 -0.110872 0.314187 -0.0178337 0.177216 0.98401
0.256045 0.452674 0.154642 -0.964517 -0.262339 0.0297673
-0.124344 -0.199763 -0.190508 -0.964516 -0.262341 0.0297649
0.0879038 0.242104 -0.284283 -0.0946907 0.448953 0.888524
0.453635 0.25647 0.161968 0.964516 0.262341 -0.0297662
0.537934 -0.131304 0.223943 -0.0178337 0.177216 0.98401
0.243493 0.370536 0.179733 -0.0733401 0.15791 -0.984726
0.103742 -0.00649474 0.299456 -0.0178336 0.177216 0.98401
0.50025 -0.203503 0.0880722 0.263421 -0.948563 0.175607
0.290109 0.117726 -0.31235 0.0178337 -0.177216 -0.98401
0.351745 0.0125339 0.300524 -0.0178336 0.177216 0.98401
-0.241822 -0.0521507 -0.000321945 0.262516 -0.964926 0.00206707
-0.109492 -0.175111 0.320942 0.0781668 -0.176047 0.981273
-0.0486915 -0.230616 0.211428 0.263421 -0.948563 0.175607
0.182348 0.111299 0.279666 -0.0178336 0.177216 0.98401
0.038274 0.245161 -0.237542 0.0178332 -0.177215 -0.984011
-0.0687609 -0.218557 -0.258291 0.0178337 -0.177216 -0.98401
-0.094703 0.231886 -0.304785 -0.173656 0.545424 -0.819973
0.165792 0.168902 0.268992 -0.0178336 0.177216 0.98401
0.429033 0.301379 -0.239416 0.964516 0.262341 -0.0297662
0.526656 -0.0457379 -0.135396 0.964516 0.26234 -0.0297654
0.385396 0.459151 -0.0356778 -0.263421 0.948563 -0.175607
0.256533 -0.185599 -0.219245 0.198877 -0.796046 -0.571628
0.105336 0.40152 0.0731281 -0.263421 0.948563 -0.175607
0.330974 -0.188081 -0.128337 0.263421 -0.948563 0.175607
-0.199721 0.163969 -0.329503 0.0113619 -0.153878 -0.988025
-0.194779 -0.00609643 -0.0660875 -0.964516 -0.262339 0.0297661
-0.110062 0.219519 -0.272426 0.219212 -0.732869 0.644088
0.078237 -0.240649 -0.0331699 0.263421 -0.948563 0.175607
-0.0701753 0.304198 0.1849 0.130362 -0.571234 -0.810369
-0.106831 0.0331597 -0.304314 0.0178336 -0.177216 -0.98401
0.512735 0.00114004 -0.173338 0.964516 0.262341 -0.0297662
0.0872058 0.269999 -0.281595 0.194833 -0.631129 0.750811
0.318356 0.344663 0.240103 -0.0178336 0.177216 0.98401
0.162607 0.143326 -0.319272 0.0178337 -0.177216 -0.98401
0.0767944 -0.235011 -0.000551587 0.263421 -0.948563 0.175607
0.368753 0.446109 -0.0811621 -0.263421 0.948563 -0.175607
0.399448 0.359906 -0.346308 -0.102509 0.268195 -0.957895
0.511927 -0.148606 -0.187441 0.264019 -0.959029 0.102747
0.489887 0.129742 0.219714 0.964516 0.262341 -0.0297628
0.0338514 -0.182741 -0.164588 0.163126 -0.680771 -0.714101
0.535641 -0.138745 0.0359162 0.964516 0.26234 -0.0297661
0.377963 -0.0948298 -0.171272 0.0946865 -0.448939 -0.888532
0.406444 0.379909 -0.279257 0.964516 0.262341 -0.02976
0.319342 0.394209 -0.286975 -0.262904 0.943929 -0.1997
-0.0174631 -0.259147 0.0104688 0.263421 -0.948563 0.175607
0.48301 -0.103006 -0.194608 -0.263594 0.963237 -0.0518922
0.443757 -0.106598 0.217787 -0.0178337 0.177216 0.98401
0.275454 -0.173206 0.0352965 0.263421 -0.948563 0.175607
0.0708195 0.228337 -0.248739 -0.232777 0.791744 -0.564762
0.18622 0.41062 0.000949459 -0.263421 0.948563 -0.175607
0.15777 -0.188913 -0.19652 -0.224292 0.873623 0.431829
0.409732 -0.141157 0.00699198 0.263421 -0.948563 0.175607
0.178802 0.193746 -0.328059 0.0178337 -0.177216 -0.98401
-0.179785 0.150732 0.266002 -0.0178337 0.177216 0.98401
0.38457 0.433722 -0.171798 -0.263421 0.948563 -0.175607
0.38959 -0.0781602 -0.195271 0.264017 -0.959154 0.101582
0.363126 0.402976 0.176025 -0.0733401 0.15791 -0.984726
-0.219793 0.0790919 -0.125812 -0.964516 -0.26234 0.0297667
0.0610088 0.270273 -0.270614 0.256322 -0.903378 0.343814
-0.211856 0.0607617 -0.0301637 -0.964516 -0.262342 0.0297621
-0.0192297 0.199701 -0.261433 -0.258405 0.961106 0.0974744
-0.139202 0.344852 0.133849 -0.263421 0.948563 -0.175607
0.173215 0.280912 -0.328914 -0.173656 0.545424 -0.819973
0.0541279 0.240663 -0.330466 -0.173656 0.545424 -0.819973
0.148573 0.378611 -0.11548 -0.263421 0.948563 -0.175607
-0.0657344 -0.24058 0.183171 0.263421 -0.948563 0.175607
0.0741096 -0.155993 -0.266969 0.0178337 -0.177216 -0.98401
0.377894 -0.163486 -0.0658633 0.263421 -0.948563 0.175607
0.0876949 -0.234267 -0.210212 0.198877 -0.796046 -0.571628
-0.138884 -0.107519 0.151327 -0.964516 -0.262341 0.0297654
0.196102 -0.0579941 0.22076 0.219212 -0.732869 0.644088
0.15877 0.376729 0.156509 0.263594 -0.963237 0.051883
0.255339 -0.00072332 0.301164 -0.0178336 0.177216 0.98401
-0.194739 0.303732 -0.0049561 -0.263421 0.948563 -0.175607
0.0738601 0.268936 -0.246472 0.173268 -0.714002 -0.678366
0.167995 -0.215094 -0.0297725 0.263421 -0.948563 0.175607
0.457435 -0.187945 0.1011 -0.964516 -0.26234 0.029766
-0.221071 0.258625 -0.209108 -0.263421 0.948563 -0.175607
-0.166519 0.00734822 0.268236 -0.964516 -0.262341 0.0297661
-0.111653 0.312422 -0.0826494 -0.263421 0.948563 -0.175607
0.424264 0.334252 -0.104247 0.964516 0.262341 -0.0297662
0.284951 0.382177 -0.294973 -0.256494 0.904301 -0.341248
0.210468 -0.227032 -0.157968 0.263421 -0.948563 0.175607
-0.118656 0.351702 0.189048 -0.243312 0.926957 0.285571
-0.0827236 0.265639 0.247066 -0.0178337 0.177216 0.98401
0.48717 0.117978 0.0279982 0.964516 0.262341 -0.0297662
-0.205927 0.124359 0.0824771 -0.201026 0.802784 0.561362
0.5175 -0.00554577 -0.0778715 0.964516 0.262341 -0.0297662
-0.214226 0.147615 -0.0413867 -0.964516 -0.262341 0.0297662
-0.192331 -0.0195412 -0.105251 -0.964516 -0.26234 0.0297659
-0.363479 -0.0444555 -0.0321687 -0.0606035 0.110252 -0.992054
0.111242 0.356442 0.229549 -0.198877 0.796046 0.571628
-0.0177268 -0.281805 -0.111526 0.263421 -0.948563 0.175607
-0.244378 0.2815 0.16156 -0.964516 -0.26234 0.0297684
0.544269 -0.0887976 0.0880017 0.263421 -0.948563 0.175607
0.349866 0.205316 0.26577 -0.0178336 0.177216 0.98401
0.114082 -0.239054 -0.194365 0.198877 -0.796046 -0.571628
-0.167219 -0.0948175 0.0450187 -0.964516 -0.262341 0.0297659
0.20728 -0.20087 -0.0118676 0.263421 -0.948563 0.175607
0.402616 0.445414 0.174028 0.964516 0.26234 -0.0297653
0.372973 0.431916 0.163283 0.21707 -0.852108 -0.476227
0.187639 0.122724 -0.315107 0.0178337 -0.177216 -0.98401
0.417581 0.283236 0.252964 -0.0178337 0.177216 0.98401
-0.220292 0.186225 0.102338 -0.964514 -0.262347 0.0297681
0.164611 0.354593 0.133866 0.0477208 -0.0623358 0.996914
0.344112 0.0395315 -0.297289 0.0178337 -0.177216 -0.98401
0.415337 0.100973 -0.307064 0.0178337 -0.177216 -0.98401
0.0117318 -0.219254 -0.256707 0.0178337 -0.177216 -0.98401
0.170554 0.360153 -0.248153 -0.263421 0.948563 -0.175607
0.214699 0.355747 -0.287921 -0.173656 0.545424 -0.819973
-0.220645 0.141543 0.0394731 -0.242547 0.924947 0.292648
-0.10144 0.172194 -0.329256 0.0178336 -0.177216 -0.98401
-0.0639355 -0.201556 -0.181659 0.264017 -0.959153 0.101586
-0.0472249 0.347858 0.0121137 -0.263421 0.948563 -0.175607
0.431567 0.0607304 -0.299522 0.0178337 -0.177216 -0.98401
-0.373162 -0.0278264 0.0281991 -0.152574 0.64583 0.748081
0.402881 0.387551 -0.327368 0.964517 0.262338 -0.029768
0.0267699 0.327315 0.237943 -0.0178337 0.177216 0.98401
-0.0936348 0.354067 0.115271 -0.263421 0.948563 -0.175607
0.192368 0.27295 -0.288618 -0.0696817 0.361677 0.929696
0.162793 0.00837356 -0.294964 0.0178337 -0.177216 -0.98401
-0.0557609 0.316677 -0.143511 -0.263421 0.948563 -0.175607
0.22316 -0.0461825 0.227783 0.259159 -0.919167 0.296595
0.529573 -0.184499 0.146739 0.263421 -0.948563 0.175607
-0.00809217 -0.0472 -0.288052 0.0178337 -0.177216 -0.98401
0.524524 -0.0334629 -0.096298 0.964516 0.262341 -0.0297662
-0.0252508 0.191309 0.261495 -0.0178337 0.177216 0.98401
0.43884 -0.200255 0.197738 0.263421 -0.948563 0.175607
-0.00806609 -0.0768124 0.310094 -0.0178338 0.177216 0.98401
0.323836 -0.114764 0.250325 0.173656 -0.545424 0.819973
0.273964 0.417106 -0.0956342 -0.263421 0.948563 -0.175607
0.0796895 0.395723 0.0802846 -0.263421 0.948563 -0.175607
0.546435 -0.12063 -0.15456 0.964516 0.262341 -0.0297662
0.16643 -0.164141 -0.210542 0.0216256 0.0338637 0.999192
0.287119 0.465588 0.156827 -0.260928 0.964343 0.0442558
0.363428 0.411392 -0.260705 -0.263421 0.948563 -0.175607
0.277793 -0.17767 0.00767502 0.263421 -0.948563 0.175607
0.4603 0.236604 0.202833 0.964516 0.262341 -0.0297654
0.301612 0.2845 -0.342177 0.0178337 -0.177216 -0.98401
0.227723 -0.183567 -0.232098 0.198877 -0.796046 -0.571628
0.264906 -0.159428 -0.252778 0.198877 -0.796046 -0.571628
0.0603942 0.227638 0.256504 -0.0178337 0.177216 0.98401
0.346482 -0.136782 0.1255 0.263421 -0.948563 0.175607
0.41205 -0.022949 0.253627 -0.0733401 0.15791 -0.984726
0.364007 0.416752 -0.232616 -0.263421 0.948563 -0.175607
0.190975 -0.176571 0.143845 0.263421 -0.948563 0.175607
-0.172652 -0.0649238 0.132424 -0.964516 -0.262339 0.0297667
-0.210042 0.121277 -0.137935 -0.964516 -0.262341 0.0297662
-0.071019 0.176108 -0.32941 0.0178337 -0.177216 -0.98401
0.484726 0.14039 0.14636 0.964516 0.262341 -0.0297662
-0.110928 -0.217229 0.0902469 -0.964516 -0.262341 0.0297661
0.224531 -0.0212849 0.304309 -0.0178336 0.177216 0.98401
0.482132 0.107772 -0.225195 0.964515 0.262346 -0.0297373
0.433995 -0.200317 0.125576 -0.263421 0.948563 -0.175607
0.498421 0.0720262 -0.0124277 0.964516 0.262341 -0.0297662
-0.0388109 -0.0689886 -0.284685 0.0178336 -0.177216 -0.98401
0.54041 -0.139937 0.17993 0.964516 0.26234 -0.0297661
-0.153987 -0.0915319 -0.197178 -0.964516 -0.262341 0.0297661
0.470462 -0.190196 0.204638 0.263421 -0.948563 0.175607
-0.192905 0.0545749 -0.170522 -0.964516 -0.262339 0.0297667
-0.0970806 -0.259737 -0.250685 0.0499442 -0.291994 -0.955115
0.195338 -0.105926 -0.273789 0.0178337 -0.177216 -0.98401
-0.108339 0.257209 -0.310431 0.964516 0.26234 -0.029763
0.234451 0.376213 -0.257254 -0.263421 0.948563 -0.175607
-0.0535081 0.203898 0.258715 -0.0178337 0.177216 0.98401
0.426924 0.352582 0.143501 0.964516 0.262341 -0.0297662
0.329302 0.114422 0.281767 -0.0178336 0.177216 0.98401
-0.253301 0.308342 0.107792 -0.263421 0.948563 -0.175607
-0.0470844 0.360976 0.0827622 -0.263421 0.948563 -0.175607
-0.438922 -0.0984382 -0.0161641 0.192245 -0.775097 -0.601886
0.0305774 -0.219555 -0.165548 -0.211606 0.700673 -0.681381
0.290619 -0.178844 -0.0179039 0.263421 -0.948563 0.175607
0.39815 0.0695257 -0.301712 0.0178337 -0.177216 -0.98401
0.439567 0.262706 -0.238942 0.964516 0.262341 -0.0297662
0.482788 0.122673 -0.0726046 0.964516 0.262341 -0.0297662
0.133869 0.363052 0.142179 0.211602 -0.700656 0.6814
-0.245054 0.316846 0.194393 -0.23799 0.912684 0.332217
0.315228 -0.154705 0.0755716 0.263421 -0.948563 0.175607
0.471745 -0.0108784 0.204911 -0.0568934 0.316606 0.946849
0.0337309 0.338802 -0.15824 -0.263421 0.948563 -0.175607
0.475187 0.189367 0.268912 0.964516 0.262341 -0.0297662
0.216951 -0.155831 0.216907 0.263421 -0.948563 0.175607
0.328249 -0.0327465 0.209367 0.122142 -0.343406 0.931211
0.517913 -0.0204116 -0.195491 0.964516 0.262339 -0.029775
0.344864 -0.0227169 0.306747 -0.0178336 0.177216 0.98401
0.474966 0.159065 -0.00531815 0.964516 0.26234 -0.0297654
0.10315 0.211693 -0.332662 0.0178337 -0.177216 -0.98401
-0.168954 0.191564 -0.278261 0.110316 -0.298002 0.948169
0.450872 0.203469 0.267933 -0.0178337 0.177216 0.98401
-0.247217 0.275688 0.0183572 -0.964514 -0.262347 0.0297687
0.208084 -0.212254 -0.0745642 0.263421 -0.948563 0.175607
0.248154 -0.155547 0.171638 0.263421 -0.948563 0.175607
-0.0143974 -0.0422129 0.303748 -0.0178338 0.177216 0.98401
-0.127905 0.216708 -0.243721 0.209309 -0.828478 -0.519436
-0.0444512 0.195563 -0.247489 -0.244025 0.842732 -0.479848
-0.100637 -0.260597 -0.185178 -0.242546 0.924946 0.292654
-0.215467 -0.0109423 0.0324161 0.0477189 -0.0623289 0.996914
0.410638 -0.0889436 -0.21669 0.122138 -0.343392 0.931216
-0.155642 0.212827 -0.257107 0.263594 -0.963237 0.0518837
-0.0406655 0.181051 -0.32975 0.0178337 -0.177216 -0.98401
0.369621 -0.0145679 0.249785 0.141641 -0.609278 -0.780204
0.381039 -0.152687 -0.221762 0.198877 -0.796046 -0.571628
0.256617 -0.187042 -0.011184 0.263421 -0.948563 0.175607
-0.16856 -0.106765 -0.103723 -0.964516 -0.26234 0.0297661
-0.22019 0.315391 0.210403 -0.203078 0.80919 0.551335
-0.120585 -0.221202 -0.257683 -0.964516 -0.262341 0.0297662
-0.102123 -0.286731 -0.236999 0.145355 -0.621734 -0.769622
-0.125231 0.344164 0.109175 -0.263421 0.948563 -0.175607
0.437563 0.30083 0.0321225 0.964516 0.262341 -0.0297662
0.266342 -0.12014 0.258925 0.173656 -0.545424 0.819973
-0.161307 -0.121996 -0.00295468 -0.964516 -0.262341 0.0297662
-0.0502057 -0.22394 0.249759 0.263421 -0.948563 0.175607
-0.0512436 0.0104872 -0.299224 0.0178336 -0.177216 -0.98401
-0.0816049 0.300322 0.240607 -0.198877 0.796046 0.571628
0.507436 -0.235064 -0.0931906 0.263421 -0.948563 0.175607
-0.0322765 -0.193181 -0.2622 0.0178337 -0.177216 -0.98401
-0.212412 -0.0391181 0.0155922 0.238696 -0.818246 0.52297
0.334781 0.455767 0.0219646 -0.263421 0.948563 -0.175607
0.252532 0.10578 -0.31088 0.0178337 -0.177216 -0.98401
0.482367 -0.223143 0.0088111 0.263421 -0.948563 0.175607
0.419682 0.38202 0.168289 0.964517 0.262338 -0.0297725
-0.226967 0.220459 0.187736 -0.964516 -0.262341 0.0297662
0.148244 0.239881 0.255891 -0.0178337 0.177216 0.98401
0.325963 -0.0669415 -0.278443 0.0178337 -0.177216 -0.98401
0.249213 -0.0558861 0.211287 0.0982268 -0.251901 0.962755
0.496901 0.0593227 -0.173621 0.964516 0.262341 -0.0297662
-0.405905 -0.0603025 -0.0311336 -0.0347158 0.0142517 -0.999296
-0.0520567 0.331103 -0.0711418 -0.263421 0.948563 -0.175607
-0.0877548 -0.135385 0.319198 -0.0178337 0.177216 0.98401
0.187201 -0.0121525 0.301987 -0.0178336 0.177216 0.98401
-0.214791 0.141485 -0.113745 -0.964516 -0.262341 0.0297662
0.472048 -0.212145 0.0836948 0.263421 -0.948563 0.175607
0.272595 0.215372 -0.330253 0.0178337 -0.177216 -0.98401
0.112036 -0.166227 -0.163564 0.106856 -0.490964 -0.864602
-0.218964 0.151885 -0.157304 -0.964516 -0.26234 0.029766
-0.212246 0.27072 -0.157016 -0.263421 0.948563 -0.175607
0.440139 0.295753 0.0708447 0.964516 0.262342 -0.0297683
-0.203731 0.198876 0.256897 -0.0178338 0.177216 0.98401
0.494235 0.0754202 -0.11814 0.964516 0.262341 -0.0297662
0.284454 -0.139798 0.202257 0.263421 -0.948563 0.175607
-0.0958274 -0.137911 0.261116 0.182988 -0.745488 -0.640908
-0.17193 -0.0363013 -0.29182 -0.964516 -0.262341 0.0297662
0.01705 0.338741 -0.133546 -0.263421 0.948563 -0.175607
0.128533 0.221902 -0.33404 0.0178337 -0.177216 -0.98401
0.545574 -0.159265 0.208477 0.994692 -0.0966058 0.0354256
-0.0882545 -0.31237 -0.176573 0.262591 -0.964895 0.00479314
0.0497736 0.288259 -0.297884 -0.173656 0.545424 -0.819973
-0.0357925 0.344192 -0.0248345 -0.263421 0.948563 -0.175607
0.291816 0.458029 0.0986365 -0.263421 0.948563 -0.175607
0.199004 -0.057714 0.252011 0.182986 -0.745482 -0.640915
0.292678 0.463789 0.128455 -0.263421 0.948563 -0.175607
0.189283 0.403618 -0.0414652 -0.263421 0.948563 -0.175607
0.338832 -0.0305923 0.25484 0.056895 -0.316612 -0.946847
-0.188223 0.0225419 -0.301125 -0.964516 -0.262341 0.0297662
-0.0450346 -0.0537697 0.305274 -0.0178337 0.177216 0.98401
-0.154657 -0.148297 -0.0192667 -0.964516 -0.262341 0.0297665
0.272501 0.422066 -0.0666474 -0.263421 0.948563 -0.175607
-0.23089 0.243171 -0.27519 -0.259257 0.919737 -0.294738
-0.188275 0.0317159 -0.22197 -0.964516 -0.262341 0.0297661
-0.127024 -0.077588 0.308077 -0.0178337 0.177216 0.98401
0.441214 -0.0235005 0.30425 0.0656968 -0.129275 0.98943
-0.0299793 -0.236158 0.153422 0.263421 -0.948563 0.175607
-0.17978 0.300702 0.233698 -0.111443 0.506726 0.854874
-0.233232 0.19572 -0.233303 -0.964516 -0.262341 0.0297662
0.0154174 0.325439 -0.202949 -0.263421 0.948563 -0.175607
-0.129988 -0.139605 0.156797 -0.964516 -0.26234 0.0297668
0.535217 -0.063262 -0.0124424 0.964516 0.262341 -0.0297662
0.426816 -0.201596 -0.0781682 -0.964516 -0.262341 0.0297663
0.51214 0.0179337 -0.0445995 0.964516 0.262341 -0.0297662
0.0973226 -0.138392 0.28258 0.173656 -0.545424 0.819973
0.0320256 0.309612 -0.279922 -0.173656 0.545424 -0.819973
0.115905 0.246294 -0.283007 -0.141647 0.609298 0.780187
-0.261223 -0.00678982 0.0307252 -0.0822833 0.405801 0.91025
0.258474 0.40347 -0.146057 -0.263421 0.948563 -0.175607
-0.165281 -0.0502533 -0.199331 -0.964516 -0.262341 0.0297661
0.514303 0.0345463 0.1719 0.964516 0.262341 -0.0297662
0.0773603 -0.11547 0.302054 0.173656 -0.545424 0.819973
0.323767 -0.183494 -0.0927465 0.263421 -0.948563 0.175607
0.0679662 -0.215268 -0.177461 -0.261352 0.932671 -0.248636
0.350066 0.401552 -0.291906 -0.261395 0.932957 -0.247514
0.521969 -0.142969 -0.218865 0.243312 -0.926957 -0.28557
-0.150933 -0.109282 -0.27946 0.0178337 -0.177216 -0.98401
-0.0299505 -0.111858 0.316008 -0.0178337 0.177216 0.98401
0.52991 -0.131804 -0.122765 0.263421 -0.948563 0.175607
0.239009 -0.164709 -0.254434 0.198877 -0.796046 -0.571628
0.0549904 0.257803 0.250973 -0.0178337 0.177216 0.98401
0.409087 -0.152925 -0.248286 0.16626 -0.691078 -0.703398
0.43202 0.314331 -0.0284784 0.964516 0.262341 -0.0297662
-0.0493785 0.249437 0.250589 -0.0178337 0.177216 0.98401
0.307306 -0.185946 -0.201097 0.198877 -0.796046 -0.571628
0.296505 0.1083 0.282275 -0.0178336 0.177216 0.98401
-0.186423 -0.0178288 0.101282 -0.964516 -0.262341 0.0297661
0.228715 0.222815 0.260423 -0.0178336 0.177216 0.98401
-0.157974 0.289261 0.159999 0.256321 -0.903374 0.343824
0.481652 0.0200703 0.21243 0.226275 -0.763252 0.605183
0.411934 0.355046 -0.320482 0.964517 0.262336 -0.0297673
-0.224325 0.116677 0.0585924 -0.964516 -0.262341 0.0297675
-0.0215444 -0.280411 -0.22307 0.203079 -0.809192 -0.551332
0.546325 -0.188045 -0.0523694 0.964516 0.26234 -0.0297661
0.461868 0.2343 0.233319 0.964516 0.262341 -0.0297662
0.204777 0.0139988 0.297596 -0.0178336 0.177216 0.98401
0.384414 -0.154963 -0.0296086 0.263421 -0.948563 0.175607
0.189896 -0.188525 0.0808925 0.263421 -0.948563 0.175607
0.0532493 0.298191 0.157099 -0.251727 0.947737 0.19603
0.122867 0.27472 -0.28582 0.144835 -0.431467 0.890426
0.296924 -0.0444352 -0.283022 0.0178337 -0.177216 -0.98401
0.337938 -0.122635 -0.268195 0.0178337 -0.177216 -0.98401
0.398993 0.463092 0.212431 0.964516 0.262341 -0.0297659
0.044121 0.122118 -0.317599 0.0178337 -0.177216 -0.98401
-0.127207 -0.145951 0.190987 -0.964516 -0.262342 0.0297607
0.313969 0.179543 0.269761 -0.0178336 0.177216 0.98401
0.267089 -0.161403 -0.185014 -0.263784 0.952688 -0.151006
0.139491 0.067541 -0.306042 0.0178337 -0.177216 -0.98401
-0.0510566 -0.277466 -0.0380937 0.263421 -0.948563 0.175607
0.336683 0.419167 -0.178584 -0.263421 0.948563 -0.175607
0.25315 -0.124685 -0.170017 0.141643 -0.609285 -0.780198
0.116215 -0.214218 0.0526325 0.263421 -0.948563 0.175607
-0.181798 0.0134171 -0.173367 -0.964516 -0.262341 0.0297661
-0.22499 -0.0256277 -0.0338681 0.0696758 -0.361656 -0.929704
0.458589 0.21152 -0.0736721 0.964516 0.262341 -0.0297662
0.0192995 -0.211738 0.211408 0.263421 -0.948563 0.175607
0.5237 -0.0254573 -0.0524643 0.964516 0.262341 -0.0297662
-0.166334 -0.111399 -0.0724285 -0.964516 -0.262341 0.0297669
-0.238009 0.253 0.116756 -0.964516 -0.26234 0.0297661
0.0612638 -0.0946198 0.224977 0.219212 -0.732869 0.644088
-0.0646352 0.213191 -0.233916 -0.0216256 -0.0338638 -0.999192
0.101888 0.383453 -0.0192929 -0.263421 0.948563 -0.175607
0.281659 -0.165464 0.067807 0.263421 -0.948563 0.175607
0.0220532 -0.185285 -0.198976 0.203471 -0.666726 0.716991
0.460613 0.19881 -0.120108 0.964516 0.262341 -0.0297662
0.206392 0.173637 -0.323937 0.0178337 -0.177216 -0.98401
0.192529 0.0805735 -0.307428 0.0178337 -0.177216 -0.98401
0.241694 0.350859 0.237598 -0.0178337 0.177216 0.98401
0.455737 0.225734 -0.0408273 0.964516 0.262341 -0.0297662
-0.0966781 -0.168517 0.223727 -0.0946853 0.448934 0.888534
0.314575 -0.059199 0.253 -0.166101 0.515286 -0.840768
0.432096 0.323232 0.0524059 0.964516 0.262341 -0.0297662
0.0364557 -0.265298 -0.223694 0.964517 0.262336 -0.0297697
-0.315936 -0.010613 0.0249024 -0.163125 0.680768 0.714104
0.418723 0.345617 -0.183625 0.964516 0.262341 -0.0297662
0.167843 0.332759 0.239519 -0.0178337 0.177216 0.98401
-0.00252843 0.28764 0.178122 -0.226274 0.763248 -0.605188
0.264206 0.356167 0.162274 -0.25916 0.919169 -0.296587
0.113276 0.273613 -0.321075 -0.173656 0.545424 -0.819973
-0.0170615 0.375672 0.158131 -0.198877 0.796046 0.571628
-0.141179 0.167155 -0.261381 -0.247444 0.937507 0.244646
0.389331 0.490936 0.144749 0.964516 0.262341 -0.0297635
0.441646 -0.164894 -0.216134 0.243312 -0.926957 -0.28557
0.490833 0.115908 0.128455 0.964516 0.262341 -0.0297662
0.150217 0.0419781 -0.301244 0.0178337 -0.177216 -0.98401
0.419795 -0.143384 -0.0201338 0.263421 -0.948563 0.175607
-0.131319 -0.168858 -0.144156 -0.964516 -0.26234 0.0297649
-0.132035 -0.179904 -0.264723 -0.964516 -0.262341 0.0297662
0.216931 -0.173699 -0.196427 -0.237047 0.910089 0.339921
-0.0277485 -0.227799 -0.202016 -0.0946858 0.448936 0.888533
0.0284646 -0.237267 -0.235581 0.964516 0.262341 -0.0297662
0.0362105 0.335141 0.180026 0.152574 -0.645832 -0.748079
-0.345502 -0.0147125 -0.0181399 -0.232775 0.791734 -0.564777
0.087661 0.286622 -0.306997 -0.173656 0.545424 -0.819973
0.364343 0.312469 -0.346077 0.0178337 -0.177216 -0.98401
-0.185602 0.235322 0.179831 -0.248745 0.865112 -0.435555
-0.214346 0.179339 0.234316 -0.964516 -0.262341 0.0297662
-0.116952 0.0267516 0.289469 -0.0178337 0.177216 0.98401
0.224888 0.0320205 -0.298097 0.0178337 -0.177216 -0.98401
-0.105006 -0.25768 -0.0743428 -0.964516 -0.262341 0.0297661
-0.053602 -0.291226 -0.108601 0.263421 -0.948563 0.175607
-0.0784552 0.287672 -0.266143 -0.263421 0.948563 -0.175607
0.442464 0.114104 -0.308937 0.0178337 -0.177216 -0.98401
-0.0771629 -0.0449642 0.303106 -0.0178337 0.177216 0.98401
0.448429 0.278262 0.185334 0.964516 0.262341 -0.0297654
0.230574 -0.0671016 0.259507 -0.0216288 -0.0338519 -0.999193
0.54244 -0.156032 0.103865 0.964516 0.26234 -0.0297661
0.277251 0.160066 -0.320209 0.0178337 -0.177216 -0.98401
0.231469 0.308197 -0.248085 0.130359 -0.571224 -0.810376
0.0771249 -0.0825887 0.312678 -0.0178336 0.177216 0.98401
0.544652 -0.169377 0.0579273 0.964516 0.26234 -0.0297661
-0.166381 -0.0902957 0.11203 -0.964516 -0.262341 0.0297658
0.195683 -0.147358 0.255784 0.173656 -0.545424 0.819973
0.170413 0.412739 0.0361104 -0.263421 0.948563 -0.175607
0.0289527 0.258346 -0.27546 0.232775 -0.791735 0.564775
0.0820826 -0.227385 0.0327112 0.263421 -0.948563 0.175607
0.027491 0.377353 0.0593561 -0.263421 0.948563 -0.175607
0.49673 0.0974603 0.156956 0.964516 0.262341 -0.0297662
0.212634 0.122329 0.278229 -0.0178336 0.177216 0.98401
-0.178187 0.162498 -0.270441 -0.182987 0.745487 0.640909
0.444634 -0.14055 0.104019 -0.964516 -0.262341 0.0297662
-0.165417 -0.0970622 0.0836198 -0.964516 -0.262341 0.0297662
-0.171497 -0.0894129 -0.0459606 -0.964516 -0.26234 0.0297658
-0.0538801 0.349891 0.181224 -0.198877 0.796046 0.571628
-0.0691699 -0.215823 0.286915 0.233596 -0.795373 0.559299
0.519423 -0.123229 -0.251382 0.16626 -0.691079 -0.703397
-0.20343 0.0228186 -0.0915686 -0.964516 -0.262341 0.0297661
0.0172102 0.280818 -0.295937 -0.173656 0.545424 -0.819973
-0.107025 -0.224958 0.148622 -0.964516 -0.262341 0.0297661
0.530492 -0.0426024 0.0165325 0.964516 0.262341 -0.0297662
0.0395532 -0.160499 -0.266784 0.0178337 -0.177216 -0.98401
0.0231123 -0.0584484 0.307351 -0.0178337 0.177216 0.98401
0.500218 0.0936794 0.236645 0.964516 0.262341 -0.0297654
-0.118669 -0.166589 0.285735 -0.964516 -0.262341 0.0297661
-0.218537 0.286488 -0.0624034 -0.263421 0.948563 -0.175607
0.507003 0.0535228 0.102579 0.964516 0.262341 -0.0297662
-0.159911 0.0721781 -0.312303 0.0178336 -0.177216 -0.98401
0.533106 -0.0487668 0.0468811 0.964519 0.262332 -0.0297627
-0.134319 -0.135611 0.0516539 -0.964516 -0.262341 0.0297661
0.511402 -0.212129 0.0247495 0.263421 -0.948563 0.175607
0.36244 0.460255 0.00472155 -0.263421 0.948563 -0.175607
0.0840751 -0.219092 -0.232603 0.198877 -0.796046 -0.571628
0.494107 0.0561368 -0.292248 0.964516 0.262341 -0.0297663
0.457961 -0.195033 -0.147122 0.0178337 -0.177216 -0.98401
0.312404 0.246467 -0.335132 0.0178337 -0.177216 -0.98401
0.0995579 0.0222737 -0.298613 0.0178337 -0.177216 -0.98401
0.199268 -0.122556 0.271523 0.173656 -0.545424 0.819973
0.046976 0.335627 -0.19526 -0.263421 0.948563 -0.175607
0.250964 0.391856 -0.197526 -0.263421 0.948563 -0.175607
0.245934 -0.176713 0.060633 0.263421 -0.948563 0.175607
0.537359 -0.0476628 0.194449 0.964516 0.26234 -0.0297661
0.00599158 -0.112868 0.22353 0.194835 -0.631136 0.750804
0.0486384 -0.255225 -0.194614 0.198877 -0.796046 -0.571628
0.428661 -0.211518 -0.10584 -0.964516 -0.262341 0.0297664
0.151872 0.278151 -0.288345 0.0982271 -0.251902 0.962755
0.310688 -0.0617842 0.28835 0.173656 -0.545424 0.819973
-0.165777 -0.0872778 -0.127588 0.130362 -0.571234 -0.810369
0.112774 -0.19558 -0.166522 -0.194833 0.631129 -0.750811
-0.147711 0.295351 -0.120776 -0.263421 0.948563 -0.175607
0.4457 -0.258085 -0.124931 0.263421 -0.948563 0.175607
0.545391 -0.176431 0.019708 0.964516 0.26234 -0.0297661
0.149663 -0.159238 -0.265016 0.0178337 -0.177216 -0.98401
-0.135513 -0.141593 -0.0397529 -0.964516 -0.262341 0.0297666
-0.205422 0.0270845 -0.118513 -0.964516 -0.262341 0.0297659
0.449858 0.009338 0.211139 0.203471 -0.666726 0.71699
0.21579 -0.210658 -0.198523 0.198877 -0.796046 -0.571628
0.515476 -0.193401 0.1198 0.263421 -0.948563 0.175607
0.35581 -0.178396 -0.113276 0.263421 -0.948563 0.175607
0.322566 0.342944 -0.270446 0.262516 -0.964925 0.00207056
0.144889 -0.230873 -0.195039 0.198877 -0.796046 -0.571628
-0.146231 0.132323 0.269925 -0.0178338 0.177216 0.98401
0.517763 0.00925605 0.0611022 0.964516 0.262341 -0.0297662
0.389354 -0.173135 -0.135176 0.263421 -0.948563 0.175607
0.0546192 -0.018659 -0.292056 0.0178337 -0.177216 -0.98401
-0.167567 0.306807 -0.0291085 -0.263421 0.948563 -0.175607
-0.49634 -0.082975 -0.0166471 -0.964513 -0.262351 0.0297652
-0.216101 0.0876057 0.0688614 -0.964516 -0.26234 0.0297656
-0.102086 -0.182912 0.252044 -0.261352 0.932671 -0.248635
-0.0435738 0.336692 0.203189 -0.198877 0.796046 0.571628
0.22593 0.44609 0.144607 -0.198877 0.796046 0.571628
0.418449 0.35058 -0.148749 0.964516 0.262341 -0.0297662
0.504281 0.031298 -0.181487 0.964516 0.262341 -0.0297662
-0.0277374 -0.213312 0.268424 0.256493 -0.904299 0.341255
-0.152595 0.322473 0.22192 -0.16626 0.691078 0.703398
0.413818 0.380337 -0.0365393 0.964516 0.262341 -0.0297662
0.340224 0.182017 -0.323021 0.0178337 -0.177216 -0.98401
0.539272 -0.234532 -0.138072 0.263421 -0.948563 0.175607
-0.172444 0.193181 -0.330749 -0.0656972 0.129276 -0.98943
0.508016 -0.0788079 -0.219842 -0.0568942 0.316609 0.946848
-0.0249509 0.357173 0.181148 -0.198877 0.796046 0.571628
-0.225761 0.271408 -0.133024 -0.263421 0.948563 -0.175607
0.0926705 -0.0340233 -0.288599 0.0178337 -0.177216 -0.98401
-0.0117149 0.313393 -0.227321 -0.263421 0.948563 -0.175607
0.126532 0.270479 0.249987 -0.0178337 0.177216 0.98401
0.160731 0.394697 -0.0468237 -0.263421 0.948563 -0.175607
0.18341 -0.227243 -0.118519 0.263421 -0.948563 0.175607
-0.180998 0.325903 0.209409 -0.203078 0.80919 0.551335
0.389175 -0.120891 0.147293 0.263421 -0.948563 0.175607
0.146782 -0.0159409 -0.290875 0.0178337 -0.177216 -0.98401
0.265504 0.0167819 -0.294617 0.0178337 -0.177216 -0.98401
0.168614 0.426351 0.112333 -0.263421 0.948563 -0.175607
0.416778 0.278058 -0.33893 0.0178337 -0.177216 -0.98401
-0.126566 0.11327 -0.319099 0.0178336 -0.177216 -0.98401
-0.196181 -0.0139614 -0.0361026 0.0439736 -0.270783 -0.961636
0.239913 0.275883 -0.341743 0.0178337 -0.177216 -0.98401
0.470637 -0.026949 0.234995 -0.259159 0.919165 -0.296602
-0.1897 0.288234 -0.0962303 -0.263421 0.948563 -0.175607
0.251739 -0.148572 0.203935 0.263421 -0.948563 0.175607
-0.0745396 0.0390245 -0.304785 0.0178336 -0.177216 -0.98401
-0.121972 -0.212627 -0.227039 -0.964516 -0.262341 0.0297662
-0.0592652 -0.244296 0.153395 0.263421 -0.948563 0.175607
0.344914 -0.0990306 0.256326 0.173656 -0.545424 0.819973
0.445594 -0.153621 0.0199208 -0.964516 -0.262341 0.0297662
-0.256766 0.0157272 -0.00155114 -0.262516 0.964925 -0.0020681
0.464621 -0.128284 0.222071 -0.017834 0.177215 0.98401
0.260894 0.373692 0.233834 -0.0178337 0.177216 0.98401
0.232844 -0.203165 -0.0626095 0.263421 -0.948563 0.175607
0.280349 0.311448 -0.29269 0.0858844 -0.205139 0.974957
0.474986 0.170025 0.0919311 0.964516 0.262341 -0.0297662
0.44355 0.221055 -0.328179 0.0178337 -0.177216 -0.98401
-0.19118 0.335303 0.174711 -0.258635 0.961468 0.0932111
0.0191611 0.362249 -0.00973513 -0.263421 0.948563 -0.175607
0.0564905 -0.124521 0.263353 -0.122136 0.343382 -0.93122
0.00592469 -0.268364 -0.229783 0.185564 -0.753767 -0.630398
-0.105366 -0.243468 -0.154094 -0.0858904 0.205161 -0.974952
0.114888 0.394858 0.0228143 -0.263421 0.948563 -0.175607
-0.0263489 0.322747 0.151216 0.238695 -0.818244 0.522974
0.408585 0.0311201 0.298206 -0.0178337 0.177216 0.98401
0.444867 0.262602 -0.068105 0.964516 0.262341 -0.0297662
0.0740841 -0.19166 0.237682 0.263421 -0.948563 0.175607
-0.0389138 -0.1412 -0.271682 0.0178337 -0.177216 -0.98401
-0.0898177 -0.252666 0.154015 0.263421 -0.948563 0.175607
0.338214 -0.143338 -0.24968 0.198877 -0.796046 -0.571628
0.249401 0.421681 -0.0340764 -0.263421 0.948563 -0.175607
-0.13899 0.327108 0.0376852 -0.263421 0.948563 -0.175607
0.410889 0.00126129 0.215166 0.226275 -0.763252 0.605183
-0.175317 -0.0785935 -0.0744023 -0.964516 -0.26234 0.0297661
-0.397456 -0.0338657 -0.0221605 -0.203471 0.666725 -0.716991
0.451485 -0.180897 -0.029585 -0.964516 -0.262341 0.0297662
-0.209766 0.0478895 -0.0759149 -0.964516 -0.26234 0.0297667
0.528788 -0.01614 0.19454 0.964516 0.26234 -0.0297661
-0.173693 0.214313 0.254661 -0.0178338 0.177216 0.98401
0.173528 -0.187904 0.108797 0.263421 -0.948563 0.175607
0.367526 -0.0922666 -0.210509 0.194832 -0.631123 0.750815
0.256943 0.391798 0.134672 0.166099 -0.515281 0.840771
0.203527 -0.196491 0.0174146 0.263421 -0.948563 0.175607
-0.122663 0.20424 0.2574 -0.0178338 0.177216 0.98401
0.403673 0.397858 -0.210849 0.964516 0.26234 -0.029766
0.321555 0.143561 0.276379 -0.0178336 0.177216 0.98401
-0.0562407 0.137689 -0.322223 0.0178337 -0.177216 -0.98401
-0.223945 0.29117 -0.0290031 -0.263421 0.948563 -0.175607
0.464687 -0.0909471 -0.218386 -0.0568942 0.316609 0.946848
0.221324 0.410853 -0.0504499 -0.263421 0.948563 -0.175607
0.449093 -0.169059 -0.00277514 -0.964516 -0.262341 0.0297662
0.446933 -0.0686937 -0.211022 0.219213 -0.732874 0.644082
-0.00874499 0.0165593 -0.299547 0.0178337 -0.177216 -0.98401
0.404625 0.397835 -0.180236 0.964516 0.26234 -0.029766
0.297852 -0.130318 0.233363 0.263421 -0.948563 0.175607
-0.17398 0.0359427 0.278483 -0.964516 -0.262341 0.0297661
-0.24152 0.244416 -0.0726786 -0.964517 -0.262336 0.0297645
0.0528451 0.154964 -0.323357 0.0178337 -0.177216 -0.98401
0.330506 0.444248 -0.0338423 -0.263421 0.948563 -0.175607
0.350807 -0.143245 0.0841024 0.263421 -0.948563 0.175607
0.484402 -0.0571453 -0.210552 0.226272 -0.76324 0.605198
0.0235647 0.227895 -0.332486 -0.173656 0.545424 -0.819973
0.542582 -0.064243 0.223167 0.263421 -0.948563 0.175607
0.0152744 -0.124812 -0.273651 0.0178337 -0.177216 -0.98401
0.39331 -0.0829987 0.25674 0.173656 -0.545424 0.819973
-0.226806 0.30863 0.0696041 -0.263421 0.948563 -0.175607
0.0665227 0.404431 0.147076 -0.263421 0.948563 -0.175607
-0.180022 -0.0493392 0.0309912 -0.964516 -0.26234 0.0297676
-0.225307 0.29845 0.0123628 -0.263421 0.948563 -0.175607
0.416213 -0.15676 -0.0870143 0.263421 -0.948563 0.175607
0.17367 0.432251 0.145697 -0.198877 0.796046 0.571628
0.110202 -0.231643 -0.0324681 0.263421 -0.948563 0.175607
0.450529 0.24707 -0.0215479 0.964516 0.262341 -0.0297662
0.302864 0.445671 0.0153108 -0.263421 0.948563 -0.175607
-0.0616991 -0.297555 -0.211295 0.225637 -0.877573 -0.423029
0.467034 -0.219335 0.0523781 0.263421 -0.948563 0.175607
-0.0582198 -0.120843 0.317114 -0.0178337 0.177216 0.98401
0.0826793 0.316421 0.140906 -0.130363 0.571236 0.810367
0.131762 -0.106939 -0.274759 0.0178337 -0.177216 -0.98401
-0.0925917 0.209055 -0.320418 -0.173656 0.545424 -0.819973
0.00589868 0.24951 -0.314367 -0.173656 0.545424 -0.819973
-0.0172025 -0.110483 0.245289 0.258405 -0.961106 -0.0974756
0.431831 -0.0940753 -0.271637 0.0178337 -0.177216 -0.98401
-0.190677 0.0961431 0.268005 -0.964516 -0.262341 0.0297661
0.413176 0.379298 -0.0665164 0.964516 0.262341 -0.0297662
0.177372 0.20563 0.262588 -0.0178336 0.177216 0.98401
0.455592 0.202469 -0.250568 0.964516 0.262343 -0.0297546
0.390887 -0.10293 -0.270785 0.0178337 -0.177216 -0.98401
-0.201608 0.0287913 0.0201192 -0.964517 -0.262337 0.0297612
0.295187 -0.00430957 -0.29028 0.0178337 -0.177216 -0.98401
0.38484 -0.00540156 0.304354 -0.0178336 0.177216 0.98401
0.0059347 -0.22411 0.164629 0.263421 -0.948563 0.175607
0.147481 0.295321 -0.265386 0.262515 -0.964926 0.00205865
-0.0348335 0.225114 0.255233 -0.0178337 0.177216 0.98401
0.435191 0.284487 -0.188774 0.964516 0.262341 -0.0297662
0.45792 0.235493 0.115913 0.964516 0.262341 -0.0297662
0.284612 0.430406 -0.0397685 -0.263421 0.948563 -0.175607
0.419896 -0.136657 0.0555982 -0.263421 0.948563 -0.175607
0.347373 -0.125205 -0.169619 -0.133655 0.387919 -0.911951
0.105991 0.362332 0.161883 0.258405 -0.961107 -0.0974651
0.453813 -0.171209 0.131241 -0.964516 -0.26234 0.029766
0.224222 0.0852083 -0.307688 0.0178337 -0.177216 -0.98401
0.535955 -0.15058 -0.0582096 0.964516 0.26234 -0.0297661
-0.112774 -0.225078 -0.0387146 -0.964516 -0.262341 0.0297661
0.386785 -0.0224061 0.20627 0.0606048 -0.110256 0.992054
0.144589 -0.0469812 0.307488 -0.0178336 0.177216 0.98401
0.549464 -0.204198 -0.0930274 0.964516 0.26234 -0.0297661
0.387692 0.486539 0.108816 -0.263421 0.948563 -0.175607
-0.239944 0.215124 -0.279749 -0.964516 -0.262341 0.0297655
0.319677 0.406403 -0.222019 -0.263421 0.948563 -0.175607
-0.196879 0.279343 0.174835 0.247446 -0.937512 -0.244627
0.434451 -0.210037 0.0948307 -0.964516 -0.26234 0.029766
0.222739 0.147969 -0.319018 0.0178337 -0.177216 -0.98401
-0.0994418 -0.284521 -0.13062 -0.964516 -0.262341 0.0297661
0.310557 0.428339 -0.0898539 -0.263421 0.948563 -0.175607
0.294307 0.361285 0.236674 -0.0178336 0.177216 0.98401
-0.192385 0.181099 -0.230205 0.004681 -0.129714 -0.99154
0.237473 0.230204 -0.333561 0.0178337 -0.177216 -0.98401
-0.128284 -0.165649 -0.0175376 -0.964515 -0.262343 0.0297672
0.191067 -0.0459419 -0.284669 0.0178337 -0.177216 -0.98401
0.531027 -0.0535886 -0.0629663 0.964516 0.262341 -0.0297662
-0.12453 0.191101 -0.332568 -0.014547 -0.0597653 -0.998106
0.47978 0.119776 -0.195608 0.964516 0.262341 -0.0297662
-0.141199 0.306525 -0.0701853 -0.263421 0.948563 -0.175607
0.493889 -0.156305 -0.153446 0.0178337 -0.177216 -0.98401
0.493766 0.101611 0.0974927 0.964516 0.262341 -0.0297662
0.347046 0.0452302 0.29455 -0.0178336 0.177216 0.98401
0.310819 -0.167001 -0.226258 0.198877 -0.796046 -0.571628
-0.0490963 -0.266532 0.0180284 0.263421 -0.948563 0.175607
0.544484 -0.198129 0.0409486 0.704571 -0.696061 0.138127
0.078243 0.181567 -0.327688 0.0178337 -0.177216 -0.98401
-0.219644 0.0954506 0.0231881 -0.964516 -0.262341 0.0297663
-0.208781 0.147895 0.137508 -0.964516 -0.262341 0.0297656
0.439497 -0.192216 0.233129 -0.0178337 0.177216 0.98401
0.118268 -0.182826 0.219123 0.263421 -0.948563 0.175607
-0.456784 -0.102844 0.0269612 0.226275 -0.76325 0.605185
0.54379 -0.140288 -0.192056 0.263623 -0.963123 0.0538331
0.507376 0.0462338 0.0504497 0.964516 0.262341 -0.0297662
-0.160766 0.280029 0.243025 -0.024294 0.200445 0.979404
-0.0850663 0.146902 0.268408 -0.0178338 0.177216 0.98401
0.252245 0.431503 0.174075 -0.198877 0.796046 0.571628
0.197086 -0.200752 -0.218825 0.198877 -0.796046 -0.571628
-0.0262996 0.035532 0.28953 -0.0178337 0.177216 0.98401
0.143584 0.370498 0.221227 -0.198877 0.796046 0.571628
0.531158 -0.10178 0.216458 0.964516 0.26234 -0.0297661
-0.185313 0.241088 -0.303098 -0.22041 0.737989 -0.637802
0.3728 -0.173926 -0.195051 0.198877 -0.796046 -0.571628
0.472338 -0.0400595 -0.280631 0.0178337 -0.177216 -0.98401
-0.231514 0.193271 -0.199189 -0.964517 -0.262338 0.029765
0.401649 0.151383 -0.31639 0.0178337 -0.177216 -0.98401
0.389141 -0.10441 0.236373 0.263421 -0.948563 0.175607
0.530006 -0.0611955 -0.163085 0.964516 0.26234 -0.0297654
-0.0480374 0.296319 -0.265063 -0.263421 0.948563 -0.175607
0.474245 0.169101 0.0597698 0.964516 0.262341 -0.0297662
0.207938 -0.134604 -0.268396 0.0178337 -0.177216 -0.98401
-0.0961883 -0.265138 0.0962021 0.263421 -0.948563 0.175607
-0.084049 0.313234 -0.119672 -0.263421 0.948563 -0.175607
0.526463 -0.0963088 0.112544 0.964516 0.26234 -0.0297661
0.41793 -0.0941898 0.247649 0.261395 -0.932957 0.247516
0.131522 0.0664018 0.286831 -0.0178336 0.177216 0.98401
0.530263 -0.114946 0.0714234 0.964516 0.26234 -0.0297661
0.411008 0.398627 0.0335977 0.964516 0.262341 -0.0297662
0.32242 -0.197986 -0.169008 0.263421 -0.948563 0.175606
0.377431 0.404057 -0.30542 -0.249122 0.866935 -0.431696
-0.161275 0.270693 -0.233619 -0.263421 0.948563 -0.175607
0.410899 -0.109826 0.214863 -0.964516 -0.262339 0.0297659
-0.196539 -0.00111185 -0.155665 -0.0347158 0.0142517 -0.999296
0.00147165 -0.120821 0.318066 0.00159034 0.106965 0.994261
-0.324833 -0.0361195 -0.0335608 -0.0477189 0.0623289 -0.996914
0.281893 -0.205039 -0.14631 0.263421 -0.948563 0.175607
0.531949 -0.0362881 0.119378 0.964524 0.262313 -0.0297564
-0.176099 -0.00478556 -0.298736 0.0178337 -0.177216 -0.98401
0.408366 0.354854 -0.293275 0.166104 -0.5153 0.840759
0.231842 -0.0360759 -0.285707 0.0178337 -0.177216 -0.98401
-0.224635 0.164973 -0.225701 -0.964513 -0.262354 0.0297672
0.362651 0.384363 0.141681 -0.224291 0.873621 0.431833
0.436023 0.0476849 0.29572 -0.0178337 0.177216 0.98401
-0.153085 0.34589 0.164741 -0.263623 0.963122 -0.0538369
0.510069 0.0170837 0.203894 0.122139 -0.343396 0.931215
0.239665 0.301548 -0.329261 -0.173656 0.545424 -0.819973
0.343354 0.261224 0.255584 -0.0178336 0.177216 0.98401
0.0910086 0.162772 0.268741 -0.0178337 0.177216 0.98401
0.291276 -0.130447 -0.267634 0.0178337 -0.177216 -0.98401
-0.211907 0.110854 -0.290236 -0.964516 -0.262342 0.029766
0.0102526 0.13304 -0.32018 0.0178337 -0.177216 -0.98401
-0.141491 0.289699 -0.160633 -0.263421 0.948563 -0.175607
0.310144 0.388754 0.232014 -0.0178336 0.177216 0.98401
0.245317 -0.0654332 -0.280176 0.0178337 -0.177216 -0.98401
-0.0923471 0.34359 0.0567463 -0.263421 0.948563 -0.175607
0.0820499 0.117041 -0.315998 0.0178337 -0.177216 -0.98401
0.426418 0.303419 -0.306184 0.964516 0.262341 -0.0297663
-0.156436 0.248823 -0.304127 -0.22041 0.737989 -0.637802
0.2417 0.29828 -0.291876 0.0606048 -0.110256 0.992054
0.12176 0.31534 0.241821 -0.0178337 0.177216 0.98401
-0.139069 0.0928111 0.277171 -0.0178337 0.177216 0.98401
0.548329 -0.190719 -0.011009 0.964516 0.26234 -0.0297661
0.497206 -0.0550744 -0.180534 0.17327 -0.714009 -0.678358
0.451761 0.2693 0.21431 0.964516 0.262342 -0.0297616
0.430598 0.128811 0.281012 -0.0178337 0.177216 0.98401
0.540589 -0.111124 -0.0270761 0.263421 -0.948563 0.175607
0.394991 -0.117775 -0.211949 -0.141643 0.609285 0.780198
-0.221852 0.0956832 -0.0462926 -0.964516 -0.262341 0.029766
-0.140665 -0.10645 0.103036 -0.964516 -0.26234 0.0297668
0.0510303 -0.237021 0.0272436 0.263421 -0.948563 0.175607
0.135859 0.0108706 -0.295902 0.0178337 -0.177216 -0.98401
0.0402643 0.34184 0.150836 0.248744 -0.865106 0.435567
-0.128996 -0.135853 0.222018 -0.964516 -0.262341 0.0297664
0.070419 0.0335215 0.291645 -0.0178337 0.177216 0.98401
0.0252574 0.225141 0.256317 -0.0178337 0.177216 0.98401
-0.245363 0.279307 0.110317 -0.964516 -0.26234 0.0297661
0.427102 -0.166982 -0.0399282 0.263421 -0.948563 0.175606
-0.189226 0.0857796 0.223696 -0.964516 -0.262341 0.0297662
-0.0334199 0.290562 0.243471 -0.0178337 0.177216 0.98401
0.515204 -0.211074 -0.143196 0.0178358 -0.177211 -0.984011
0.1765 0.303015 -0.268955 0.263784 -0.952689 0.151004
-0.0511723 -0.261373 0.0490113 0.263421 -0.948563 0.175607
0.23064 -0.190698 0.008035 0.263421 -0.948563 0.175607
0.14554 -0.208836 0.0377145 0.263421 -0.948563 0.175607
0.448141 0.261895 0.0317323 0.964517 0.262338 -0.0297619
-0.186061 -0.0359142 -0.0113312 0.247445 -0.937508 -0.244642
-0.165412 -0.00135888 0.227359 -0.964516 -0.262341 0.0297662
0.133011 0.405721 0.0543026 -0.263421 0.948563 -0.175607
0.532789 -0.028132 0.218478 0.964516 0.26234 -0.0297661
0.213995 -0.164786 0.172968 0.263421 -0.948563 0.175607
0.364217 -0.181137 -0.140692 0.263421 -0.948563 0.175607
-0.137356 -0.153718 -0.206344 -0.964516 -0.262341 0.0297661
0.264024 -0.0916736 -0.275111 0.0178337 -0.177216 -0.98401
0.105805 0.263889 -0.239693 0.030944 -0.224285 -0.974032
0.226956 0.333648 -0.305217 -0.173656 0.545424 -0.819973
0.294043 0.335185 -0.269838 0.262516 -0.964925 0.00207056
0.488315 -0.0066961 0.250164 -0.122139 0.343396 -0.931215
0.525747 -0.0877094 0.16513 0.964516 0.26234 -0.0297661
0.340482 -0.0947287 -0.203789 0.244023 -0.842722 0.479867
0.52459 -0.0474618 -0.217561 0.964516 0.262337 -0.0297923
0.45453 0.0862573 -0.303703 0.0178337 -0.177216 -0.98401
0.507888 0.0366873 -0.0171151 0.964516 0.262341 -0.0297662
-0.217141 0.127419 -0.313842 -0.964516 -0.26234 0.0297659
0.141461 -0.19005 -0.253082 0.198877 -0.796046 -0.571628
0.492312 0.116115 0.178222 0.964516 0.262341 -0.0297662
0.423852 0.30911 -0.339183 0.964516 0.262341 -0.0297663
0.388818 0.480838 0.0763348 -0.263421 0.948563 -0.175607
0.367245 -0.144709 0.051538 0.263421 -0.948563 0.175607
0.283845 0.132079 0.277763 -0.0178336 0.177216 0.98401
0.137534 0.101243 0.280665 -0.0178336 0.177216 0.98401
-0.00911712 -0.245638 -0.249571 0.0874471 -0.423797 -0.901526
-0.150973 -0.0567485 0.207056 -0.964516 -0.26234 0.0297686
-0.0895698 0.0230695 0.290628 -0.0178337 0.177216 0.98401
0.502141 0.0805955 0.183663 0.964516 0.262341 -0.0297662
-0.241865 0.232468 -0.189146 -0.964516 -0.262341 0.0297662
0.510089 0.00695155 -0.207847 0.964516 0.262342 -0.0297572
0.242343 -0.206241 -0.0934798 0.263421 -0.948563 0.175607
0.239493 0.398701 0.156989 0.260784 -0.964214 -0.0477718
0.000568955 0.0370284 0.289748 -0.0178337 0.177216 0.98401
0.418068 -0.121732 0.108934 -0.964516 -0.262342 0.0297664
0.472434 0.142854 -0.23025 0.964516 0.262339 -0.029775
0.270424 0.283743 -0.283371 -0.192248 0.775105 0.601875
-0.285289 0.00654961 -0.0100805 -0.259159 0.919165 -0.296601
0.379359 0.295685 0.25003 -0.0178336 0.177216 0.98401
0.2849 0.0708241 0.288814 -0.0178336 0.177216 0.98401
-0.102555 -0.270093 -0.104333 -0.964516 -0.262341 0.0297661
0.232833 0.414733 0.190675 -0.198877 0.796046 0.571628
-0.223446 0.153535 -0.287973 -0.964516 -0.26234 0.0297659
0.517629 -0.164771 0.229603 -0.0178337 0.177216 0.98401
0.468791 0.0961966 0.287578 -0.0178337 0.177216 0.98401
0.433764 0.279526 -0.278729 0.964517 0.262341 -0.0297495
0.387118 0.312014 -0.281173 -0.230956 0.892965 0.386358
0.532871 -0.117587 0.132622 0.964516 0.26234 -0.0297661
-0.165102 -0.0576412 -0.25863 -0.964516 -0.262342 0.029763
-0.016029 -0.146113 0.31859 0.0656971 -0.129276 0.98943
0.174589 -0.113045 0.283076 0.173656 -0.545424 0.819973
0.377453 0.0423406 0.295621 -0.0178336 0.177216 0.98401
0.488376 -0.235624 -0.0676209 0.263421 -0.948563 0.175607
0.293397 0.410996 -0.157792 -0.263421 0.948563 -0.175607
0.124663 0.367331 -0.140541 -0.263421 0.948563 -0.175607
0.447201 0.272003 0.0903858 0.964516 0.262341 -0.0297662
0.247689 0.398749 0.218103 -0.198877 0.796046 0.571628
0.500044 -0.136223 0.224143 -0.0178345 0.177214 0.984011
0.209639 0.25016 0.255153 -0.0178336 0.177216 0.98401
0.383887 0.353662 -0.256495 0.182987 -0.745486 -0.640911
0.531287 -0.0746447 -0.240125 0.964516 0.262341 -0.0297661
0.361819 0.0705125 -0.302548 0.0178337 -0.177216 -0.98401
0.0470461 -0.133132 0.296726 0.173656 -0.545424 0.819973
-0.0446159 -0.154091 0.319446 0.0656971 -0.129276 0.98943
-0.134092 0.0552864 0.284019 -0.0178337 0.177216 0.98401
-0.279286 -0.0620075 0.00472004 0.263784 -0.952686 0.151021
0.083844 -0.194308 0.208736 0.263421 -0.948563 0.175607
0.271253 -0.0682913 0.292373 0.173656 -0.545424 0.819973
-0.145458 -0.0793613 0.186477 -0.964516 -0.262341 0.029766
-0.202806 0.130006 0.17343 -0.964516 -0.262341 0.0297662
-0.143202 -0.122325 -0.119089 -0.964516 -0.262341 0.029766
0.275991 0.205103 0.26447 -0.0178336 0.177216 0.98401
0.348587 0.332383 0.242863 -0.0178336 0.177216 0.98401
0.301163 -0.0722939 0.224163 -0.230956 0.892966 0.386356
0.306045 0.433111 -0.057303 -0.263421 0.948563 -0.175607
-0.103546 -0.259265 -0.0410079 -0.964516 -0.262341 0.0297661
0.343921 0.314254 -0.293328 -0.0696817 0.361677 0.929696
0.401283 0.365345 0.237881 -0.0178336 0.177216 0.98401
0.465552 -0.0851897 -0.272626 0.0178337 -0.177216 -0.98401
0.0936828 -0.212164 0.0975309 0.263421 -0.948563 0.175607
0.35509 0.378137 0.234741 -0.0178336 0.177216 0.98401
-0.0573921 0.0877978 0.279554 -0.0178338 0.177216 0.98401
0.0367519 -0.165006 0.277705 0.173656 -0.545424 0.819973
0.434216 -0.229396 -0.0833919 -0.964516 -0.262341 0.0297664
-0.0642847 -0.163507 -0.268124 0.0178337 -0.177216 -0.98401
-0.206332 0.102448 -0.183671 -0.964516 -0.26234 0.0297662
0.0422731 0.323925 -0.251416 -0.263421 0.948563 -0.175607
0.439059 -0.22151 0.00350423 -0.263421 0.948563 -0.175607
-0.19659 0.0131203 0.0446049 -0.964516 -0.26234 0.0297661
0.499443 0.0846183 0.131692 0.964516 0.262341 -0.0297662
0.442682 0.262177 -0.14265 0.964516 0.262341 -0.0297662
0.428645 0.318335 0.246844 -0.0178337 0.177216 0.98401
0.0815834 0.259356 -0.323847 -0.173656 0.545424 -0.819973
0.534685 -0.0745968 -0.129606 0.964516 0.262341 -0.0297662
-0.112944 -0.22807 -0.0705964 -0.964516 -0.262341 0.0297661
-0.0525395 0.316909 0.154317 0.248746 -0.865116 0.435545
0.543802 -0.186976 0.100613 0.73861 -0.660998 0.132429
-0.217779 0.13578 -0.260821 -0.964516 -0.26234 0.029766
0.164948 0.372294 -0.174166 -0.263421 0.948563 -0.175607
0.496624 0.103582 0.207484 0.964516 0.262341 -0.0297636
0.408163 0.417039 0.103667 0.964516 0.262341 -0.0297662
-0.231718 0.284332 0.236605 -0.0995634 0.465817 0.879262
0.0520543 -0.261373 -0.105834 0.263421 -0.948563 0.175607
