ply
format ascii 1.0
comment Created by Open3D
element vertex 128
property double x
property double y
property double z
property double nx
property double ny
property double nz
end_header
0.235342 -0.22031 -0.158972 0.263421 -0.948563 0.175607
0.436268 0.318761 0.148211 0.964516 0.262341 -0.0297662
0.259135 0.435922 0.0282436 -0.263421 0.948563 -0.175607
0.329358 -0.155681 0.0490981 0.263421 -0.948563 0.175607
0.423863 0.351731 0.0368091 0.964516 0.262341 -0.0297662
-0.356259 -0.0832526 0.000992815 0.260785 -0.964215 -0.0477573
-0.155332 -0.0888076 -0.216729 -0.964516 -0.262341 0.0297661
-0.200619 0.196852 -0.327745 -0.102509 0.268195 -0.957895
0.105116 0.318746 0.14339 -0.17327 0.714009 0.678358
-0.186016 0.0282368 -0.179438 -0.964516 -0.262341 0.0297661
0.407714 0.14505 -0.31514 0.0178337 -0.177216 -0.98401
0.521036 0.0117167 0.18884 0.964515 0.262345 -0.0297678
0.0891607 -0.183138 -0.208104 0.0477175 -0.0623237 0.996915
-0.105429 0.169104 -0.328772 0.0178336 -0.177216 -0.98401
-0.244547 -0.00487241 -0.0342067 -0.11032 0.298017 -0.948164
0.537853 -0.155321 -0.0385 0.964516 0.26234 -0.0297661
0.128761 -0.237392 -0.0913658 0.263421 -0.948563 0.175607
-0.180951 0.0599097 0.263835 -0.964516 -0.262341 0.0297661
-0.135932 -0.0293193 0.299223 -0.0178337 0.177216 0.98401
0.538138 -0.0999234 -0.24092 0.964518 0.262335 -0.02976
0.438986 0.273432 -0.163223 0.964516 0.262341 -0.0297662
0.46827 0.187839 0.0312948 0.964516 0.262341 -0.0297662
0.270989 0.378729 0.130807 -0.00468334 0.129722 0.991539
0.163602 0.0825893 0.284497 -0.0178336 0.177216 0.98401
0.236449 0.406565 -0.0963004 -0.263421 0.948563 -0.175607
-0.0901025 -0.274222 0.0380036 0.263421 -0.948563 0.175607
-0.0502797 -0.222296 0.258648 0.262904 -0.943928 0.199702
0.0923453 -0.198734 0.172077 0.263421 -0.948563 0.175607
0.335444 0.14417 0.276521 -0.0178336 0.177216 0.98401
-0.202206 0.26804 -0.186551 -0.263421 0.948563 -0.175607
0.121786 0.281568 -0.317586 -0.173656 0.545424 -0.819973
0.237205 -0.19582 -0.0294804 0.263421 -0.948563 0.175607
0.409254 -0.0267198 -0.284177 0.0178337 -0.177216 -0.98401
-0.135176 -0.150609 -0.108307 -0.964516 -0.26234 0.0297656
0.455831 0.258524 0.251224 0.964516 0.262341 -0.0297662
0.103668 0.148063 -0.321193 0.0178337 -0.177216 -0.98401
-0.0374708 0.0698332 -0.309662 0.0178337 -0.177216 -0.98401
0.407275 0.397325 -0.0988297 0.964516 0.26234 -0.029766
0.442393 -0.197333 0.208189 0.263421 -0.948563 0.175607
-0.199222 0.111568 0.12707 -0.964516 -0.262341 0.0297655
0.297912 0.275427 0.252202 -0.0178336 0.177216 0.98401
0.197853 0.270691 -0.245469 -0.1661 0.515283 -0.84077
-0.180857 -0.0419052 0.0694371 -0.964516 -0.262341 0.0297656
-0.214911 0.141718 -0.115565 -0.964516 -0.262341 0.0297662
-0.234903 0.240859 0.110381 -0.964516 -0.26234 0.0297661
0.0788895 0.340613 -0.216199 -0.263421 0.948563 -0.175607
0.493847 0.0883585 -0.0166943 0.964516 0.262341 -0.0297662
-0.131147 0.273578 0.244759 -0.0178338 0.177216 0.98401
-0.210549 0.165982 0.239604 -0.964516 -0.262341 0.0297662
0.390609 0.36797 0.237215 -0.0178336 0.177216 0.98401
0.369126 -0.0248247 0.207208 0.0858869 -0.205148 0.974955
0.407686 -0.15047 -0.247441 -0.964513 -0.262353 0.0297615
0.501841 0.0467233 -0.124584 0.964516 0.262341 -0.0297662
-0.0121493 -0.00885533 0.297781 -0.0178337 0.177216 0.98401
-0.0191472 0.372993 0.105767 -0.263421 0.948563 -0.175607
0.543061 -0.153516 0.228037 -0.0178388 0.177203 0.984013
-0.221473 0.177315 -0.0144762 -0.964513 -0.262353 0.0297676
0.46336 -0.224316 0.0309853 0.263421 -0.948563 0.175607
-0.217742 0.137274 -0.246455 -0.964516 -0.26234 0.029766
0.282812 -0.13914 0.208274 0.263421 -0.948563 0.175607
0.435485 0.267059 -0.332831 0.964516 0.262341 -0.0297663
0.182999 0.310591 0.243786 -0.0178337 0.177216 0.98401
0.134413 0.00150417 -0.294241 0.0178337 -0.177216 -0.98401
0.500765 0.0371029 -0.244244 0.964516 0.262341 -0.0297661
-0.0195065 -0.144114 -0.270805 0.0178336 -0.177216 -0.98401
0.0711473 -0.0847087 0.312951 -0.0178336 0.177216 0.98401
0.22095 0.379216 -0.220778 -0.263421 0.948563 -0.175607
0.294625 0.268082 -0.339347 0.0178337 -0.177216 -0.98401
-0.492197 -0.0923137 0.0352816 -0.964516 -0.262343 0.0297654
0.272563 0.0412081 0.293924 -0.0178336 0.177216 0.98401
0.493834 0.115722 0.224056 0.964516 0.26234 -0.0297687
0.377251 0.351597 -0.346168 -0.0904452 0.222384 -0.970755
-0.0149006 -0.123197 0.221179 0.144839 -0.43148 0.890419
0.0446655 0.375191 0.0219143 -0.263421 0.948563 -0.175607
-0.044238 -0.0445801 -0.289179 0.0178336 -0.177216 -0.98401
0.42559 0.0633077 0.292718 -0.0178337 0.177216 0.98401
-0.0486772 -0.277933 -0.233668 0.166261 -0.69108 -0.703396
0.295557 0.102394 -0.30949 0.0178337 -0.177216 -0.98401
-0.200345 0.300998 -0.0113162 -0.263421 0.948563 -0.175607
-0.125233 -0.142332 0.286845 -0.964516 -0.262341 0.0297661
0.345463 0.468941 0.0771052 -0.263421 0.948563 -0.175607
-0.00737544 0.324318 0.233016 -0.198877 0.796046 0.571628
0.050278 0.223016 -0.247731 -0.232774 0.791731 -0.564781
-0.0671657 0.329493 -0.057173 -0.263421 0.948563 -0.175607
-0.102063 -0.271007 -0.0964365 -0.964516 -0.262341 0.0297661
-0.156057 -0.141167 -0.00179507 -0.964516 -0.262341 0.0297662
0.467089 -0.0676861 0.273519 0.227275 -0.767598 0.599282
0.22205 0.180029 0.268008 -0.0178336 0.177216 0.98401
0.52191 -0.015741 -0.0248266 0.964516 0.262341 -0.0297662
0.335724 0.449784 0.211661 -0.145355 0.621734 0.769622
0.449989 0.244141 -0.0648498 0.964516 0.262341 -0.0297662
-0.0678717 0.267178 0.155141 -0.224292 0.873625 0.431824
-0.155131 -0.0441415 0.183424 -0.964516 -0.262341 0.029766
0.374 -0.163418 -0.059655 0.263421 -0.948563 0.175607
-0.126698 -0.198741 -0.257802 -0.964516 -0.262341 0.0297662
0.151793 -0.202431 0.0629365 0.263421 -0.948563 0.175607
0.0331587 -0.247489 -0.00249315 0.263421 -0.948563 0.175607
0.0853683 0.233174 0.25596 -0.0178337 0.177216 0.98401
0.147341 0.410622 0.0592839 -0.263421 0.948563 -0.175607
-0.122293 0.338569 0.0745461 -0.263421 0.948563 -0.175607
-0.0325181 0.172393 0.264769 -0.0178337 0.177216 0.98401
0.535349 -0.0753052 -0.114328 0.964516 0.262341 -0.0297662
0.243932 -0.0394971 0.231628 0.264017 -0.959153 0.101587
0.390831 0.465962 -0.00704215 -0.263421 0.948563 -0.175607
0.496064 0.0942317 0.106914 0.964516 0.262341 -0.0297662
0.483668 -0.217686 -0.142577 0.0178337 -0.177216 -0.98401
0.180484 0.420574 0.164328 -0.198877 0.796046 0.571628
0.470059 0.157357 -0.179394 0.964516 0.262341 -0.0297662
-0.0778225 0.0685104 0.282657 -0.0178338 0.177216 0.98401
-0.0176967 -0.235814 0.136854 0.263421 -0.948563 0.175607
0.0972222 0.367194 -0.100119 -0.263421 0.948563 -0.175607
0.202136 0.191563 -0.327243 0.0178337 -0.177216 -0.98401
0.339607 0.317068 -0.246883 -0.0858871 0.205149 -0.974955
0.164703 -0.144504 0.264244 0.173656 -0.545424 0.819973
0.418721 -0.122508 0.123266 -0.964516 -0.262342 0.0297664
0.52367 -0.19165 0.116968 0.263421 -0.948563 0.175607
-0.23414 0.318342 0.197956 -0.232092 0.896205 0.378086
0.369897 0.423339 -0.205872 -0.263421 0.948563 -0.175607
0.02622 -0.271609 -0.122371 0.263421 -0.948563 0.175607
0.271705 -0.0160378 -0.288594 0.0178337 -0.177216 -0.98401
0.0499719 0.082152 0.282517 -0.0178337 0.177216 0.98401
0.329674 -0.102942 -0.20966 0.194832 -0.631123 0.750815
0.226819 -0.131318 -0.268645 0.0178337 -0.177216 -0.98401
-0.0732762 0.213616 -0.233897 0.004681 -0.129714 -0.99154
-0.184599 0.00973897 -0.296562 -0.964516 -0.262341 0.0297662
-0.115343 -0.19057 0.182169 -0.964516 -0.262341 0.0297655
0.54092 -0.0703705 0.109695 0.964516 0.26234 -0.0297661
-0.0404225 0.313782 -0.182154 -0.263421 0.948563 -0.175607
